ply
format ascii 1.0
element vertex 1683
property float x
property float y
property float z
end_header
0.362219 0.125179 -0.290586
0.482921 0.170180 0.138643
-0.249372 -0.114804 -0.234203
0.168346 0.210409 -0.009618
-0.345916 0.205278 -0.049499
-0.379574 0.069954 -0.234203
-0.059869 -0.181825 -0.234203
0.388125 0.032273 0.138628
0.238143 0.071681 0.322317
0.330641 0.088309 0.306475
-0.426313 0.091141 -0.367576
0.125690 0.075727 -0.308707
0.242065 0.260539 -0.010123
-0.154165 0.318444 -0.234203
0.125751 -0.061918 0.054808
-0.254940 0.328430 -0.203523
-0.299343 0.145210 -0.234203
-0.030404 -0.030139 -0.234203
-0.219131 0.092540 -0.487851
0.184452 0.225914 -0.009604
0.379997 -0.036587 0.150251
0.169168 0.215282 -0.367576
-0.491762 0.123869 -0.334169
0.331325 0.120022 -0.440465
0.217999 -0.020610 0.321589
-0.326487 -0.050277 -0.023377
0.405262 0.234711 -0.085732
0.455283 0.073876 0.000664
0.117215 -0.085091 -0.343160
-0.015998 -0.168134 0.461240
-0.163253 0.295813 -0.015908
-0.135738 -0.167855 -0.367576
0.392556 0.210035 -0.215331
-0.054623 -0.161109 -0.234203
0.255948 -0.104510 -0.236442
-0.408624 -0.037776 -0.339420
0.211842 0.029801 -0.493737
0.347792 0.220552 -0.255257
0.385277 0.196948 0.138643
0.020774 -0.170857 -0.234203
-0.210637 0.323004 -0.083765
0.125751 0.041160 0.050952
-0.251757 0.031948 0.094338
0.309133 -0.159948 0.357161
0.330348 0.024146 0.315331
0.225358 0.162242 -0.009618
-0.072672 -0.141869 -0.010434
-0.363298 0.105936 -0.367576
0.010497 -0.119393 0.492790
-0.063131 -0.171052 -0.234203
0.045526 -0.021473 -0.492392
-0.243924 0.189386 -0.234203
0.054359 0.252942 -0.488340
-0.105780 0.316264 -0.367576
0.349954 0.004222 -0.477664
0.112166 -0.121133 -0.282422
-0.164584 0.245286 -0.234203
-0.239385 0.338531 -0.200403
-0.006774 0.209637 -0.489144
-0.314987 0.065575 -0.367576
0.268857 -0.047599 0.107994
-0.102820 0.343097 -0.071506
0.255925 0.065351 0.279321
0.363949 0.282041 0.138628
0.125751 0.114943 -0.284585
-0.106992 0.100633 -0.367576
0.113427 -0.182084 -0.450572
0.211853 0.320166 -0.450197
-0.170332 0.099395 -0.234203
0.340664 0.078856 -0.487591
-0.076892 0.004733 -0.234203
0.268603 -0.028104 0.112815
0.470678 0.060477 0.025924
-0.102025 -0.225945 -0.165947
-0.157843 0.317501 -0.047435
-0.015308 0.251310 -0.234203
0.125751 0.060427 -0.283369
0.125690 -0.044820 -0.320373
0.029554 0.029829 -0.234203
-0.374747 0.141518 -0.234203
-0.134005 0.080334 -0.234203
0.124880 0.312679 -0.394897
-0.356612 0.019299 -0.018600
0.244243 0.280192 -0.254429
-0.198428 -0.166022 -0.100323
-0.067092 0.091428 -0.367576
-0.293090 0.228027 0.008307
0.418188 0.155048 -0.216140
0.088722 0.142351 -0.492140
-0.194463 0.353524 -0.147476
0.255925 0.139111 0.200721
0.231311 0.055263 0.331688
-0.073295 0.158380 -0.234203
0.061161 0.232298 -0.367576
0.324567 0.040910 0.138643
0.224887 0.154077 -0.367576
0.220100 0.215232 0.133567
0.452953 0.109771 -0.020719
0.340559 -0.015460 -0.009618
-0.068692 0.295881 -0.002387
0.341942 0.166761 0.295000
-0.028824 -0.232459 -0.138322
0.333062 0.236679 -0.009618
0.115629 0.017837 -0.234203
0.106200 -0.129272 -0.234203
-0.102445 0.166956 -0.234203
-0.010079 -0.054892 0.330591
0.148823 -0.059741 0.383253
0.068831 0.206052 -0.234203
0.125751 -0.055109 -0.042997
-0.158689 0.148621 -0.234203
-0.219100 -0.157572 -0.367576
-0.300169 0.260237 -0.234203
-0.023682 -0.124182 -0.491462
0.255925 0.010085 0.292941
0.333149 0.106862 -0.009618
0.059518 0.320939 -0.484050
-0.079611 -0.190071 -0.076420
0.230417 -0.036253 -0.370856
0.197767 0.261959 0.001528
0.037393 -0.194211 -0.087838
0.125751 -0.017268 0.087705
0.277066 0.285961 -0.067225
0.254028 0.119949 -0.375678
-0.072775 -0.218614 -0.296791
0.095688 -0.095295 0.385065
-0.156414 -0.120801 0.008263
0.255925 0.107499 0.244722
-0.315129 -0.022106 -0.234203
0.425778 0.031180 0.138628
0.317174 -0.066853 0.174066
-0.242606 0.144407 -0.234203
0.034294 -0.099939 -0.367576
0.170409 0.025529 0.127617
-0.163954 0.367171 -0.245403
0.380061 -0.189322 0.290925
-0.251347 0.316895 -0.298223
0.449016 0.066503 0.138628
0.236798 0.074312 -0.009604
0.481490 0.181330 0.145834
0.454953 0.108500 -0.165684
0.125751 -0.031706 -0.073014
-0.106685 0.089827 -0.367576
0.018594 0.179047 -0.234203
0.202358 -0.030023 0.338071
0.241357 0.295925 -0.196858
0.106128 -0.150462 -0.392991
-0.191919 -0.137285 -0.042643
-0.438470 -0.002927 -0.374980
0.028204 0.055611 -0.367576
-0.022755 -0.076389 -0.367576
-0.251403 -0.090797 -0.234203
-0.291836 0.071351 -0.367576
0.364538 0.230575 0.271509
0.109352 0.291835 -0.373298
-0.486719 0.145447 -0.281913
0.268603 0.223703 0.023291
-0.090801 -0.080493 -0.490307
0.313390 0.039788 -0.492798
0.082692 -0.024334 0.349821
0.255925 0.087358 0.183375
-0.438659 0.155279 -0.402811
-0.059800 0.184823 -0.367576
0.336605 0.193301 -0.283082
0.302622 0.279299 -0.209609
0.454137 0.042787 0.207534
0.427056 -0.020484 -0.155876
0.371060 -0.302969 0.359043
-0.268034 0.014442 0.076790
-0.179390 0.331836 -0.367576
-0.383165 0.097236 -0.061988
-0.027280 -0.166224 -0.045590
-0.210569 0.270980 0.004039
0.337608 0.230418 -0.255716
-0.002672 0.132564 -0.234203
0.133814 -0.039444 0.417628
0.396377 0.070583 0.138643
0.125751 0.155019 0.020889
0.184114 0.033479 0.134491
-0.102730 -0.149144 -0.234203
0.378037 -0.263080 0.421289
0.093397 -0.007210 -0.492943
0.279093 -0.092398 0.013406
0.325046 -0.045495 0.186845
0.268639 0.056768 -0.000695
0.219955 -0.079237 -0.009604
0.268639 -0.004675 0.056328
0.241623 -0.005200 0.300867
0.359992 0.338640 0.137841
0.043406 -0.022543 -0.367576
0.443178 0.049220 -0.005369
0.333972 0.266707 0.138628
0.191950 0.238598 0.078617
0.125751 0.063998 0.085030
-0.122052 0.370499 -0.130587
-0.356879 0.250431 -0.326847
-0.019326 0.354846 -0.399749
0.309042 0.067041 -0.411266
-0.340885 0.128952 -0.234203
-0.073522 -0.107957 -0.234203
0.471573 0.098340 0.138643
0.046008 0.298648 -0.234203
0.310098 0.097155 -0.415031
0.217211 -0.066074 -0.009604
0.122216 -0.125087 -0.217422
-0.185382 0.355117 -0.275453
0.092021 -0.157441 -0.287320
-0.300570 -0.007096 -0.470099
0.268603 0.251440 0.091532
-0.034543 0.177627 -0.367576
0.183225 0.013147 0.334525
0.428898 0.232573 0.138628
-0.376612 0.192070 -0.125234
0.438802 0.096700 -0.203364
0.447770 0.180039 0.138628
-0.235329 0.011971 0.098337
-0.404500 0.064211 -0.140094
0.311105 -0.350975 0.444237
-0.328787 0.030803 -0.234203
-0.164454 0.064967 -0.234203
0.396884 -0.061590 -0.116122
0.325971 -0.300260 0.432720
-0.237614 0.048814 -0.234203
0.293628 0.294542 -0.099192
-0.010420 0.084848 0.127287
0.046056 0.078130 -0.492316
0.082692 -0.024827 0.429156
0.292994 -0.349311 0.335348
0.268639 0.147023 0.050732
0.200197 0.099718 -0.494112
0.125751 -0.078448 -0.046094
-0.060940 0.158892 -0.367576
0.093971 0.344290 -0.436624
0.169143 0.185883 0.112364
-0.123612 0.258922 -0.234203
0.135548 -0.063992 -0.493160
0.213662 -0.122295 -0.198907
0.245529 -0.042337 -0.009604
-0.237775 -0.072053 -0.367576
-0.150503 -0.026388 -0.234203
-0.294636 0.169454 -0.367576
0.055747 0.329254 -0.234690
0.320043 -0.252098 0.408052
0.286072 0.182870 -0.329140
-0.127363 -0.107556 -0.234203
-0.025053 0.270682 0.024958
0.416754 0.271494 0.138628
0.070750 0.321190 -0.483989
-0.014562 -0.122151 -0.234203
-0.329125 0.258364 -0.364108
-0.285773 0.008039 0.060944
-0.253153 0.280818 -0.422765
-0.308013 -0.119333 -0.288837
-0.157587 0.041146 -0.234203
-0.127593 -0.180921 -0.367576
-0.067204 0.294980 -0.001295
-0.390978 0.071567 -0.080512
0.347446 0.317631 0.172646
0.076513 -0.030215 0.440372
-0.347677 0.165650 -0.234203
-0.381277 0.095560 -0.057299
0.221006 0.202101 -0.490990
0.255925 0.210211 0.199721
0.125751 0.084661 0.040903
0.255925 0.125255 0.171491
0.010633 0.065743 0.124813
-0.153943 0.158915 0.128237
-0.297965 -0.127838 -0.165381
0.285777 0.258280 0.208828
0.162441 -0.034527 0.270874
-0.162259 -0.009510 -0.367576
-0.184957 0.216802 -0.234203
0.166859 0.258120 -0.367576
0.041806 -0.094035 0.331856
-0.065070 -0.135238 -0.234203
0.025238 -0.197133 -0.399847
-0.176570 -0.163106 -0.077511
0.247180 -0.045400 0.118117
0.221867 0.059310 -0.367576
0.043138 0.334075 -0.096083
0.065369 -0.157254 -0.234203
0.341165 -0.027569 -0.009604
0.068848 -0.010326 0.374934
0.455824 0.046939 -0.070205
0.259431 0.223568 0.230332
0.324458 0.212702 -0.466576
-0.419913 0.063554 -0.429880
-0.305041 0.260783 -0.367576
-0.122010 -0.118985 -0.367576
0.319778 0.035771 -0.322077
-0.132657 0.127938 -0.489263
0.125751 0.265549 -0.180076
0.255925 0.176873 0.207821
-0.370960 -0.069630 -0.313141
0.372164 -0.042234 0.175161
0.373513 -0.046475 0.003944
-0.172494 -0.083859 -0.234203
0.219358 0.161861 -0.367576
-0.260177 0.019772 -0.367576
0.449996 0.174225 0.264416
0.291264 0.028410 -0.009604
0.198327 0.216390 0.114081
0.334919 -0.073623 0.335417
0.085594 -0.099977 0.384485
0.267666 0.297565 -0.173405
-0.242203 0.333947 -0.222594
0.125751 0.254655 -0.177995
0.411933 0.178376 -0.009604
0.268603 0.045314 0.017176
-0.012057 -0.138700 -0.367576
-0.138218 -0.214240 -0.211128
0.260974 0.027693 -0.493702
0.125751 0.176516 -0.324099
0.058996 0.193710 -0.490456
0.296871 -0.286150 0.305014
-0.452639 0.061359 -0.401403
-0.327940 0.263867 -0.348186
0.200538 -0.136051 -0.143789
0.299908 -0.220642 0.275974
0.036225 -0.169446 -0.056492
-0.266178 -0.152521 -0.234203
0.134543 -0.067597 0.314802
-0.009085 -0.080599 0.401141
0.019123 -0.008761 -0.234203
0.130825 -0.052440 -0.367576
0.008118 -0.089367 -0.234203
0.373375 0.266247 0.248535
-0.404921 -0.041164 -0.336991
-0.213993 -0.045934 -0.234203
0.072975 -0.033692 -0.367576
-0.244859 -0.160015 -0.234203
0.268639 0.218219 0.004237
-0.246764 0.198984 -0.367576
-0.363520 0.057870 -0.367576
-0.388198 0.166240 -0.234203
-0.081590 -0.209569 -0.234203
0.125751 -0.090004 -0.234651
0.272816 0.037800 0.138628
-0.251587 0.240575 -0.367576
-0.176063 0.250678 -0.485702
-0.071770 -0.183551 -0.065918
-0.119517 0.312896 -0.234203
0.450724 0.251856 0.212169
-0.293915 0.125939 -0.481149
-0.098255 -0.003414 0.120639
-0.363528 0.232205 -0.367576
0.209968 0.266135 -0.018596
-0.241388 0.211412 -0.367576
0.313899 -0.071987 0.063150
0.392278 -0.146766 0.343948
-0.432692 0.117386 -0.420499
-0.070817 0.142443 -0.234203
-0.367020 0.006897 -0.042702
0.042802 -0.072066 -0.234203
0.255925 0.215878 0.184440
-0.097328 -0.161423 -0.234203
0.293272 0.274125 -0.434737
0.223813 0.176586 -0.492219
0.153652 0.279109 -0.282637
0.238931 -0.037960 -0.382306
0.058057 0.334374 -0.110924
0.235241 0.249648 0.107441
-0.171676 0.243707 -0.234203
0.125751 0.151108 -0.008142
-0.427866 0.184073 -0.388254
-0.094756 0.375518 -0.141860
-0.167533 -0.133012 -0.478204
0.125751 0.064257 -0.323609
0.286695 0.292799 0.043452
0.493370 0.103757 0.057936
0.249551 -0.026253 -0.009618
0.238308 0.214242 -0.354528
0.396121 -0.167798 0.345748
-0.424100 0.097549 -0.234262
0.044730 0.023314 -0.234203
-0.045607 -0.227843 -0.272872
0.219317 -0.118337 -0.472804
0.183225 -0.000212 0.293057
-0.488375 0.145185 -0.310739
0.225491 -0.109915 -0.005309
-0.135994 0.126456 -0.489250
-0.223158 0.140326 -0.367576
0.365018 -0.277188 0.431700
-0.122685 0.334433 -0.234203
0.189355 0.134764 0.151047
0.219867 0.134574 -0.009604
0.255925 0.206751 0.170694
-0.037775 0.323618 -0.481544
-0.264034 0.152861 -0.367576
0.322005 0.292227 -0.149290
0.375879 -0.094695 0.287347
0.428360 -0.027563 -0.118764
-0.019780 0.098874 0.127806
0.087491 0.051126 0.116788
-0.044025 0.367929 -0.109681
0.295434 0.154405 -0.408899
0.392142 -0.039518 0.270368
0.332572 0.256353 -0.223637
-0.402316 0.077356 -0.234203
0.268639 0.048025 0.011740
-0.230457 0.326221 -0.315462
0.334159 0.163710 -0.009618
0.090085 0.164517 -0.367576
-0.338340 0.149191 -0.234203
0.339599 -0.045500 0.148164
0.381590 0.062053 -0.273553
0.125751 -0.009382 0.085545
-0.281905 -0.116981 -0.089759
0.425195 0.210927 -0.103968
-0.141582 -0.069986 -0.367576
0.125751 0.290811 -0.142139
0.080424 0.157137 -0.234203
-0.265612 -0.095479 -0.234203
0.268603 -0.018919 0.021246
-0.412097 0.212452 -0.269824
0.218076 0.019731 -0.009618
0.353756 -0.045500 0.286313
-0.166916 -0.077339 -0.367576
-0.003637 -0.229573 -0.234203
-0.017259 0.342847 -0.234203
0.197046 0.321147 -0.441956
0.313508 0.158358 -0.424624
-0.075518 0.379853 -0.167643
-0.405235 0.135280 -0.206282
0.211065 0.119922 0.288230
0.173379 0.321736 -0.479580
-0.072798 -0.232335 -0.186168
-0.122505 -0.056511 0.087743
0.273870 0.098627 -0.492929
0.484117 0.284255 0.070748
0.014226 -0.119224 0.009103
0.185785 -0.098922 -0.404970
0.018514 -0.185827 -0.234203
0.200084 -0.122963 -0.198637
0.172313 0.283549 -0.259435
0.286030 -0.067583 -0.009604
0.177292 0.042971 0.345725
-0.319401 0.070677 -0.479421
0.063613 -0.187909 -0.409638
0.037437 -0.147535 -0.367576
0.289532 -0.311735 0.397125
0.355921 -0.045495 0.190230
0.472789 0.178803 0.138628
0.286337 -0.250763 0.326087
-0.386575 0.015759 -0.367576
0.287588 0.042769 -0.009618
0.255925 0.196355 0.200650
0.146237 -0.106005 -0.492882
0.460542 0.135269 0.003439
0.145882 0.269929 -0.037067
0.048576 -0.098723 0.466261
0.347787 -0.061876 0.025965
-0.031107 0.171531 -0.234203
-0.016823 0.355205 -0.234203
0.462755 0.030515 0.131833
-0.127399 0.259372 0.049782
-0.078778 0.384270 -0.199775
-0.090816 0.266482 -0.367576
-0.277709 -0.066550 -0.367576
0.175288 -0.023247 -0.367576
-0.379872 0.196512 -0.161082
-0.278605 0.211704 0.040954
0.320486 -0.009759 -0.009618
0.121796 -0.089946 -0.234203
-0.316095 0.056339 -0.477684
-0.165623 0.361089 -0.301686
-0.119232 0.291874 0.002960
0.268639 0.136950 0.122310
0.022353 0.328051 -0.234203
0.270657 -0.110454 -0.037957
0.129278 0.109720 -0.367576
-0.391471 0.052679 -0.081041
0.268639 0.011228 0.051693
0.216462 -0.126303 -0.187834
0.268639 0.068796 0.019309
0.329265 0.183966 0.290686
-0.305836 0.265587 -0.375951
0.343448 -0.049822 0.123606
-0.091955 -0.043792 -0.367576
0.396901 0.336719 0.046270
-0.150090 -0.159285 -0.367576
0.268603 0.090686 0.064009
-0.480247 0.134584 -0.260090
0.082692 -0.050862 0.403727
-0.407415 0.053874 -0.177090
-0.337060 -0.061391 -0.058592
-0.271203 -0.033469 -0.367576
0.076131 0.339246 -0.416025
0.210123 -0.036574 -0.367576
0.220067 0.143686 -0.493879
-0.148295 -0.175280 -0.079187
0.125751 -0.037082 -0.364057
0.109193 -0.166592 -0.131043
-0.070110 0.084420 -0.367576
0.258782 -0.017093 0.138643
-0.369433 -0.068500 -0.259338
0.048466 -0.100160 -0.367576
-0.485250 0.106985 -0.359918
-0.241121 0.318419 -0.327852
0.019676 0.017677 -0.234203
-0.273945 0.225703 -0.234203
-0.457998 0.011906 -0.362622
0.183225 0.017546 0.318157
0.323126 -0.059042 -0.009604
0.236905 0.117237 -0.367576
0.289275 0.289459 -0.193142
0.257720 0.271116 -0.267812
0.125690 0.066558 -0.284953
-0.480376 0.150201 -0.272240
0.288930 -0.164341 0.287653
-0.247101 0.064006 -0.367576
0.136265 -0.074861 0.354933
-0.167588 0.201392 -0.234203
0.350740 0.059803 -0.301944
-0.089722 -0.143554 -0.367576
-0.137944 0.289608 -0.367576
0.189884 -0.071155 -0.336483
-0.362971 -0.010929 -0.049524
0.025736 -0.182252 -0.367576
0.276282 -0.046920 -0.434473
0.382754 -0.074837 -0.103441
0.107485 0.133877 -0.367576
0.125751 0.229247 -0.181599
-0.257113 -0.157187 -0.207447
0.084913 -0.191414 -0.234203
-0.305413 -0.084308 -0.234203
0.154368 0.099576 0.125452
0.125751 -0.003701 -0.120340
0.020152 -0.123176 -0.367576
0.215010 0.058227 0.343653
0.014934 -0.104584 -0.234203
-0.211158 -0.108161 -0.234203
0.125751 0.178875 0.024690
0.125751 0.038523 0.017049
-0.121488 0.180172 0.121072
0.125751 0.196745 -0.012499
0.463006 0.219955 0.012488
-0.150291 0.204560 -0.367576
0.125751 0.041442 -0.182759
-0.182954 0.298242 -0.367576
0.267028 -0.079376 -0.280580
0.446191 0.030798 0.212785
-0.242519 0.054476 -0.367576
-0.176690 0.031382 -0.367576
-0.373064 0.166562 -0.067443
0.402103 -0.053735 -0.097072
0.420970 0.328199 0.050612
-0.032662 -0.133715 -0.004088
0.168137 0.047565 0.253256
0.028185 0.185781 -0.367576
0.125751 0.035623 -0.023684
0.151827 0.289502 -0.203849
0.224956 0.245845 -0.344204
-0.299153 0.289056 -0.227156
0.196989 -0.102255 -0.009618
0.450526 0.271334 0.191384
0.168892 0.030367 -0.367576
0.230476 0.150704 0.292079
0.018571 -0.239814 -0.238532
-0.141062 -0.127328 0.004294
0.125751 -0.092717 -0.226130
-0.143790 -0.164099 -0.057726
-0.098362 -0.148644 -0.017936
-0.133230 -0.030208 -0.234203
0.143406 -0.035733 -0.009618
0.435653 0.143919 0.138643
-0.049970 0.376785 -0.234203
0.032486 0.088518 -0.367576
-0.475994 0.052871 -0.256954
-0.413493 0.101506 -0.367576
-0.080164 -0.196622 -0.086770
0.082966 0.316775 -0.219689
-0.187567 0.300269 -0.457477
-0.325495 0.173628 -0.234203
-0.097300 -0.145524 -0.367576
0.289226 -0.281912 0.382377
0.292441 -0.116973 -0.160167
-0.288651 -0.113999 -0.367576
0.224614 0.301850 -0.153863
-0.011516 -0.085701 -0.234203
0.321148 0.140971 -0.316261
-0.330099 0.046859 -0.367576
-0.155964 0.021206 -0.367576
-0.060084 0.363347 -0.100771
0.342231 -0.045500 0.294600
-0.105755 0.269912 -0.234203
0.296035 0.258948 0.138628
0.456908 0.086084 -0.159917
0.255925 0.112639 0.188616
-0.193800 0.223741 -0.485805
0.183225 0.054508 0.274657
0.373978 0.175477 -0.009604
0.213931 -0.039067 -0.367576
-0.218783 0.027235 -0.234203
0.113381 0.251315 -0.367576
0.268603 0.228195 0.015437
0.184532 -0.134394 -0.078778
0.251505 0.263815 -0.487572
-0.387155 0.162223 -0.367576
0.174531 -0.098478 -0.009618
-0.121045 0.357705 -0.097153
-0.072416 0.092995 -0.234203
-0.309490 0.210767 0.008566
-0.050841 -0.149142 -0.021569
0.255925 0.006068 0.193997
0.095609 0.140581 -0.234203
0.444927 0.304772 0.157137
0.218211 0.185760 -0.009618
0.186174 0.299402 -0.131299
0.254540 -0.089603 -0.473514
0.341303 -0.045495 0.149010
0.055478 -0.168061 -0.056848
0.405213 0.010252 0.138643
0.098219 0.018082 -0.367576
0.091620 -0.092683 0.033877
0.367418 -0.212765 0.264475
-0.168516 0.050629 0.131997
0.125751 0.188674 -0.219061
-0.303009 0.119999 -0.367576
0.105633 0.294796 -0.230476
-0.222376 -0.177724 -0.245215
0.095295 -0.055880 0.073389
0.281773 0.057540 -0.350984
0.201216 0.123864 -0.009604
0.034843 -0.207995 -0.312566
0.030389 0.158778 -0.367576
-0.386065 0.034894 -0.234203
-0.188068 -0.064006 -0.367576
-0.128679 0.157449 -0.367576
-0.227496 -0.101488 -0.004349
0.125751 -0.005127 -0.110215
0.330963 0.172632 0.138643
0.344196 0.100844 0.138643
0.313344 0.187512 0.138643
0.125751 0.072262 0.004860
0.255925 0.050861 0.208652
-0.167807 0.107415 -0.234203
0.004393 0.008866 -0.491883
0.296401 -0.133596 0.253163
-0.115986 0.082921 -0.367576
0.268603 0.037267 0.113678
-0.105683 -0.015512 -0.367576
-0.368728 0.139082 -0.367576
0.266810 0.163800 0.138643
0.417912 -0.022455 -0.049937
0.091279 0.272385 -0.367576
-0.011157 0.236097 -0.367576
0.024432 -0.111380 0.017876
0.192103 0.259976 -0.009618
-0.364222 0.034557 -0.023488
0.294929 -0.128049 0.255914
0.255925 0.040058 0.182285
0.125751 0.092839 -0.101357
-0.160761 -0.032912 0.102958
0.125751 0.061768 -0.089337
0.045272 -0.200431 -0.234203
-0.225302 0.336786 -0.141625
0.096433 0.312681 -0.189321
0.215795 -0.130125 -0.177325
0.386286 0.236471 0.138628
0.299456 0.054459 -0.493058
0.124726 0.187818 0.075312
-0.112363 -0.177070 -0.234203
0.382570 0.011146 -0.009604
-0.162898 0.366256 -0.259919
0.125751 0.045329 -0.091371
-0.392207 0.104369 -0.090461
-0.244649 -0.093710 -0.461754
0.041493 0.207060 -0.489823
0.349206 0.141183 -0.009604
-0.063069 0.351658 -0.419204
0.449951 0.203666 0.001064
-0.016714 0.027104 -0.234203
0.197795 0.089026 0.138628
0.125751 0.202135 -0.191304
-0.444543 0.169570 -0.252769
-0.223634 -0.032726 -0.367576
0.144627 0.040730 0.119794
-0.143935 0.227136 0.087836
0.357237 -0.212282 0.403282
0.125751 -0.002465 -0.168444
0.464776 0.077213 -0.086035
-0.304178 -0.110328 -0.108506
0.338895 0.322412 0.019077
0.014620 0.191212 -0.367576
-0.166657 0.130422 -0.488594
-0.202863 0.150802 -0.234203
-0.043071 0.280098 -0.234203
0.055083 -0.017647 0.296776
0.326293 -0.285170 0.426287
0.268639 0.098796 0.103878
-0.126259 -0.175584 -0.407132
0.406579 -0.034168 -0.049764
-0.251964 0.324604 -0.245036
-0.261495 -0.129782 -0.092382
0.125751 0.124111 0.089016
0.302827 -0.045487 0.188028
-0.011716 -0.227735 -0.126385
0.227530 -0.057432 -0.341330
0.336780 -0.016956 -0.473129
-0.231823 -0.127133 -0.431728
0.180505 0.000011 -0.367576
0.415823 0.195926 -0.009618
0.219796 -0.015289 0.135237
-0.180165 -0.154254 -0.423390
-0.043668 -0.192475 -0.077124
0.188438 0.074558 -0.009618
0.120541 0.208490 -0.367576
0.407219 0.084865 0.295003
0.125690 0.055865 -0.348166
0.475369 0.173391 0.138643
-0.057871 -0.002944 -0.491160
0.438757 0.105898 0.138628
-0.394113 -0.044324 -0.260201
-0.199503 0.305882 -0.432682
0.245972 0.052338 -0.493869
-0.116477 0.043753 -0.367576
0.092035 0.038300 -0.234203
0.338582 0.271569 0.138628
0.314022 0.027026 -0.009618
-0.203287 0.161683 -0.234203
0.125751 0.074149 -0.005776
-0.139744 -0.142381 -0.473360
-0.249775 0.295800 -0.377719
0.268603 -0.019150 0.128840
-0.234505 0.314622 -0.358273
0.125751 -0.055644 -0.064421
0.268603 0.126466 0.102788
0.008744 -0.189559 -0.434507
-0.380402 0.137807 -0.234203
0.125751 0.105914 -0.242089
0.336309 0.155764 0.138643
-0.386150 0.098597 -0.069249
-0.160176 -0.075712 -0.367576
-0.050539 0.193223 -0.367576
0.044956 -0.156579 -0.367576
0.125751 0.175182 -0.029555
0.065710 -0.018956 -0.492627
0.207472 0.103119 -0.367576
-0.236349 0.219483 0.064871
0.354386 -0.045495 0.309371
0.082692 -0.009348 0.307412
0.022699 0.134462 -0.234203
-0.193914 -0.179332 -0.124767
0.313026 -0.066710 0.082166
-0.168803 0.260581 -0.234203
0.125751 0.233059 -0.154366
0.261078 0.192168 -0.009618
-0.131448 0.155093 -0.367576
0.410626 0.221157 0.138643
-0.091014 0.334332 -0.367576
0.010449 0.185649 -0.367576
0.239939 0.056615 -0.367576
0.268603 0.159352 0.111580
-0.322977 -0.085859 -0.385247
-0.260388 -0.129315 -0.234203
0.221485 0.147955 -0.367576
0.260438 0.209842 0.270104
0.125751 0.053551 0.052289
0.082692 -0.051057 0.371686
0.163593 0.282400 -0.061342
0.140938 0.076917 0.119974
-0.246681 0.264222 -0.006387
0.075482 -0.090541 -0.492773
0.277789 -0.105801 -0.223233
0.291518 -0.060331 0.094051
0.185941 -0.120020 -0.025489
0.000369 0.275398 -0.234203
0.189635 -0.108022 -0.239913
-0.159577 0.158231 0.128118
0.325036 -0.073620 0.032323
0.457741 0.154640 -0.133295
0.144850 -0.121143 -0.209726
0.317036 0.202722 -0.439474
-0.085726 0.000607 -0.367576
0.281764 -0.119555 -0.173775
0.278618 -0.022455 -0.009604
-0.283423 0.180663 -0.367576
0.168919 -0.070137 -0.493106
0.287940 0.196557 0.138643
-0.164973 -0.177039 -0.367576
0.341038 0.033195 -0.303806
0.198620 -0.049316 -0.367576
0.106278 -0.012013 0.102469
-0.004184 -0.187110 -0.435928
-0.001379 0.157371 -0.367576
0.106510 -0.187163 -0.458247
-0.194716 0.322342 -0.367576
-0.104284 0.069662 -0.367576
-0.187273 -0.193714 -0.257815
-0.241629 -0.097225 -0.461255
-0.125944 0.063574 -0.367576
0.268603 0.053137 0.009763
0.125751 0.195528 -0.154058
-0.159840 -0.200171 -0.146153
0.380055 0.253302 0.138643
0.433442 0.037051 -0.009618
0.134159 0.273243 -0.311942
-0.038426 0.370538 -0.273314
0.252051 0.107812 -0.372956
-0.242909 0.331167 -0.234203
-0.359227 0.153366 -0.367576
-0.103497 0.343809 -0.234203
-0.122201 -0.201448 -0.234203
-0.122383 0.118752 -0.367576
-0.324117 0.001176 -0.234203
0.091004 -0.152767 -0.298782
0.125751 -0.015891 -0.006909
0.456717 0.243590 0.208336
-0.180860 -0.177931 -0.365662
0.275001 0.139950 0.138628
0.218370 0.137570 0.277765
0.104988 0.231817 0.027673
0.111615 -0.030750 -0.234203
0.125751 0.027339 -0.308433
-0.198012 -0.102486 -0.234203
0.255925 0.039703 0.184445
0.322700 0.072701 0.138628
0.327027 -0.167363 0.236718
0.028278 0.171048 -0.367576
0.125751 0.154550 -0.196165
0.186729 0.084187 -0.493966
0.116232 -0.160981 -0.151642
0.184520 -0.003377 -0.009604
-0.095463 0.122528 0.134183
-0.165507 0.136510 -0.234203
-0.127503 0.106499 -0.234203
0.210241 0.185669 0.156324
0.255925 0.126511 0.232847
0.082692 -0.077581 0.416271
0.255925 0.032873 0.254676
0.255925 0.002623 0.239231
-0.095074 -0.056838 0.088609
-0.209898 0.303793 -0.045128
-0.027807 -0.037744 -0.491542
0.382586 0.234071 -0.009618
0.125751 0.193694 -0.214000
0.154189 0.179127 0.104452
-0.086497 -0.172089 -0.050681
-0.494749 0.068787 -0.327020
-0.064417 0.239496 -0.367576
0.107595 0.235913 0.020959
0.047953 -0.052866 0.457072
0.179059 0.028954 -0.367576
-0.128502 0.289490 -0.234203
-0.242091 -0.002123 -0.234203
-0.137252 0.010614 0.127100
0.107412 0.285930 -0.297095
-0.123206 -0.122090 -0.234203
0.125751 -0.021292 -0.282970
0.255925 0.126105 0.159091
-0.006767 -0.045324 -0.234203
-0.179250 0.332812 -0.380934
0.219720 0.071486 0.336714
-0.377482 0.071258 -0.045431
0.261727 0.218887 -0.331322
-0.406235 0.139465 -0.234219
-0.043648 0.293342 -0.486063
0.314326 0.233119 0.272991
0.123854 -0.064655 0.306177
-0.350195 -0.040189 -0.234203
0.407817 -0.038795 -0.066415
0.354254 -0.026104 0.138628
-0.221227 0.021826 -0.487866
0.257300 0.148353 0.138628
0.255925 0.204616 0.225495
-0.183566 -0.113185 -0.486216
0.125751 -0.006691 -0.184587
-0.009281 -0.088681 0.047811
0.144270 -0.067923 -0.009618
0.125751 0.126492 0.059558
-0.078291 -0.227431 -0.220810
-0.206225 -0.069440 -0.367576
0.242481 -0.127772 -0.180972
0.388972 0.009151 0.307123
0.426505 0.236586 0.138628
0.483137 0.134221 0.199490
0.125751 0.082134 0.078903
0.125751 0.055802 0.034241
0.103691 -0.153454 -0.247922
0.125751 -0.130699 -0.174972
0.125531 0.190015 -0.367576
-0.039947 -0.048690 -0.234203
0.335877 0.153691 -0.301123
0.414873 0.223297 -0.054934
-0.165837 0.333322 -0.367576
0.125751 0.240299 -0.331712
0.268603 0.254627 0.125157
0.381117 -0.073563 -0.093153
0.249585 0.185550 0.280893
0.268603 0.051141 0.125518
-0.462522 0.006558 -0.307107
0.189612 0.131094 -0.367576
-0.057083 -0.190955 -0.367576
0.245128 0.306939 -0.436850
0.402297 0.245224 -0.008176
0.125751 0.107125 -0.138275
0.168282 0.007596 -0.493612
0.186983 -0.134824 -0.454062
0.189929 0.201351 -0.367576
0.481206 0.143752 0.223138
-0.143417 0.015010 -0.367576
0.329823 0.109689 0.303552
0.306967 0.022294 -0.329584
0.125751 -0.040136 -0.093705
0.125751 0.032194 0.087987
0.373873 0.189420 0.286936
0.298033 -0.181399 0.353189
0.125690 0.080762 -0.235845
0.156684 -0.138519 -0.158496
-0.182854 0.286057 -0.234203
-0.363678 0.199897 -0.234203
0.415091 0.322663 0.032070
-0.251163 0.260689 -0.367576
-0.115172 0.170292 -0.234203
0.491053 0.211375 0.102261
0.227214 0.086540 -0.367576
0.351326 0.017813 -0.463648
0.375632 -0.321030 0.403153
0.125751 -0.038814 -0.132974
-0.341897 0.106908 -0.468830
0.245599 0.229075 0.138643
-0.321468 0.104079 -0.234203
0.157250 -0.142293 -0.431135
0.009311 0.079752 -0.234203
0.030840 -0.179857 -0.468172
0.090749 0.199354 -0.367576
0.162429 -0.167403 -0.482687
0.482170 0.153504 0.190693
0.297598 0.266621 -0.238451
-0.105062 0.334608 -0.432388
0.400366 0.084492 0.297053
0.350569 0.058119 -0.301693
0.125751 -0.098682 -0.215746
0.308884 0.288333 0.172871
0.125751 0.194171 -0.099884
0.125751 0.228151 -0.005345
0.125690 0.217094 -0.235648
-0.278677 0.244995 -0.001749
0.125751 0.075183 -0.235058
-0.323444 -0.082251 -0.390911
0.327701 -0.094695 0.339204
0.215387 -0.098923 0.020076
0.437873 0.033532 0.254905
0.262234 0.229559 0.138643
0.300509 0.014138 -0.332574
0.210912 0.173329 0.138643
0.292345 0.001382 0.138628
-0.258546 0.249280 0.007776
-0.071753 0.028940 -0.234203
0.125751 -0.040251 -0.082088
0.369763 0.063825 -0.285487
-0.412758 0.210440 -0.363078
-0.257601 0.257610 -0.460873
0.143084 0.029872 0.117628
0.317984 -0.108896 -0.155993
0.255925 -0.001479 0.181433
0.395879 -0.211994 0.347591
0.496502 0.179563 0.082205
0.268639 0.169339 0.001951
-0.031632 0.247480 -0.367576
0.255925 0.029947 0.216861
0.107642 -0.161399 -0.215161
-0.115493 -0.180526 -0.234203
0.279117 0.220906 -0.403711
0.268639 0.191941 0.034669
-0.302030 -0.118962 -0.130736
-0.069758 -0.073273 -0.367576
-0.049563 0.253998 -0.234203
-0.171730 -0.122621 -0.002650
-0.350355 -0.055967 -0.081333
0.125751 -0.086159 -0.085436
0.125751 0.012788 -0.221343
-0.132673 0.022712 -0.367576
-0.209052 -0.055516 0.070842
0.372773 -0.015463 -0.256325
0.002353 0.303313 -0.031938
0.301750 -0.330019 0.312346
0.160926 0.116422 -0.367576
0.466675 0.132432 -0.102877
0.383614 -0.022054 0.138643
0.261157 -0.004711 0.273525
0.109242 -0.129229 -0.017958
-0.033751 -0.101688 0.035581
0.268639 0.054458 0.061949
-0.425064 0.160324 -0.367576
-0.331849 0.055913 0.026496
-0.103897 0.362762 -0.350718
0.042606 -0.021320 -0.234203
0.339028 0.241384 0.138628
-0.022915 0.032216 -0.367576
-0.250325 0.104105 -0.234203
-0.186065 0.280541 -0.367576
0.163165 0.231185 0.059060
0.229078 0.000354 0.337571
-0.230665 -0.160562 -0.367576
0.255925 0.125381 0.203718
0.211517 0.263758 0.049134
0.045659 -0.096574 -0.492455
-0.102068 0.269970 0.037937
0.125751 0.110715 -0.043825
0.352188 -0.292021 0.293802
0.183225 0.074026 0.178724
0.313357 -0.158185 0.360162
-0.482607 0.039082 -0.335580
0.393284 0.159243 0.289760
0.283643 0.070290 0.310421
-0.173355 -0.025839 0.103180
-0.261459 0.137808 -0.367576
0.366761 0.250768 -0.195924
0.034039 0.104441 -0.492154
0.303261 0.280082 0.186259
0.357570 -0.215754 0.250327
0.151086 -0.173700 -0.474651
0.256746 0.020350 0.138628
0.380244 -0.280476 0.428455
0.401369 0.301593 0.138643
0.016348 0.368272 -0.141707
0.170120 0.278969 -0.284852
0.097832 -0.159998 -0.263957
0.125751 0.114151 0.061748
-0.226687 -0.169804 -0.157319
-0.008685 -0.147972 -0.234203
-0.030535 0.134418 -0.490594
-0.193126 0.307162 -0.367576
-0.100886 -0.167628 -0.436165
-0.024100 -0.002512 -0.234203
-0.376915 0.004189 -0.066648
-0.191791 -0.083666 0.051657
0.323896 -0.074858 -0.000077
0.255925 0.130486 0.238056
-0.240579 -0.147020 -0.106605
0.396234 0.298091 0.138643
-0.373948 0.244126 -0.301973
0.183225 0.036309 0.260849
0.129912 -0.014771 -0.367576
0.117497 -0.077771 0.401282
0.372653 0.131529 0.138643
-0.311491 0.235084 -0.234203
0.144028 -0.003798 -0.367576
0.183225 0.078562 0.152902
0.281502 0.059492 -0.009618
0.125751 0.239982 -0.163958
0.185862 0.299969 -0.136091
0.023590 -0.199349 -0.344574
-0.104471 -0.216509 -0.135269
0.241511 0.084465 -0.009604
0.412206 0.068171 0.138628
0.341012 -0.045500 0.162866
-0.228956 0.295463 -0.418025
0.153848 -0.052722 -0.009604
0.158977 0.244862 0.035750
0.253465 0.160627 -0.491883
0.082692 -0.090756 0.350620
0.321529 0.097544 -0.323160
-0.308169 0.288268 -0.257707
-0.309728 -0.119660 -0.223188
0.125751 -0.023897 -0.236518
0.138623 0.184492 0.088363
0.351560 0.061589 -0.456444
-0.325959 -0.107850 -0.256973
0.421045 0.214474 -0.047457
-0.226779 0.234185 -0.367576
0.396734 0.196708 0.279474
0.255925 -0.014129 0.145041
-0.321722 0.002023 -0.367576
-0.057453 0.005396 -0.234203
-0.312987 0.252960 -0.405822
-0.107031 -0.027516 -0.367576
-0.216120 0.341666 -0.142732
0.080767 -0.180819 -0.278524
0.067647 0.255273 -0.234203
-0.350088 0.134130 -0.002160
-0.358632 0.230617 -0.213968
0.230726 0.054871 0.138628
-0.393143 -0.002546 -0.200538
-0.150683 -0.021159 0.111401
-0.168333 0.193702 -0.367576
-0.197562 0.352649 -0.151454
0.199900 -0.013404 -0.009604
0.477717 0.067049 0.138154
0.125751 0.029489 -0.076270
-0.261386 0.218587 -0.367576
0.037735 -0.224247 -0.273013
-0.147802 -0.210574 -0.227082
0.125751 0.087991 0.094033
-0.167307 -0.009472 0.114218
-0.370923 -0.055062 -0.150683
0.495430 0.192149 0.082814
-0.057078 0.159158 -0.234203
0.424550 0.211668 -0.121907
0.010023 -0.165222 -0.367576
0.045550 0.160038 -0.234203
-0.199803 -0.092574 0.030754
0.125751 0.050747 -0.204558
0.350133 0.179251 0.138628
-0.309801 0.078721 -0.234203
0.255925 0.023275 0.204913
0.125751 0.244614 -0.164335
-0.293571 0.151519 0.064551
-0.193798 0.039193 -0.234203
0.125751 0.045371 -0.047477
0.268603 0.227275 0.092086
0.287886 -0.164197 0.296619
-0.247798 0.133428 -0.234203
-0.010021 0.117973 -0.367576
-0.142004 -0.067366 -0.489312
0.022189 0.125975 -0.367576
-0.265292 -0.066381 -0.367576
-0.101197 0.068867 0.135871
0.125751 0.067433 0.095600
-0.267484 -0.025273 -0.367576
-0.095005 0.383349 -0.243598
0.268639 0.061042 0.038750
-0.256217 0.313168 -0.303895
0.469565 0.293269 0.105962
-0.283401 0.275492 -0.060423
0.285256 -0.262655 0.344243
0.140863 0.315863 -0.405563
-0.010174 -0.203091 -0.093839
0.125751 0.110003 -0.356319
-0.157301 -0.075154 -0.234203
-0.298324 0.270743 -0.234203
-0.085942 -0.220801 -0.134055
0.323337 0.204557 -0.453708
0.079509 -0.083740 -0.492817
-0.243637 -0.150865 -0.367576
0.082692 -0.058395 0.373267
-0.148310 -0.114397 -0.488433
-0.243719 -0.021894 0.075085
0.125751 0.186132 -0.058329
0.103784 -0.095805 -0.363714
-0.378526 0.066441 -0.453141
0.010227 0.357694 -0.437765
-0.473511 0.091930 -0.243763
0.004726 -0.055841 -0.367576
0.294431 0.207018 -0.009618
0.118204 0.341745 -0.468386
0.212634 -0.033334 0.283367
-0.152048 0.369576 -0.265614
-0.476611 0.091638 -0.367576
-0.096232 0.065931 -0.234203
0.230756 -0.099929 -0.455550
0.444233 0.164960 0.138643
-0.389291 0.201677 -0.367576
0.082692 -0.037820 0.424213
0.089256 0.125100 0.111116
-0.391500 -0.055061 -0.300664
-0.461671 0.034041 -0.367576
0.082692 -0.059030 0.401720
0.371971 -0.045500 0.244134
-0.335847 0.122177 -0.467866
-0.228153 0.291081 -0.434566
-0.399558 0.154727 -0.202375
0.298424 0.281014 -0.057746
0.143732 -0.058054 -0.367576
-0.334783 -0.012870 -0.450904
-0.316151 -0.078614 -0.367576
0.046122 -0.031209 0.395609
0.268631 -0.102613 -0.013044
-0.056460 -0.086928 -0.234203
0.195795 0.182195 -0.367576
-0.073506 0.153316 -0.489518
-0.326975 0.113110 -0.472717
0.034834 -0.237075 -0.237779
-0.186348 0.353987 -0.280521
0.183225 0.062456 0.278522
0.125751 0.166706 0.020669
0.306763 -0.110556 -0.184202
-0.254327 -0.061591 -0.473420
0.451089 0.024581 -0.107050
0.027085 0.125453 -0.491646
0.179786 0.060637 0.285821
0.030780 -0.189427 -0.445167
0.289662 -0.363017 0.351053
0.268603 0.046020 0.042163
-0.055291 0.170279 0.120936
-0.219889 0.031126 -0.487945
-0.043059 -0.233340 -0.234203
-0.121851 -0.078275 -0.367576
-0.216206 -0.181939 -0.256119
0.339811 0.103217 -0.009604
-0.220205 0.348047 -0.219737
0.070120 0.033851 -0.367576
0.249143 0.020094 0.138643
0.436691 0.003002 0.163602
0.300951 0.189454 -0.416698
0.125805 -0.020895 0.419719
0.334577 -0.060569 0.089053
0.379182 0.138956 -0.269083
-0.237608 -0.159538 -0.135952
0.021169 -0.036918 -0.367576
0.268603 -0.006923 0.046967
-0.349323 -0.053956 -0.406250
-0.037738 -0.197182 -0.083611
-0.268965 0.173346 0.076146
0.151752 0.103568 -0.367576
0.471917 0.064879 0.173461
-0.309072 0.242279 -0.433643
0.437421 0.179118 0.138643
0.255925 -0.003227 0.248228
0.397175 0.341641 0.138628
0.389359 -0.003464 0.307242
0.303570 -0.082607 0.026886
0.231889 -0.088837 -0.441571
-0.098966 -0.172171 -0.426982
0.468656 0.275223 0.133720
-0.064716 0.170226 -0.489242
0.476167 0.151013 0.246229
-0.272639 0.153238 -0.367576
0.297786 -0.073697 0.292077
0.333562 0.122968 0.138643
0.295334 -0.028505 -0.314897
0.021143 -0.167365 -0.486952
-0.264801 0.164145 -0.234203
0.125751 0.256480 -0.040257
0.265514 -0.125896 -0.120330
0.346691 -0.018715 0.138643
0.111394 0.187088 0.078827
-0.001989 0.090182 0.126345
-0.264673 -0.142665 -0.234203
0.350186 -0.056663 -0.238426
0.061460 -0.135188 -0.016080
-0.094405 0.264516 -0.367576
0.021838 0.220102 -0.367576
0.041171 -0.013283 -0.234203
0.243074 0.102862 0.310784
-0.286452 0.083274 -0.234203
-0.030744 0.381220 -0.211416
-0.134781 -0.055707 -0.367576
0.125751 -0.055810 -0.007887
0.266070 -0.013867 -0.009604
0.347289 -0.045500 0.225183
0.373338 -0.184058 0.268822
0.230451 0.255060 -0.009618
0.125751 0.023201 -0.165683
-0.339686 0.030707 0.012555
-0.239361 -0.108498 -0.367576
0.000661 0.339240 -0.330557
0.268639 0.134717 0.008362
-0.372359 0.033999 -0.036805
0.023046 -0.060951 -0.234203
0.050025 0.112940 -0.492279
0.292635 0.305310 0.081488
-0.401646 -0.044575 -0.282969
-0.217294 0.049515 -0.234203
0.240242 0.100747 -0.009618
0.203265 0.302421 -0.484910
0.388849 0.173693 -0.245207
0.268639 0.116536 0.092728
0.305914 -0.058994 0.103317
-0.365594 0.222218 -0.196550
0.365771 -0.088671 -0.151596
0.351644 0.332389 0.138628
0.063484 0.315283 -0.234203
-0.003122 -0.009886 0.111387
-0.118041 0.076145 -0.490388
0.120567 -0.131254 -0.039947
0.017625 -0.148672 -0.367576
-0.043922 -0.112682 0.359304
0.072133 -0.076629 -0.492739
0.125751 0.206577 -0.142408
-0.330987 -0.001712 -0.234203
-0.215186 0.037767 -0.234203
0.142046 -0.006317 -0.367576
0.113057 -0.124957 -0.492773
-0.275840 0.298667 -0.323332
0.019733 0.042907 -0.234203
0.479076 0.082596 0.164871
0.362512 -0.330884 0.389868
0.083364 0.134480 -0.234203
0.410858 0.070789 -0.244313
0.183225 0.002614 0.295732
0.125751 0.032055 -0.275111
-0.331318 0.246502 -0.393508
0.197254 0.275969 -0.297825
0.158160 0.177600 -0.492113
-0.318768 0.024849 -0.367576
-0.469196 0.153398 -0.260582
-0.046231 -0.025970 -0.367576
-0.146583 -0.144146 -0.025909
-0.105891 0.384016 -0.223177
-0.221867 0.106120 -0.367576
0.264797 0.266519 0.043022
-0.201540 0.181365 0.108733
-0.385927 0.074242 -0.063648
0.096603 -0.152009 -0.386544
0.070972 0.100838 0.117602
0.405254 0.051794 0.138643
0.162273 0.042648 0.253874
0.336412 -0.185622 0.387608
-0.027661 0.152852 0.122083
0.268639 -0.035209 0.019497
0.156412 0.260243 -0.015479
-0.398097 0.139677 -0.367576
0.343838 0.060220 -0.488175
-0.056062 -0.193971 -0.234203
-0.235120 -0.089003 -0.470658
-0.046981 -0.129523 0.389252
-0.102686 -0.187182 -0.389850
0.281975 0.039018 0.314784
0.186481 -0.035581 0.274352
0.416723 -0.009019 -0.202436
0.447709 0.024569 0.191365
0.299788 -0.094695 0.299744
-0.250051 0.061449 -0.367576
-0.156910 0.309816 -0.456265
0.201802 0.051218 -0.009618
-0.157164 0.232052 0.082455
-0.158609 -0.080564 -0.488890
-0.017462 -0.142589 -0.016895
0.268603 0.113841 0.066566
-0.284289 0.279307 -0.234203
0.125751 0.082643 0.093426
0.198351 0.115012 0.255741
0.125690 0.084554 -0.283251
0.268603 0.090000 0.118292
0.176971 0.029994 -0.367576
-0.049501 0.225057 0.086363
0.358435 -0.039697 0.138628
-0.476103 0.100091 -0.378225
-0.378409 0.234490 -0.258660
0.125751 0.281413 -0.209682
0.190804 0.012858 0.373583
0.415247 0.115382 0.138643
0.199761 -0.062602 0.087129
-0.041814 -0.036099 -0.367576
-0.331179 0.118655 -0.234203
-0.155290 -0.007053 -0.367576
0.176165 0.280126 -0.278860
-0.325142 -0.093020 -0.368528
0.125751 0.043725 0.083300
0.255925 0.099061 0.175191
0.353694 0.217573 0.138628
0.294474 -0.057692 0.231243
-0.029080 -0.166519 -0.045767
-0.313991 0.064055 -0.367576
-0.287441 0.180929 -0.367576
-0.114972 -0.180165 -0.071102
-0.184681 0.122170 0.129670
-0.189337 0.246334 0.050001
0.307810 0.090286 0.138643
0.347797 -0.148609 0.231688
0.134635 -0.069022 0.318252
-0.088573 0.382674 -0.254289
0.262771 0.104295 0.301885
0.169630 0.029635 -0.367576
0.314744 0.010984 0.138643
-0.262618 -0.154327 -0.234203
-0.070518 -0.044711 -0.367576
0.106707 0.081594 -0.234203
0.452065 0.237377 0.221692
0.268639 0.190771 0.039263
0.336452 0.189991 -0.009618
-0.156627 0.198050 -0.487241
-0.083573 0.186620 0.116751
0.125751 0.043171 -0.296056
0.293566 0.286007 -0.473704
-0.175257 0.256779 -0.485568
0.367937 0.342964 0.136615
0.383105 0.124302 0.138643
0.048572 -0.104578 -0.234203
0.208669 -0.128697 -0.476231
0.268603 -0.074945 0.014171
-0.154025 -0.048351 -0.367576
-0.020465 0.211674 -0.234203
0.080713 0.258625 -0.488005
-0.454656 0.011497 -0.367576
0.119132 -0.105546 -0.283064
0.278452 0.121857 -0.392202
0.125751 -0.049423 -0.341622
0.258219 0.255234 -0.297557
0.062419 -0.020288 -0.234203
0.161548 -0.124782 -0.036380
0.125751 -0.094608 -0.131043
0.079429 0.318618 -0.221142
0.268603 -0.002686 0.040036
-0.099608 0.107681 -0.367576
0.237011 0.148488 -0.366654
0.372221 -0.002591 -0.262421
-0.115630 0.164640 0.127429
0.059641 0.150971 -0.234203
0.333095 0.006478 -0.009618
0.335798 0.123380 -0.484531
0.290970 -0.057092 0.100886
0.221890 0.100139 -0.009618
-0.016299 0.169103 -0.367576
-0.325162 -0.035613 -0.444094
-0.490939 0.057441 -0.282048
0.247218 -0.112794 -0.218865
0.062378 -0.017238 -0.367576
0.175226 0.019549 0.234345
-0.357270 0.216975 -0.094472
0.125751 -0.021630 -0.249184
-0.208635 0.138015 0.118437
0.256606 0.204334 0.269982
-0.465506 0.168716 -0.355377
0.389500 -0.039083 0.064822
-0.345043 -0.084019 -0.354568
-0.035168 -0.090858 0.349311
0.398571 0.242661 -0.101853
0.284949 -0.371931 0.371170
-0.300566 -0.106881 -0.234203
-0.030430 -0.238655 -0.199668
0.268639 0.209732 0.068345
-0.166595 -0.203107 -0.197173
-0.329948 0.265723 -0.241610
-0.071167 -0.194824 -0.381307
0.454593 0.045037 0.210979
0.040270 0.111380 -0.234203
0.268639 -0.034902 0.130432
0.120936 0.252870 -0.234203
0.125751 0.160126 -0.269319
0.427449 0.336365 0.129874
0.167100 -0.057660 0.086455
-0.308965 0.054805 -0.367576
0.032447 0.350791 -0.225237
0.330060 0.211442 0.138628
0.328066 0.019916 -0.492680
-0.069864 -0.142931 -0.012027
0.326873 -0.045500 0.193008
-0.369512 0.158773 -0.444310
0.171716 0.290643 -0.216176
-0.350656 0.095220 -0.367576
0.373424 0.224698 0.138643
0.033433 -0.030644 -0.367576
-0.099665 0.194296 0.113366
-0.073387 0.116922 0.132295
0.125751 0.181746 -0.208277
-0.266566 -0.116308 -0.367576
0.309168 0.153969 0.138628
0.290670 0.222703 -0.411730
-0.391344 0.228839 -0.335445
0.209883 0.055790 0.348247
0.215206 0.132456 -0.009618
0.361403 0.353249 0.073550
0.261571 -0.008021 -0.357749
-0.034438 -0.115410 0.353809
0.386164 -0.040916 0.062223
-0.266051 0.086346 0.091040
0.328984 -0.364618 0.404383
-0.286066 0.135534 -0.367576
0.029016 -0.240666 -0.218626
-0.146887 -0.078337 -0.234203
-0.210729 -0.113971 -0.471657
-0.209292 -0.176242 -0.234203
-0.140225 0.189407 0.115890
-0.146908 -0.146182 -0.462951
0.069565 0.318831 -0.246605
0.198530 0.013030 0.158633
-0.314692 0.156306 0.042076
0.274572 -0.030802 0.221674
0.213323 -0.088549 -0.009604
-0.134968 0.377238 -0.192473
0.125751 0.182154 -0.093625
-0.198935 0.063721 -0.234203
-0.117942 0.265197 -0.367576
-0.176636 0.234024 -0.234203
0.394408 0.247094 -0.145691
0.442917 0.143078 -0.010061
-0.233126 -0.092489 -0.234203
-0.300950 0.089175 -0.367576
0.272027 0.034943 0.138628
0.239846 0.276432 -0.401108
-0.121832 0.269135 -0.485926
-0.015402 0.016373 -0.367576
-0.023550 0.335480 -0.234203
0.183225 0.021198 0.322923
0.397442 -0.020034 0.138628
0.028965 0.336544 -0.234203
-0.072626 0.384768 -0.240210
0.190869 0.204217 -0.009618
-0.331413 0.205799 -0.023242
0.046287 0.221708 -0.234203
0.147169 0.042308 0.271139
0.065037 -0.170863 -0.234203
0.361695 0.137456 0.138643
-0.333463 -0.070309 -0.398637
-0.142673 0.296509 -0.010407
-0.312892 0.285476 -0.148305
-0.148438 0.324418 -0.054904
-0.003614 -0.092994 -0.234203
0.125751 0.036504 -0.163854
0.423616 -0.023585 -0.069757
-0.080012 -0.022677 0.111455
-0.026944 0.122581 -0.234203
0.367913 0.037117 -0.009618
-0.330028 -0.105578 -0.192023
0.184616 0.051744 0.334075
0.208773 0.120597 0.138643
0.124370 -0.109616 0.005310
-0.155178 -0.066330 -0.489043
-0.354130 -0.040941 -0.063656
0.125751 0.093579 0.040047
-0.025206 -0.073715 0.343319
0.047218 -0.028282 -0.492417
0.125751 -0.025260 -0.117911
0.347114 0.269907 -0.037300
-0.101187 -0.133901 -0.488862
-0.086241 -0.019196 -0.490751
0.255925 0.202739 0.174047
0.040974 -0.030144 -0.367576
0.300911 -0.019834 0.316104
0.145072 -0.067596 -0.348803
-0.156854 0.167390 -0.367576
0.222700 0.288864 -0.405510
-0.475847 0.066214 -0.375758
0.157083 0.295491 -0.154957
-0.349335 0.191318 -0.036253
-0.226510 -0.121689 -0.445756
-0.297248 -0.002872 -0.234203
0.268639 0.062778 0.031592
0.268603 0.019641 0.015811
0.188276 0.191508 -0.491602
0.071180 -0.220368 -0.179138
0.075585 0.339937 -0.417114
0.482396 0.145810 0.201466
0.186662 0.030305 -0.367576
0.115563 0.183195 0.080785
0.125751 0.247516 -0.146723
0.204656 0.266085 -0.382028
0.230565 0.031819 -0.367576
-0.159188 0.349631 -0.356102
0.272443 0.201658 0.138643
-0.355822 -0.083829 -0.278273
-0.472835 0.093025 -0.367576
0.374157 -0.232467 0.295406
0.082765 -0.116157 -0.234203
0.249026 0.290698 -0.485684
0.046016 -0.190668 -0.448492
0.195010 -0.014429 0.370957
0.379735 -0.188685 0.385297
0.125751 0.288503 -0.111908
-0.210886 -0.129755 -0.234203
0.028251 -0.217670 -0.234203
0.098725 0.312459 -0.114379
0.125751 0.143808 -0.150854
0.125751 0.155649 -0.117638
-0.107146 0.239964 -0.367576
0.268603 0.012359 0.017970
0.029544 -0.177621 -0.066067
0.125751 -0.025509 -0.360911
-0.109496 -0.087776 -0.234203
0.076543 0.089859 -0.367576
0.362102 0.135266 0.298162
0.287307 -0.158940 0.311097
0.145820 -0.032667 -0.009618
0.227576 0.296463 -0.414220
0.114284 0.257623 -0.012182
0.265993 0.253852 0.131526
0.125751 -0.019857 -0.231705
0.155441 -0.015970 0.253510
-0.059380 0.298905 -0.367576
0.184703 0.098092 0.198911
0.342813 -0.296058 0.277945
-0.308892 0.097704 0.054263
-0.243203 -0.007950 -0.485629
0.125690 0.023867 -0.242188
0.201376 0.324043 -0.463600
-0.269786 -0.018544 -0.367576
-0.041090 0.380281 -0.172068
0.125751 0.017345 -0.033057
-0.231611 0.227548 -0.482189
-0.023912 0.184571 0.108318
0.443332 0.183549 0.138643
-0.159457 0.051154 -0.234203
0.125751 0.118168 -0.317764
0.092046 0.135029 0.108706
0.091166 -0.094261 0.407358
-0.351525 -0.007662 -0.367576
0.082692 -0.044442 0.382615
0.481954 0.139927 0.218957
0.336101 0.262555 0.138643
-0.055959 0.331112 -0.234203
-0.068948 0.228236 -0.487796
0.189392 0.179298 -0.009618
-0.197377 0.346971 -0.234203
0.137970 -0.162747 -0.492065
-0.230328 0.299965 -0.234203
-0.425464 -0.008080 -0.386215
-0.394072 0.166565 -0.212935
0.201469 -0.066545 -0.493114
-0.385400 0.071862 -0.062090
0.039713 0.294863 -0.234203
-0.429872 0.061787 -0.367576
-0.326061 0.268664 -0.220373
0.208748 0.245021 -0.359106
0.088282 -0.151027 -0.378271
-0.238923 0.045191 0.103993
0.318975 0.020287 0.316217
-0.124179 -0.090864 -0.489551
0.014069 0.136072 -0.491203
0.028585 0.333542 -0.383592
0.431220 0.254374 0.229704
-0.122453 -0.130219 -0.234203
0.397332 0.232177 -0.181503
0.216658 -0.030194 0.283185
-0.296239 0.172379 -0.471796
0.363285 0.016430 0.138643
0.125690 0.176304 -0.357056
0.242130 -0.129317 -0.086590
-0.179777 0.072045 -0.367576
0.268639 0.085059 0.063762
-0.181425 -0.196197 -0.203114
-0.302127 -0.119065 -0.345798
-0.376857 0.161532 -0.073875
0.125751 0.013323 -0.304525
0.072743 -0.078669 0.319348
0.357660 -0.094695 0.293265
0.211788 -0.114699 -0.219504
-0.148291 -0.173652 -0.367576
0.061807 -0.200452 -0.285724
0.189953 0.108050 0.231277
0.125751 0.181608 -0.177157
0.268603 0.130153 0.065971
0.136514 -0.115219 -0.226561
-0.003569 0.091635 -0.367576
0.073658 0.321440 -0.386243
0.035506 0.153526 -0.234203
0.268639 0.251655 0.134483
-0.114700 -0.144991 -0.015361
0.105514 -0.179010 -0.431558
-0.159770 -0.136428 -0.234203
0.268603 0.151931 0.054092
0.106380 -0.059452 -0.367576
-0.146829 0.164605 0.126678
-0.294344 -0.107247 -0.234203
0.265662 0.113402 -0.382123
0.386389 -0.268708 0.419328
-0.017289 0.119381 0.125868
-0.156868 0.049919 -0.367576
0.212101 0.312635 -0.431561
-0.041679 -0.119512 0.389565
0.125690 0.020785 -0.251984
0.125690 0.173792 -0.247792
-0.418862 0.092113 -0.432810
-0.034791 -0.042652 0.097561
-0.370683 0.021806 -0.367576
0.131864 0.272643 -0.314133
0.415060 0.096915 0.138643
-0.093667 0.123725 0.133852
0.011244 -0.045683 0.091236
-0.168515 0.134571 -0.367576
-0.060753 0.374223 -0.288355
0.467673 0.117602 -0.113152
-0.094148 0.301499 -0.484047
0.300514 0.176890 -0.009618
-0.371840 0.159331 -0.058793
0.125751 -0.095836 -0.254433
-0.125437 0.080809 -0.367576
0.313012 0.054146 -0.413179
0.356252 -0.064209 -0.027958
-0.310561 0.228524 -0.234203
0.076274 0.157366 -0.367576
-0.161313 -0.135083 -0.017720
-0.007413 0.379479 -0.197600
-0.045197 0.167444 -0.489592
0.241566 -0.023414 0.147107
0.342996 0.314281 0.174296
0.010232 0.318483 -0.484344
-0.027689 -0.105949 -0.234203
0.268639 0.020807 0.078791
-0.293944 0.096071 -0.483387
0.367699 0.045601 -0.284036
-0.452037 -0.001667 -0.300930
0.125751 0.236251 -0.088081
0.056085 0.336899 -0.114294
0.175902 -0.005446 0.122528
0.139012 0.293861 -0.109068
0.181983 -0.024188 -0.367576
-0.363373 0.008071 -0.036162
-0.164073 -0.036453 0.099646
0.167398 0.139874 -0.009618
-0.257363 -0.071900 -0.466386
0.359738 -0.191248 0.394418
-0.235642 -0.060037 -0.480714
0.223960 0.127433 -0.494366
0.142964 0.155226 -0.009618
0.183225 0.001016 0.257243
0.212499 -0.048595 -0.364744
-0.155698 0.248743 -0.486044
0.023965 -0.001501 0.112380
0.408335 0.201212 -0.009618
