ply
format ascii 1.0
element vertex 1686
property float x
property float y
property float z
end_header
-0.149053 0.135284 0.133328
-0.233137 0.262773 0.005814
0.182722 -0.030579 0.377585
0.415818 0.137989 0.289831
0.449587 0.094319 -0.185944
-0.326479 0.095259 0.039825
-0.040419 0.373548 -0.121395
0.245211 0.298698 -0.193888
0.348414 0.059381 -0.303142
-0.071770 0.223699 0.090565
0.348209 0.092852 -0.480227
-0.387177 0.034398 -0.075885
-0.160747 0.003342 0.125717
0.204194 -0.103332 -0.494549
0.464733 0.149216 -0.116189
-0.003493 -0.156346 0.412470
0.135409 0.159594 0.104338
0.461089 0.312698 0.058541
0.241021 -0.054124 -0.403557
0.416806 0.222898 -0.035466
0.481937 0.170500 0.185198
-0.055581 0.223914 0.091682
0.043196 -0.090225 0.040564
-0.268847 -0.115897 -0.068773
0.283642 0.252285 -0.487526
-0.082312 0.332615 -0.047570
0.263398 -0.109873 -0.025068
-0.228068 -0.020114 -0.486279
0.496683 0.174920 0.066053
-0.002502 0.121226 0.127038
0.006413 -0.075698 0.431725
0.004225 0.307938 -0.033391
0.251884 0.257159 -0.490363
-0.463290 0.064845 -0.392276
0.444272 0.039128 -0.033703
-0.083999 0.363722 -0.349730
0.099261 0.311631 -0.204994
0.299456 0.323544 0.059558
0.238827 0.270249 -0.291978
-0.104777 0.347550 -0.073271
0.170251 -0.141315 -0.116412
0.336581 0.201507 -0.282432
-0.203674 -0.091034 -0.486640
-0.023631 0.378494 -0.139407
0.103706 0.022587 0.330448
0.445535 0.033190 0.227035
-0.053102 0.067192 -0.492757
0.162457 -0.015884 0.113712
0.382613 0.006775 0.311996
0.357651 -0.309013 0.330316
0.054582 -0.123695 0.413664
0.008925 -0.153097 -0.034197
-0.198292 -0.074285 -0.489578
-0.194929 -0.017920 -0.490648
0.279520 0.065172 -0.383756
0.011249 -0.047214 0.374810
0.135821 0.021066 0.117084
0.214063 0.273274 -0.300378
-0.354095 -0.012383 -0.035721
0.277107 0.288060 -0.216573
0.482217 0.179315 0.175152
-0.042169 0.383641 -0.182869
-0.346681 0.155500 -0.456635
-0.051918 -0.085299 0.055465
0.091986 -0.133316 -0.013133
-0.004007 0.136625 0.121505
0.239126 0.237587 0.131927
0.463542 0.026354 0.100782
0.106833 0.012725 0.369031
-0.083021 0.010435 0.126551
0.298640 0.146594 -0.406637
-0.479439 0.163428 -0.307669
-0.397420 0.092278 -0.108169
-0.222023 0.336042 -0.119745
0.435002 0.168727 -0.181325
0.230576 0.225657 0.134707
0.042000 0.351659 -0.209994
0.371997 0.014072 0.316190
0.056331 -0.096610 0.340700
0.461848 0.237055 0.207394
0.468269 0.091084 -0.109066
-0.451725 0.147414 -0.396931
0.453270 0.011592 0.131520
0.289411 -0.241954 0.293126
-0.407517 0.211156 -0.377942
0.358104 -0.088426 0.213517
0.067837 -0.167761 -0.377559
0.381130 0.182652 -0.251905
0.195059 0.082717 0.318218
0.078308 -0.210648 -0.171562
0.029577 0.354567 -0.117462
-0.174355 -0.040599 0.095516
0.227320 -0.021707 0.166201
0.411735 0.180185 0.281039
-0.303928 0.281266 -0.345122
-0.208438 0.265006 0.019567
-0.231409 -0.097189 -0.468558
0.293874 0.020601 -0.493996
0.163434 0.018490 0.378794
-0.374011 0.209939 -0.152131
0.351580 0.050945 -0.450180
0.003810 -0.148166 -0.021836
0.083524 -0.067772 0.061183
0.380786 -0.160902 0.372766
-0.346429 -0.009140 -0.013083
-0.065309 0.282626 -0.488569
0.417872 0.216601 -0.160682
0.246316 -0.082752 0.044059
0.328889 0.116963 0.302145
0.391453 -0.107599 0.302769
0.235754 0.277273 -0.395337
-0.246226 0.280021 -0.028764
0.394053 -0.102638 0.311937
-0.413134 0.065630 -0.200859
0.015098 -0.243579 -0.213932
0.203284 0.041560 0.360673
0.223464 -0.015837 -0.494308
0.405914 -0.019234 -0.004346
0.434295 0.169181 -0.185727
-0.362246 0.013952 -0.030376
0.135241 -0.130663 -0.066964
0.351163 -0.023631 -0.271821
-0.048335 0.182342 -0.488327
0.388492 -0.237908 0.405016
-0.106698 0.385952 -0.222290
0.282714 -0.044715 -0.435524
0.342604 -0.063660 -0.242909
0.095122 0.266327 -0.015503
0.036639 0.354269 -0.127750
0.384954 -0.272148 0.421391
-0.070073 0.302728 -0.485183
-0.053125 -0.219639 -0.315631
0.455457 0.115881 -0.030560
0.301887 -0.208159 0.260843
0.255630 0.284840 -0.234109
0.010802 0.353056 -0.268866
-0.240731 0.038803 -0.487188
0.271350 0.119993 0.301592
0.287148 0.281003 0.129727
-0.250070 0.322850 -0.123189
0.161226 -0.133660 -0.056729
0.296832 -0.379119 0.432226
0.376109 -0.218883 0.401896
0.353715 -0.090238 0.350709
0.076541 0.208544 0.072941
0.134516 -0.064604 0.308123
-0.122433 0.375539 -0.139905
0.120654 -0.131331 -0.210451
0.464516 0.061049 -0.096785
-0.334275 0.221841 -0.048313
0.257827 0.285663 -0.237750
0.290591 0.146672 -0.401568
-0.353266 -0.082915 -0.252971
-0.177592 -0.172812 -0.381298
0.479857 0.050958 0.068769
0.299774 -0.176931 0.256601
-0.108449 -0.223199 -0.185104
0.385895 0.287244 0.230602
-0.397760 0.008748 -0.174279
0.068220 -0.035320 0.291807
-0.275837 -0.145512 -0.297949
0.149175 -0.122373 -0.025761
-0.187605 0.353462 -0.288185
0.261822 -0.015185 0.246579
-0.288049 0.290048 -0.334968
0.379550 -0.042015 0.185717
-0.263369 -0.131106 -0.383648
0.281888 -0.280538 0.367580
-0.235984 -0.051409 0.063412
0.483761 0.075872 0.122255
0.392706 -0.282808 0.385846
-0.090051 0.027123 0.134293
-0.400122 -0.035882 -0.369301
0.470917 0.039784 0.109785
0.275315 0.271867 0.133147
0.445701 0.172565 -0.161827
-0.410027 0.212139 -0.367277
0.222317 0.161099 0.257670
-0.135176 0.159296 0.131311
-0.120593 0.084131 0.137683
0.297402 0.298546 0.116180
0.127235 -0.130628 -0.381327
-0.465496 0.079201 -0.392165
0.121130 0.034646 0.293071
0.323453 -0.009293 -0.303898
0.178442 0.292476 -0.212923
0.012016 0.020934 -0.493157
-0.490463 0.046881 -0.297045
-0.259558 -0.086578 -0.456002
-0.022326 -0.085229 0.058720
-0.067680 0.062401 -0.492882
0.377537 -0.266573 0.324648
0.305863 -0.051706 0.168652
0.091359 0.346900 -0.474141
0.312503 0.229723 -0.485085
0.368045 -0.307683 0.348393
-0.266186 -0.140493 -0.121740
-0.233538 -0.171757 -0.212411
0.449675 0.039896 -0.043425
-0.145043 0.107454 0.138904
0.323921 0.258740 -0.234159
0.348871 -0.212406 0.246720
0.115716 0.158527 0.101042
0.263827 0.086049 0.305672
0.352867 -0.065003 -0.011838
-0.318773 0.089988 0.048276
0.227739 -0.109349 -0.010160
0.088277 0.290609 -0.053787
0.343931 0.117008 -0.453478
0.481965 0.215640 0.126415
-0.033011 0.069482 -0.493141
-0.231540 -0.165703 -0.363464
-0.291034 -0.106259 -0.392647
0.014683 -0.225580 -0.291727
0.440277 -0.008090 -0.116867
-0.016039 -0.146528 0.485760
0.153333 -0.068247 -0.362774
-0.387773 0.169710 -0.117372
-0.070557 0.127227 0.130392
-0.190731 0.264990 -0.487548
0.000742 0.019560 -0.491032
0.419999 -0.033483 -0.158783
-0.364058 -0.014980 -0.053483
0.061990 0.136726 -0.492969
0.061349 0.348616 -0.163832
-0.250760 -0.125867 -0.060995
0.275350 -0.075610 0.049589
0.480909 0.210561 0.138084
0.371494 -0.059238 -0.040641
-0.007370 -0.052031 0.349077
-0.473215 0.065198 -0.384731
0.107124 0.303443 -0.093274
-0.330819 0.058761 0.031707
-0.447822 0.195536 -0.347723
-0.383070 0.124565 -0.065387
0.294498 -0.308813 0.304341
0.500017 0.157741 0.078530
0.267643 0.092159 0.306751
0.384316 -0.277168 0.423806
0.141345 0.177047 0.098542
-0.245317 -0.141663 -0.096020
0.339127 0.142018 -0.468957
0.143132 -0.108197 -0.373661
0.242717 0.151497 0.299627
0.368915 0.097712 0.306003
-0.079573 0.115307 0.134104
0.151702 0.336836 -0.450275
0.405692 0.030908 -0.244431
0.318554 0.073655 -0.492475
-0.341734 0.196179 -0.024160
-0.001482 0.124952 0.126761
-0.019749 -0.077923 -0.493059
0.308814 0.010733 0.321192
0.127029 0.228397 0.027582
0.190433 0.093230 0.266641
-0.288807 0.290077 -0.346296
-0.220642 0.288523 -0.461594
-0.304142 0.293571 -0.251544
0.235655 -0.103034 -0.490983
-0.025644 0.357904 -0.409533
0.310777 0.289891 -0.000459
-0.229654 0.217636 0.072697
0.096967 -0.197554 -0.205403
0.318873 -0.074012 0.046273
-0.479865 0.070008 -0.245243
0.313289 -0.093362 0.334268
0.221331 -0.097336 -0.491846
0.184348 0.063322 0.324093
0.120789 -0.160649 -0.493684
0.103405 0.029240 0.302063
-0.047075 -0.173058 0.424306
0.273083 -0.036915 0.142022
0.036613 0.066195 0.122857
0.187633 0.271884 -0.329852
-0.180651 -0.167118 -0.393076
-0.178667 0.364876 -0.180459
0.207999 0.299426 -0.105583
-0.448365 0.065447 -0.406586
0.287959 -0.135013 0.295250
0.353959 -0.210055 0.241566
0.466041 0.084722 0.250255
-0.280222 0.297587 -0.097438
0.018591 -0.039234 0.363557
0.298872 -0.114581 -0.180467
0.102254 0.024487 0.319468
0.464583 0.099600 -0.053810
0.028427 0.266419 0.013463
-0.401472 0.025630 -0.155993
0.267815 0.167576 -0.386995
0.249755 0.295526 -0.201872
-0.436736 0.189350 -0.268626
0.018956 -0.093023 -0.493363
0.315113 -0.094708 -0.222835
-0.253470 0.315567 -0.323946
0.084792 -0.131057 -0.014275
-0.277635 0.271215 -0.415723
0.343285 0.081756 -0.447218
0.021245 0.111360 0.126615
0.236813 0.210309 -0.358372
0.335243 0.168653 -0.453022
0.151370 -0.140091 -0.147243
0.179947 -0.001415 0.385427
0.291488 -0.204883 0.354920
0.043940 -0.194522 -0.409137
0.033280 -0.130804 -0.000725
0.479108 0.269769 0.033364
0.441358 0.322732 0.053239
0.060055 -0.197670 -0.307002
0.358530 -0.065808 -0.026746
0.148461 0.033622 0.123898
0.057265 0.321570 -0.081420
0.320945 0.170624 -0.429831
0.366156 -0.079170 -0.076430
0.491976 0.250228 0.057069
0.428969 0.272567 0.000609
0.449818 0.028595 0.195084
0.023832 -0.019007 0.314953
0.044773 -0.069758 0.308362
0.318867 -0.041882 0.313535
0.309449 -0.374046 0.359596
0.393999 0.016544 0.305016
0.225183 -0.005882 0.336259
-0.395093 0.230829 -0.304154
0.363387 -0.088685 0.224670
-0.025981 -0.224246 -0.114472
0.290947 0.093359 0.307428
0.010298 -0.213944 -0.326061
-0.068205 0.030699 -0.491520
-0.196096 0.090427 0.126668
-0.423358 0.197828 -0.258087
-0.358356 0.249499 -0.333202
-0.268786 -0.152575 -0.226608
-0.068503 -0.216405 -0.113975
0.202391 0.196851 0.135114
-0.000795 0.381763 -0.192769
-0.473060 0.143925 -0.253480
-0.079883 0.363903 -0.351476
-0.265637 -0.115029 -0.061981
0.100555 0.232913 0.033387
-0.079577 0.350620 -0.076201
-0.093954 -0.095559 0.051785
0.298798 -0.082702 0.036943
-0.042002 0.327689 -0.047813
0.023295 -0.018858 0.333735
0.324481 -0.053592 -0.265686
-0.244749 -0.154292 -0.132253
0.231720 0.067016 -0.494937
-0.008900 0.210011 0.091189
-0.281227 -0.043183 -0.469777
0.300058 0.139981 -0.409562
-0.033358 -0.237703 -0.166811
0.134033 0.011660 -0.494937
0.350511 -0.065973 0.338559
0.265930 0.301499 -0.107816
0.246911 0.235725 -0.333026
-0.039518 0.284850 0.008486
0.178770 0.066843 0.262197
0.252185 0.230595 -0.332330
0.151430 0.247700 -0.490693
-0.262021 0.273656 -0.031558
0.150594 -0.032516 0.409703
-0.127697 -0.018228 0.115388
0.463705 0.181503 0.008865
0.076151 -0.187333 -0.417617
0.376888 -0.258752 0.326846
0.038452 -0.100481 0.036149
0.314280 0.081106 -0.491450
0.301730 -0.234241 0.274070
0.069290 0.065765 0.119582
0.428296 -0.015411 0.075634
-0.174332 -0.176482 -0.380628
0.465081 0.022786 0.079125
-0.209791 -0.172063 -0.360001
-0.225241 -0.180049 -0.252142
0.063979 -0.019010 0.292204
0.288250 -0.352870 0.420584
0.402105 -0.031345 0.243207
-0.069265 0.035761 -0.492204
0.226056 0.131600 0.312787
0.262965 -0.083065 -0.484077
0.268829 -0.002944 -0.354282
-0.223324 -0.172527 -0.142517
-0.361864 -0.042643 -0.075580
-0.025007 0.265318 0.032111
0.025198 -0.128150 0.476290
0.423108 0.290132 0.204595
0.315665 -0.081423 -0.013451
0.150821 0.039347 0.334597
0.117567 -0.131081 -0.032682
0.390424 -0.036699 0.189526
-0.240642 0.281272 -0.022393
0.101795 0.307232 -0.205720
-0.077919 -0.186027 -0.064227
-0.125459 0.300046 -0.010283
0.130541 0.286731 -0.217025
0.272424 0.055619 -0.494937
-0.346528 0.116523 -0.466110
0.218879 -0.021247 0.312352
-0.474650 0.028000 -0.276133
0.483498 0.138964 0.196391
-0.246544 -0.144958 -0.381346
-0.163342 -0.176781 -0.379341
0.382450 -0.175254 0.374995
0.196147 -0.028299 0.228179
-0.000180 -0.152511 0.406570
0.172262 0.009522 0.386228
0.259855 -0.070798 0.070116
-0.174162 0.302783 -0.466069
0.302963 0.321844 0.062890
0.036377 -0.095878 -0.493707
-0.381258 -0.031230 -0.183321
0.228821 -0.025227 0.262516
-0.037117 0.368834 -0.292061
0.053578 -0.195727 -0.440158
0.260611 0.302195 -0.110006
-0.352891 -0.046778 -0.059002
0.399454 0.225677 -0.192444
0.232663 0.201866 -0.362416
0.066327 0.080753 -0.492271
0.305066 0.112010 -0.333358
0.267708 0.165259 -0.389041
0.037423 -0.090389 0.049500
0.312576 -0.004407 -0.426134
-0.145645 0.374144 -0.170677
-0.051418 0.216460 0.093324
0.222710 -0.066801 0.081729
0.094733 0.243740 0.017353
0.073226 -0.010429 0.392122
-0.252249 0.142450 0.097385
0.269379 0.041826 0.318136
0.025314 -0.206527 -0.099036
-0.203918 0.105233 0.124224
0.308375 0.165171 -0.319444
0.061179 0.111766 0.120752
-0.415328 0.068562 -0.226798
-0.054591 0.151599 0.128812
0.089898 -0.002002 0.392320
0.282620 -0.307617 0.364472
0.013406 -0.169637 -0.051322
-0.010969 -0.149433 -0.026117
0.446610 0.033054 0.218217
0.454750 0.025528 -0.104056
0.300484 -0.319520 0.423215
0.323208 0.221637 -0.455490
0.081686 -0.178391 -0.080899
0.315555 0.202872 -0.298498
0.068284 -0.040053 0.090877
0.427342 0.219587 0.259874
0.036930 -0.088731 0.042037
0.304511 -0.169498 0.250978
-0.043627 0.359011 -0.400134
-0.025695 -0.240924 -0.195311
-0.313560 -0.091955 -0.386048
0.374889 -0.306016 0.372698
0.386294 0.164997 -0.253159
-0.385593 0.074194 -0.063199
0.255173 0.288296 -0.066865
-0.165456 0.351143 -0.346466
0.033368 -0.106975 0.344599
-0.226787 -0.178605 -0.267248
-0.344502 0.244272 -0.381989
0.454800 0.154947 -0.147475
0.287709 0.299203 0.042318
0.494336 0.103454 0.101077
0.108043 0.266161 -0.019461
0.411631 -0.050530 -0.135144
-0.087481 -0.050886 -0.492791
0.343489 0.229596 0.274899
0.105889 -0.160724 -0.079149
-0.153625 0.373336 -0.209760
0.319642 -0.081372 0.013705
-0.044596 0.002390 0.121757
-0.297757 0.296014 -0.254199
0.367477 -0.051479 0.044707
0.413913 -0.019058 0.181092
0.198169 0.076969 -0.496722
0.261642 0.300355 -0.155676
0.308427 -0.014676 0.323425
0.225799 -0.043296 -0.374789
-0.201785 0.242301 -0.486385
0.080916 0.043942 -0.494517
-0.249083 0.065310 -0.486599
-0.368088 -0.069964 -0.251970
0.212383 -0.134743 -0.161678
-0.248266 0.302066 -0.071349
-0.273342 0.259485 -0.017762
0.148889 0.297077 -0.111849
0.257227 -0.128012 -0.098020
-0.139764 -0.183367 -0.080616
0.386976 0.286616 -0.000086
0.048285 -0.015672 0.360266
-0.014713 -0.066170 0.328392
-0.212444 0.350563 -0.175763
0.338208 0.286868 -0.128540
-0.397519 0.014441 -0.121059
0.279457 -0.065318 -0.462835
-0.298795 0.252510 -0.435893
0.211150 0.239954 0.103074
-0.099668 -0.130843 -0.489275
0.133263 0.201657 0.069988
-0.149016 0.351529 -0.362534
0.430556 0.045688 -0.213157
-0.152972 -0.016067 -0.491222
0.130675 0.339152 -0.472105
0.431482 0.278144 0.209130
-0.221750 -0.014590 -0.488271
0.187222 0.246545 0.061286
-0.263992 -0.152032 -0.195844
0.165068 0.191358 -0.495647
-0.013873 0.178711 0.114892
0.182579 0.132028 0.140674
-0.052686 0.035555 -0.494057
0.228175 -0.075550 0.063568
0.084684 0.011169 0.114642
0.171288 0.268309 -0.337732
0.176527 0.298596 -0.119749
0.410487 -0.002464 -0.222248
0.356844 -0.169349 0.240436
0.294457 0.256786 -0.267308
-0.286399 0.292336 -0.100095
0.063391 0.256643 0.013570
-0.486884 0.117641 -0.352737
0.289989 0.083313 -0.343988
-0.163459 -0.063851 0.082312
-0.184549 0.213192 -0.486284
0.068622 -0.092236 0.342807
-0.367348 0.080358 -0.025827
0.007292 0.297526 -0.020301
-0.230978 -0.137483 -0.069427
0.285908 -0.037835 0.262770
0.405876 -0.028748 -0.207408
0.316571 -0.071908 0.073404
0.296895 -0.111816 -0.099450
0.303254 -0.096235 -0.029988
0.197315 -0.038142 0.325447
0.152118 -0.151115 -0.493409
-0.004043 -0.187684 -0.430125
0.227011 -0.024733 0.267554
0.238702 -0.098827 0.018448
0.278169 -0.039637 0.166605
-0.315483 0.216207 -0.009190
0.135480 -0.141206 -0.400732
0.265946 -0.003671 -0.376254
0.346953 -0.092458 -0.112330
-0.044043 -0.102501 0.362360
0.316856 -0.100869 -0.071382
-0.169984 0.039844 -0.489527
-0.341375 0.221334 -0.059749
0.192586 0.293349 -0.078495
-0.284732 -0.130913 -0.127204
0.474383 0.225431 0.175036
0.325789 0.212183 0.284509
0.012368 -0.114561 0.348705
-0.149975 -0.054624 0.087911
0.106882 0.260875 -0.487585
0.199809 0.220445 0.111521
0.034279 -0.192560 -0.084228
-0.319429 0.236432 -0.430462
0.191089 -0.105392 -0.243344
0.282157 -0.175234 0.300766
-0.373423 0.062670 -0.030379
0.072950 0.264147 -0.002700
0.330756 0.158064 -0.447444
0.331525 -0.359738 0.455977
-0.135721 -0.034624 -0.490487
0.219094 0.184642 0.187228
-0.088385 0.257867 0.060539
0.323347 0.276207 -0.005443
0.450658 0.042631 -0.055545
0.423640 -0.015664 -0.048775
-0.160762 -0.081624 0.064560
-0.247508 0.228629 0.052406
-0.389033 0.211088 -0.398711
0.292300 0.185861 0.289474
0.264680 0.302877 -0.163315
0.441487 0.078559 -0.198699
-0.361627 0.195005 -0.433491
0.011844 -0.082989 0.326353
-0.400013 -0.051840 -0.301940
-0.135990 0.183255 0.119645
0.033197 -0.102212 0.484283
-0.181559 -0.142159 -0.045056
0.006072 0.132108 0.122608
0.205997 -0.070735 -0.387951
-0.038859 0.152339 0.127973
0.425004 0.194280 -0.013072
0.164374 0.019087 0.380427
0.110521 -0.021196 0.102304
-0.118222 -0.167103 -0.050759
0.275630 -0.084125 0.035457
0.492334 0.159945 0.122547
0.208681 -0.077680 0.067219
-0.006724 -0.199845 -0.370641
-0.486017 0.149953 -0.283726
-0.237091 -0.107741 -0.019795
-0.437419 -0.014786 -0.285702
-0.222375 -0.060532 0.060632
-0.189275 -0.171045 -0.104902
-0.112807 -0.223136 -0.182839
0.162787 -0.040134 0.280178
-0.122862 -0.166731 -0.432204
0.196712 -0.029600 0.239679
0.394715 -0.033770 -0.217228
-0.346987 -0.089256 -0.321721
0.218971 -0.030205 0.204026
0.463126 0.128172 -0.134339
-0.136868 0.269701 -0.484784
0.355414 -0.326570 0.351416
0.478135 0.063444 0.134858
0.252119 0.095738 -0.495275
0.287421 -0.029308 0.290157
0.452657 0.205013 0.243457
-0.092748 0.257194 -0.487526
0.052139 -0.169552 -0.492552
0.133251 -0.038532 0.090756
0.255440 0.231957 0.183720
0.207478 0.149151 0.235250
0.277777 -0.347087 0.375579
-0.169290 -0.204513 -0.202428
-0.097776 -0.191323 -0.375181
0.341116 -0.087842 -0.067235
0.137728 0.006877 0.398588
0.297879 0.090425 0.309451
-0.175808 -0.183766 -0.352547
-0.453939 0.076310 -0.235808
-0.384489 0.194503 -0.419362
0.372504 0.009209 -0.266969
-0.054483 0.107124 0.131973
0.000989 -0.070298 0.322516
0.052817 -0.116725 0.011255
0.285989 -0.246341 0.312802
0.380661 0.033462 -0.271548
-0.433603 0.079363 -0.420513
-0.071821 -0.156427 -0.478561
-0.285970 -0.131798 -0.343702
-0.083929 -0.031496 0.106118
0.406764 0.175745 -0.225268
-0.185538 -0.099142 0.025333
0.105850 -0.016458 0.101877
-0.333785 -0.055617 -0.424158
0.332073 -0.069986 0.036182
0.396622 -0.039212 0.264117
0.301597 0.259952 -0.436356
0.046583 -0.153739 -0.033680
0.398495 -0.036504 0.080438
0.492531 0.248791 0.069089
0.285419 -0.211444 0.340565
-0.159044 -0.157614 -0.053218
-0.301051 -0.050510 0.010877
0.026886 -0.057771 -0.491526
0.168775 0.007909 0.123207
-0.183675 0.357686 -0.283179
-0.005382 0.371408 -0.231284
-0.371384 0.012556 -0.442469
-0.011089 -0.009818 0.114211
0.183550 -0.073333 0.070027
0.124139 -0.130666 -0.382697
0.319119 0.287405 -0.081065
0.203834 -0.018782 0.186504
-0.246233 0.008905 0.096191
-0.137050 0.277070 -0.486284
-0.404056 0.035734 -0.151548
0.179825 -0.140229 -0.156232
0.177116 -0.018599 0.252752
-0.094914 0.037931 -0.492544
0.204042 0.065388 -0.494937
0.012684 -0.111354 0.019084
-0.169808 0.221382 -0.486284
0.239744 0.204734 0.228155
-0.489219 0.096795 -0.353774
-0.283262 0.125253 0.079398
-0.159376 -0.090702 -0.491788
0.140320 0.274045 -0.321810
0.377075 0.265428 -0.029499
0.161119 -0.129039 -0.417242
0.134361 0.287739 -0.207597
0.400138 0.320985 0.186917
0.078709 -0.193533 -0.260378
0.040436 0.361532 -0.189960
-0.448690 0.160094 -0.251290
-0.139547 0.035026 0.134606
-0.004820 -0.146711 -0.492959
-0.126931 -0.028351 0.111318
0.143184 -0.050039 0.088736
0.055695 0.310804 -0.328596
0.123297 -0.091940 -0.495143
-0.182645 0.223240 0.085074
0.275370 -0.125800 -0.123669
0.016777 -0.024313 -0.494787
0.330175 0.290874 -0.141843
0.376514 -0.036804 -0.236554
0.288275 -0.045682 0.209995
0.059958 0.325911 -0.485523
0.192644 0.270766 -0.329921
0.277729 0.269432 -0.021390
0.179498 0.059455 0.300000
0.005763 -0.125708 -0.493716
0.182107 0.144074 0.137299
0.270963 0.140409 -0.385741
0.177072 -0.119994 -0.420935
0.103808 -0.140237 -0.289625
0.052795 0.001201 0.311993
0.103884 0.263212 -0.011773
0.192838 -0.137752 -0.469945
0.424528 0.007609 -0.003965
0.304888 0.123224 -0.331249
0.094126 0.351216 -0.455348
0.378181 0.316654 0.196102
0.027220 -0.055220 0.310686
-0.132353 -0.035361 -0.488488
-0.397518 -0.047675 -0.279995
0.322014 -0.074305 0.182189
-0.220461 0.168460 0.106454
0.362004 -0.080674 -0.193645
-0.238453 0.322737 -0.311156
0.427135 0.145007 -0.208258
0.357843 -0.044802 0.327585
-0.122240 0.380851 -0.252387
-0.000526 -0.039518 0.098736
-0.281525 -0.136087 -0.327496
-0.406418 0.046272 -0.217453
0.060412 0.262201 0.005854
-0.295230 0.187160 -0.468988
-0.034517 0.099224 -0.491224
-0.383500 -0.028246 -0.409106
-0.023584 -0.233285 -0.260378
0.128567 0.049576 -0.494523
-0.228960 0.278418 -0.014816
-0.181994 0.342901 -0.356294
0.247547 0.296262 -0.090036
0.096636 -0.179516 -0.121652
0.435458 0.003880 0.180300
0.159486 -0.074359 -0.330796
0.200718 -0.113497 -0.002561
0.298878 -0.010641 -0.325832
0.339988 0.071035 -0.312019
-0.235529 0.065754 -0.490839
0.105877 -0.057165 0.435978
0.186936 0.250265 0.059772
0.079540 -0.060091 0.299806
0.363374 0.323103 0.017334
0.330501 0.293363 0.001456
-0.369938 0.085759 -0.026418
0.206667 0.092330 -0.496552
-0.029979 -0.096026 0.343952
-0.222071 -0.000103 -0.489615
0.022308 0.014373 -0.493658
0.071232 -0.066605 0.068665
0.167566 0.030567 0.236297
-0.337138 0.261025 -0.176267
-0.154758 -0.175856 -0.080081
0.043310 -0.069787 0.063999
0.438134 0.013840 0.012010
-0.002377 -0.238690 -0.252549
-0.118407 -0.218939 -0.225191
0.156460 -0.027478 0.110751
-0.050224 -0.121475 0.371966
0.075340 -0.105878 0.392652
-0.153965 -0.201698 -0.134352
-0.144872 -0.046303 0.097349
0.162369 0.002777 -0.495645
-0.129696 0.016406 0.129391
0.020311 0.333384 -0.378328
0.336784 -0.347465 0.456714
-0.344385 -0.007412 -0.447251
-0.026351 0.351534 -0.339681
-0.253218 -0.050808 -0.477526
-0.346438 0.111064 0.007150
0.368690 -0.254201 0.297235
0.349061 0.215128 0.280150
0.298484 -0.103633 -0.045648
-0.172437 -0.202287 -0.238408
-0.015001 -0.083246 0.332259
-0.152293 -0.106449 0.032035
-0.055289 -0.225040 -0.285308
-0.124792 -0.115480 0.030226
0.117224 -0.025363 0.428387
0.063180 -0.101004 0.344169
-0.386678 -0.002680 -0.425363
-0.090275 0.349947 -0.078628
0.485992 0.068485 0.049610
0.318312 -0.089355 -0.027537
-0.320332 -0.047651 -0.439968
0.465315 0.031104 0.139998
-0.144796 -0.152885 -0.453950
-0.042575 -0.083521 -0.493049
0.132021 0.282448 -0.067828
-0.171124 -0.133425 -0.475005
-0.053562 0.033199 -0.492215
-0.140120 0.062606 -0.489920
0.055531 0.319861 -0.079436
0.291800 -0.363318 0.428546
-0.052709 -0.179314 -0.430415
0.162244 0.241893 0.042263
0.342968 0.281505 -0.083486
0.273852 0.267586 -0.016049
-0.301444 -0.006145 0.044015
-0.171153 0.366234 -0.177294
0.311399 0.028852 -0.329293
-0.133050 0.234659 0.083376
-0.038800 0.373921 -0.260036
0.032374 0.346702 -0.252411
-0.246362 -0.068887 0.033169
0.487464 0.233557 0.046731
0.255957 0.264656 -0.010933
0.150513 -0.059887 0.386676
-0.047742 -0.003640 0.119735
0.250595 0.259606 -0.298229
0.364677 -0.184930 0.248351
0.440639 0.097395 -0.202399
0.409815 -0.024215 0.180926
0.353488 0.265945 0.252981
-0.444013 0.080791 -0.411892
0.276209 0.072664 -0.496129
-0.415896 -0.026134 -0.363422
0.383687 -0.248449 0.334037
0.341592 -0.348915 0.368081
0.072131 0.145899 0.108217
0.208939 0.115810 0.307337
-0.401992 0.014487 -0.230237
-0.237350 -0.151950 -0.115412
0.417530 0.169247 -0.212648
0.186344 -0.045172 0.312263
0.152434 0.316317 -0.484290
-0.495718 0.111982 -0.271455
0.308865 0.268387 -0.020904
0.195944 -0.019315 0.123507
-0.364651 0.042895 -0.457687
0.224615 -0.038110 0.239419
0.236016 0.064649 0.325152
0.329444 -0.067488 -0.245365
0.456437 0.154680 -0.135115
0.048723 0.136323 -0.492574
0.471115 0.176241 0.243513
-0.413619 -0.015749 -0.392034
-0.315605 0.286370 -0.260196
0.046654 -0.093659 0.328496
0.217857 -0.062216 0.090755
0.306424 -0.298152 0.284328
-0.093250 0.364711 -0.345587
0.283674 0.082185 0.309704
0.186223 0.000261 0.220181
0.147592 0.310762 -0.397109
0.123903 -0.100914 0.026793
0.138141 0.012077 0.253503
0.132993 -0.066751 -0.365639
0.338430 -0.353078 0.457510
0.059295 -0.004565 0.349518
0.341421 0.281840 -0.076606
0.132574 -0.143286 -0.116453
0.457772 0.144435 -0.056020
-0.197913 -0.191799 -0.263065
-0.048550 0.042938 0.129541
0.302573 -0.084080 0.208980
-0.326903 0.271733 -0.327901
-0.274217 0.311473 -0.254526
-0.207588 -0.100987 -0.481971
-0.028471 0.345573 -0.460798
-0.039627 -0.095732 0.045267
0.271819 -0.025005 0.236546
0.337960 0.309209 0.187792
0.283397 0.291598 0.101321
0.414095 -0.016965 0.245741
-0.003630 -0.243914 -0.203271
-0.369966 0.086010 -0.457460
0.162740 0.182329 -0.494191
-0.448777 0.054127 -0.403527
0.180507 0.172429 0.131202
-0.003587 -0.223592 -0.120908
0.195236 -0.104831 -0.256182
0.028920 0.348764 -0.406877
0.096204 -0.037134 0.095194
-0.329582 0.006518 0.019554
-0.119228 -0.210801 -0.283112
0.255835 -0.062288 -0.494224
0.477219 0.193768 0.202547
0.279223 0.225381 -0.489171
0.463322 0.198758 0.237200
-0.066172 0.051873 -0.491727
-0.016867 -0.117178 0.448545
0.263547 -0.129544 -0.116832
-0.161335 -0.000643 0.120000
-0.326802 0.103313 0.036716
-0.143962 0.377083 -0.226506
-0.084994 -0.200550 -0.355996
-0.290049 -0.057922 0.011045
0.033828 -0.095198 0.485241
0.084794 -0.203049 -0.148817
0.024883 0.340789 -0.294874
0.199822 -0.081739 -0.395694
-0.033910 -0.238137 -0.234443
0.466640 0.074551 -0.117570
0.097657 -0.078431 0.321018
0.347924 -0.037539 -0.262479
-0.073330 0.045246 -0.492523
-0.461483 0.067439 -0.237217
0.000168 -0.205357 -0.096212
0.224941 0.302484 -0.155450
0.117953 -0.161195 -0.492475
-0.359966 -0.080139 -0.161357
-0.203456 -0.185221 -0.229234
0.278494 0.230813 -0.488767
-0.065028 0.289605 0.009857
-0.037797 -0.038688 0.103376
-0.128607 -0.177105 -0.403367
0.016655 0.113801 0.122492
-0.155190 -0.168542 -0.404875
-0.450528 0.004486 -0.278925
0.037827 -0.036459 0.095907
0.292356 -0.047157 0.128667
0.067591 0.039355 0.116129
-0.049056 -0.010892 0.117046
0.215051 -0.047683 -0.362451
-0.351872 -0.086507 -0.294843
0.475800 0.074149 0.160060
0.007083 0.296724 -0.486284
0.481405 0.190753 0.143344
0.192572 0.174770 -0.492633
0.267399 0.206791 -0.395609
-0.159508 0.249352 0.055244
-0.192086 -0.156545 -0.073063
-0.008865 -0.241038 -0.154445
0.355422 -0.124348 0.227035
0.161497 0.022940 0.240397
-0.265991 -0.004890 0.071195
0.245194 0.253168 0.115337
0.441022 -0.006503 -0.133836
0.284279 0.115993 -0.395996
0.082063 -0.187863 -0.261138
0.246459 0.135497 -0.364762
0.132140 0.009209 0.107373
0.339633 -0.053936 0.106953
0.198198 0.209327 0.122925
0.408744 0.058115 0.296880
0.147258 0.040764 0.334705
0.238955 0.155703 -0.496245
0.336842 0.019911 -0.432887
0.173181 -0.137275 -0.095652
-0.345760 0.028355 0.008538
-0.113037 0.351356 -0.083511
0.188955 0.265604 -0.487543
-0.211296 -0.034195 -0.490679
-0.086653 0.384638 -0.186443
0.156012 0.064971 -0.492228
0.015227 0.238301 0.057146
0.080758 0.314978 -0.253687
-0.103093 -0.159488 -0.029752
-0.078481 -0.221061 -0.258537
-0.287192 0.300111 -0.132260
0.153128 0.240650 0.038776
0.425584 0.022996 0.277278
0.305479 -0.094050 0.219228
0.053241 -0.192480 -0.084724
-0.140216 0.248494 0.067827
-0.032193 0.169268 0.121682
0.090988 -0.154450 -0.491309
-0.069655 -0.198213 -0.372352
-0.357640 0.023458 -0.015917
0.319442 -0.048560 0.140431
0.132839 0.028286 -0.491981
-0.367246 0.180429 -0.059804
0.382621 -0.077923 -0.159695
0.376099 0.232828 -0.214132
0.450908 0.014535 0.038801
-0.136112 -0.205445 -0.132877
0.356842 0.324252 0.016801
0.209529 -0.130565 -0.183814
-0.202972 0.036680 -0.488476
0.329135 -0.070245 0.177191
0.313765 -0.110940 -0.167880
-0.089711 -0.223923 -0.247103
-0.120876 0.014376 0.132903
0.430359 0.073219 -0.217114
-0.024206 0.041701 -0.491654
0.172346 -0.022153 0.392479
-0.054880 0.358198 -0.091329
-0.140233 -0.069725 -0.491959
0.217262 0.288272 -0.243516
0.086537 -0.165445 -0.492214
-0.194298 0.335863 -0.091844
-0.095998 0.275176 -0.486058
-0.375220 0.189750 -0.102192
-0.349684 0.153963 -0.004444
0.136071 -0.122348 -0.210787
0.314288 -0.256775 0.407812
0.480618 0.240314 0.031063
0.079417 -0.162221 -0.376761
-0.176627 -0.198838 -0.241116
-0.364829 0.250057 -0.305172
-0.131467 0.339766 -0.404904
0.236677 -0.091943 -0.272246
-0.143903 -0.211552 -0.235480
-0.246637 -0.001937 0.087437
0.289742 -0.135412 0.282362
0.277513 -0.122477 -0.151104
0.097343 -0.136134 -0.494364
0.235202 -0.068355 -0.406490
0.012286 0.369557 -0.130235
-0.457800 0.118997 -0.232123
0.256245 -0.089300 0.035127
0.116469 0.297045 -0.101582
-0.206878 0.333024 -0.353729
-0.180152 -0.197456 -0.221128
-0.265923 0.302356 -0.337961
0.352240 -0.273001 0.268986
-0.330675 0.110790 0.028665
0.374821 -0.292930 0.356696
0.206163 0.289266 -0.235014
0.466420 0.106847 -0.125413
-0.257191 0.071633 -0.489529
0.258997 0.119312 -0.357509
0.041454 -0.178549 -0.066056
0.372668 0.010677 -0.270209
0.095903 -0.195044 -0.219646
0.397144 0.065961 -0.258554
0.307141 0.297936 -0.151804
0.216353 0.045732 0.346630
0.381728 -0.131808 0.264188
-0.085089 0.372045 -0.311956
-0.234335 0.312442 -0.076532
0.044205 -0.141417 -0.023571
0.093927 -0.142071 -0.372878
0.291867 -0.214757 0.353894
-0.026578 -0.242983 -0.173666
-0.175948 -0.017332 -0.491504
-0.064282 0.044540 -0.493540
0.293696 -0.095187 0.236132
0.021499 0.079543 -0.493800
0.119001 0.132685 -0.493589
0.147245 0.029654 0.123628
0.409350 0.073347 0.296401
0.307881 0.204888 -0.301424
0.161750 0.045465 0.254584
0.389711 -0.280984 0.378541
0.113908 0.060713 -0.495039
0.122011 0.022452 -0.495655
-0.189108 0.018296 -0.488383
-0.218464 0.343633 -0.253999
0.400378 0.309359 0.199412
0.238259 -0.050688 -0.398704
0.160683 0.074488 0.129018
0.007538 0.248720 0.047362
0.113662 -0.135143 -0.030821
0.340883 0.350717 0.086869
0.078079 0.300680 -0.369588
-0.173759 0.349955 -0.107692
0.197206 0.024898 0.364659
-0.432731 0.073532 -0.421702
-0.023317 -0.133875 0.463621
-0.083446 0.365995 -0.339027
0.138154 0.037678 0.120116
0.229552 -0.058154 -0.495710
-0.172849 0.161293 -0.486216
0.468167 0.190373 0.012034
0.401560 -0.025593 0.142143
-0.184458 0.293903 -0.477670
0.330595 0.286082 -0.099402
0.302054 0.279658 -0.006309
0.045432 0.294290 -0.033895
-0.402359 0.033655 -0.138832
-0.187583 0.353722 -0.291619
0.498557 0.130277 0.060505
-0.041249 0.356923 -0.418561
0.309252 -0.075876 0.318546
0.024489 -0.112845 0.350081
0.292677 0.279645 -0.048652
-0.393983 0.017188 -0.112078
-0.015236 0.022978 0.126687
0.105560 0.116683 0.113029
0.059021 -0.110300 0.446516
0.334603 0.329194 0.131185
-0.299456 0.267696 -0.058122
-0.482882 0.093731 -0.370552
0.109871 -0.148572 -0.052601
0.143150 0.239675 -0.490790
-0.058359 0.042323 0.130267
-0.460044 0.016455 -0.366652
-0.049737 0.370456 -0.298998
-0.108635 0.044462 -0.492756
-0.214575 -0.181608 -0.204127
-0.108609 -0.163355 -0.439306
0.275557 -0.120568 -0.198456
0.315283 -0.078245 0.016835
-0.408629 -0.035521 -0.359104
0.217771 0.290817 -0.074718
0.459062 0.033979 0.176669
-0.478381 0.068160 -0.246085
-0.309691 -0.043751 0.015000
0.093243 0.262880 -0.009663
0.383612 0.153435 0.291685
-0.271299 -0.111775 -0.405541
0.031247 -0.105028 0.486189
-0.265996 -0.136426 -0.374180
0.204795 -0.113764 -0.226259
-0.345304 0.135508 0.007748
0.424364 -0.020272 -0.180150
0.285216 0.030528 -0.388524
-0.011296 -0.136529 0.483876
0.006558 0.341903 -0.478001
0.464850 0.178011 0.009274
0.467009 0.155929 0.008105
-0.298898 0.282698 -0.345522
0.102298 0.043902 -0.494520
0.378648 0.272001 -0.006372
0.007391 -0.042199 0.354021
0.449339 0.312984 0.041518
-0.421360 0.088663 -0.233563
0.355565 -0.016023 0.323299
-0.081519 -0.183404 -0.407235
0.340907 0.075931 -0.443535
0.011976 -0.128566 0.492715
0.088905 -0.184031 -0.254576
-0.033563 -0.182615 -0.062909
-0.242968 -0.143715 -0.391826
0.043438 -0.110878 0.015951
0.088467 -0.144070 -0.371583
0.138594 -0.068139 0.391999
0.217252 0.155067 -0.493707
0.289833 -0.083998 0.246141
0.310821 0.248224 -0.266169
0.103774 -0.134089 -0.370376
0.265282 -0.013113 0.247571
0.036952 -0.168653 -0.488532
0.211233 -0.087706 -0.409766
0.229395 0.246072 -0.341823
0.091425 0.284310 -0.367694
0.360368 0.173441 0.293508
0.100298 0.312999 -0.188778
-0.060358 -0.020327 -0.493773
-0.188045 0.357492 -0.253097
0.392664 0.199967 0.279205
0.298181 -0.022171 -0.419342
-0.326012 0.112507 -0.471668
0.114615 -0.062165 0.303825
-0.055319 -0.198135 -0.078622
0.392735 0.039232 0.305666
-0.136383 0.122973 0.137709
-0.133360 0.116322 0.137355
-0.276179 0.248778 -0.453904
-0.111365 0.217380 -0.489224
-0.125239 0.065786 0.140740
-0.058234 -0.042175 -0.491241
0.261382 -0.089304 -0.269418
-0.214685 0.215670 0.082558
-0.012288 0.037488 -0.491882
0.375316 -0.101561 0.247744
-0.079870 0.004202 -0.492520
-0.214538 0.021920 -0.490612
0.382734 -0.055419 -0.049133
0.000579 0.007630 -0.492553
0.179502 0.084160 0.211942
0.250395 -0.093648 -0.487553
0.308182 -0.073228 0.059554
0.219795 0.176817 0.203935
0.244196 -0.065747 -0.422406
0.438451 0.004669 0.153012
-0.329361 -0.043937 -0.435411
-0.473993 0.120701 -0.243347
0.144877 0.279919 -0.370245
-0.187506 0.021670 0.122039
-0.282716 0.026008 0.070546
-0.359785 0.249842 -0.340325
0.106884 -0.166568 -0.116292
0.492231 0.147642 0.050498
0.188292 0.226063 0.096896
0.040077 -0.135229 -0.014681
-0.352690 0.128665 -0.002637
0.383922 -0.097809 0.257354
-0.349086 0.229756 -0.097365
0.249755 0.087154 -0.495547
0.331621 -0.067712 0.055612
0.009533 -0.082207 0.452466
0.414929 -0.010853 -0.003212
-0.167576 -0.025340 0.107520
-0.267387 0.050437 -0.484918
0.220728 -0.122553 -0.034599
-0.235952 -0.085485 0.016987
0.109077 -0.040371 0.282220
0.036731 0.070393 -0.492451
-0.323806 -0.114814 -0.190760
0.285254 0.202307 0.284388
-0.300182 0.297164 -0.170516
0.219796 0.001329 -0.493971
0.194607 0.260460 -0.356155
0.235000 -0.029637 0.217315
-0.497969 0.077379 -0.293288
0.285165 -0.116949 -0.116187
0.145919 0.263490 -0.364172
0.211329 -0.055557 -0.369470
0.037112 0.349298 -0.114002
0.217524 0.118682 0.313447
-0.115864 0.260069 0.054106
0.175620 -0.070777 -0.348172
0.062089 -0.151258 -0.030221
0.360141 0.350057 0.115719
0.295782 -0.025838 -0.318233
-0.292801 0.105371 0.070432
0.053779 0.307872 -0.485650
-0.137626 0.126097 0.135044
-0.136912 0.350339 -0.380659
-0.277733 0.243146 0.002720
0.148515 0.131430 0.119775
0.408310 -0.043677 -0.073811
0.353260 -0.136359 0.373904
-0.004285 -0.241609 -0.246253
-0.144997 -0.180770 -0.084290
-0.217101 0.037892 -0.489744
0.391891 0.200159 -0.229442
0.020930 0.356643 -0.414581
0.376771 0.216671 -0.231640
-0.080507 0.359243 -0.088277
-0.198597 0.348417 -0.282912
0.133450 -0.145271 -0.122516
0.047403 0.270055 -0.487092
0.300086 0.041227 0.314454
0.209436 0.096530 0.331289
-0.101102 0.380527 -0.158182
0.245199 0.304115 -0.483821
-0.377616 0.139714 -0.064000
-0.130789 0.260087 0.046050
0.118573 0.300864 -0.486554
0.101088 0.079837 0.118914
0.290062 -0.166742 0.281701
0.013486 0.357950 -0.425657
0.452252 0.011438 0.119153
0.099851 0.211736 -0.490058
-0.292083 -0.046097 -0.459960
0.290894 -0.313600 0.315968
0.221108 0.297420 -0.191235
0.033212 -0.132327 0.444490
0.443456 0.186779 -0.108719
0.499417 0.161384 0.068829
0.366595 -0.085448 -0.098194
0.103168 -0.022582 -0.494756
0.483372 0.133533 0.215711
0.346391 0.273466 -0.042062
0.334364 0.065092 0.311119
-0.292846 -0.060380 0.000937
0.270882 0.103843 -0.354763
0.075631 0.049892 0.118574
0.016885 0.329884 -0.483812
0.027692 0.157587 -0.492361
0.023780 0.324677 -0.067506
0.367009 -0.278951 0.318495
0.413668 0.329855 0.040996
-0.164555 -0.086350 0.058045
0.327981 -0.070295 0.176132
-0.419212 0.088671 -0.233503
0.064890 0.060365 0.119885
-0.301529 0.111974 0.064213
-0.303750 0.213944 0.018407
0.240120 -0.074574 -0.304887
-0.101970 0.381467 -0.262988
0.079171 -0.183893 -0.409642
0.182934 0.095621 0.142010
0.289680 -0.233715 0.294816
0.033306 0.242907 0.046628
0.473484 0.259833 0.133217
0.180921 0.002959 0.229423
-0.264496 -0.121098 -0.076724
0.267249 0.036527 -0.493629
0.394861 0.299594 0.001450
-0.271253 0.220184 -0.472509
0.132896 -0.169756 -0.438120
-0.103078 0.248738 -0.486115
-0.337577 0.046916 0.024778
0.257323 -0.072920 -0.443738
-0.152629 0.343916 -0.079567
0.190713 -0.039359 0.272687
0.180629 0.273388 -0.028314
0.182770 0.277813 -0.298502
-0.045375 -0.226464 -0.276789
-0.059267 -0.220554 -0.114056
-0.162356 -0.086352 0.058737
-0.347120 0.017494 -0.000196
0.336903 0.145016 -0.460232
-0.016030 -0.043885 0.093904
0.376011 0.128464 0.298391
0.085322 -0.173024 -0.286744
-0.081162 0.097643 -0.492981
0.232841 0.208435 0.208034
0.009788 -0.090488 -0.492312
-0.315435 0.071404 -0.482354
-0.136816 0.064034 -0.488767
0.016903 -0.213780 -0.105018
-0.233959 -0.104008 -0.003846
-0.479288 0.127820 -0.254713
0.317525 0.299303 0.004863
-0.259172 0.315104 -0.296838
0.454164 0.299803 0.141217
0.082666 0.051679 0.121094
0.308338 -0.138593 0.232936
0.350164 -0.292274 0.437240
-0.230497 -0.115773 -0.025876
-0.131644 0.111931 0.140614
0.007672 -0.235087 -0.277596
0.011596 -0.057343 0.077443
0.373193 -0.061406 -0.041192
0.094171 0.091267 0.118759
0.140091 0.343202 -0.451042
0.013846 0.277590 0.003506
-0.429847 -0.023361 -0.286067
0.459396 0.125860 -0.041556
0.080098 -0.207134 -0.163288
-0.389434 0.054989 -0.075677
0.050221 -0.220966 -0.267681
-0.353518 -0.084779 -0.295706
-0.009075 -0.238458 -0.238760
0.036375 -0.008482 0.316928
-0.073714 -0.135416 -0.002292
0.343776 0.078435 0.307398
0.181880 -0.111496 -0.409878
0.320601 -0.107769 -0.163611
-0.213158 -0.108589 -0.004520
0.195733 0.149235 0.169135
0.078942 0.304770 -0.305613
0.378966 -0.021439 -0.249333
-0.151403 -0.087953 -0.490005
0.332844 0.123922 -0.314232
0.056568 0.081960 0.123681
0.420527 -0.011317 0.211664
0.009583 -0.172086 -0.056171
-0.055482 0.320746 -0.039074
0.330494 0.045720 -0.492544
-0.388726 0.193873 -0.234736
-0.246438 0.288523 -0.416329
0.192912 0.322821 -0.434754
0.313051 -0.203487 0.253342
0.364595 -0.075253 0.206206
0.267531 -0.080714 -0.471551
-0.038989 -0.196817 -0.391698
0.267552 -0.105039 -0.020127
-0.208954 -0.095994 0.025155
-0.075337 0.284517 0.017573
-0.122711 0.311313 -0.021497
0.057093 0.022955 0.119159
-0.010036 -0.160524 0.474128
-0.277817 -0.058234 0.023798
0.302179 0.137751 -0.410298
-0.179100 0.036230 0.130626
0.312515 -0.084521 0.201758
0.280438 0.237664 0.261212
0.116546 -0.141570 -0.053900
0.334880 -0.234045 0.247553
0.284237 -0.366194 0.398662
-0.090991 -0.213085 -0.303924
0.218772 0.011405 0.355976
0.015799 -0.136641 -0.009235
-0.036748 -0.161488 0.455475
0.352098 -0.070869 0.339741
0.330748 -0.052469 -0.260114
0.336960 -0.086492 0.345997
0.354127 -0.073013 0.341547
-0.448452 0.182265 -0.366811
0.397467 0.129428 0.297217
0.211241 0.007218 0.360013
0.224223 0.210943 0.161071
-0.022348 -0.074130 0.331437
-0.316978 0.173716 0.037248
0.238266 0.186891 0.259088
0.049259 0.049560 0.120794
0.464621 0.270096 0.158778
-0.053082 -0.160246 0.417348
0.103411 -0.182484 -0.177560
-0.006261 -0.065157 0.379712
0.303433 -0.378842 0.443789
0.076620 -0.088517 0.334652
0.161065 -0.108067 -0.245102
0.182873 0.053176 0.347434
-0.232670 0.163462 -0.488547
0.252460 0.209611 0.251159
-0.244890 0.298158 -0.061946
0.455292 0.022847 0.136068
-0.399955 0.027471 -0.120236
0.083791 0.001452 0.287935
0.289304 -0.206018 0.293986
0.019073 0.339231 -0.089153
0.424415 -0.012050 0.163141
-0.305172 0.288835 -0.116963
0.201793 -0.093909 -0.492346
-0.281634 -0.134562 -0.353382
0.163052 0.032791 0.365221
0.253376 -0.062203 -0.493118
0.478834 0.114134 0.236726
-0.377748 0.118371 -0.453156
0.106412 0.281862 -0.367547
-0.481257 0.028151 -0.318889
0.297769 0.254373 0.249538
0.088220 -0.191869 -0.451104
0.242521 0.250279 -0.327092
0.132619 -0.161591 -0.427743
0.114452 0.289960 -0.237408
0.397949 -0.190388 0.343991
0.316611 0.029998 -0.410074
0.303840 -0.324227 0.425585
-0.018348 -0.172046 0.465399
0.203034 0.258757 0.060186
0.112396 0.191479 -0.490449
0.049410 0.142000 -0.493211
-0.092360 -0.146792 -0.485386
-0.401458 0.053727 -0.123358
-0.324513 0.227475 -0.040267
0.165360 -0.086614 -0.493120
0.326100 0.209520 -0.472761
0.161863 0.055344 0.269217
0.296174 -0.227482 0.276071
-0.005801 -0.119091 -0.491851
0.182511 0.129726 0.135447
0.246635 0.268569 -0.487879
-0.295587 -0.123676 -0.124278
0.019821 0.152772 0.116975
0.010685 -0.242269 -0.165395
0.239462 0.205586 0.226835
0.053747 -0.091386 0.045141
-0.410549 0.008199 -0.415971
-0.240495 0.160710 0.098332
-0.228982 0.009259 -0.488935
0.217608 -0.009016 0.141883
0.111102 -0.025077 -0.494959
0.268702 0.299135 -0.156596
-0.056555 -0.183449 -0.063583
0.257008 0.053014 -0.367869
-0.214149 0.349068 -0.226052
0.478348 0.104403 0.020615
0.098411 -0.178746 -0.422091
-0.022623 -0.120129 0.437175
-0.174316 -0.006492 -0.488452
-0.236928 0.039778 -0.489691
-0.162991 0.227440 -0.485545
0.260634 0.229871 0.239294
0.344280 0.111930 0.302909
0.315956 -0.170261 0.240706
0.303929 0.064162 0.311776
0.291796 0.261350 0.216208
0.193800 -0.088883 -0.303126
0.439422 0.299529 0.016039
-0.021822 -0.096673 0.405138
0.062284 0.176438 0.098404
-0.154121 0.337832 -0.073587
-0.263357 -0.040318 0.048746
-0.048608 -0.156992 -0.480570
0.087179 0.300985 -0.065950
0.002477 -0.137042 0.489060
-0.248607 0.274943 -0.454453
-0.206038 -0.183739 -0.184088
0.404244 0.237264 -0.121510
-0.310994 -0.115442 -0.234741
0.266023 -0.102221 0.000432
0.272395 0.272062 0.055185
0.377730 -0.231797 0.296358
-0.496794 0.110317 -0.311513
0.388240 0.201525 0.283803
0.244130 0.174196 0.287947
0.394124 0.193812 0.281908
0.222450 -0.111818 -0.224710
-0.014424 0.382394 -0.200294
0.176717 -0.049400 0.347971
0.003416 -0.156342 0.455637
0.258446 0.241128 0.170031
0.135313 -0.100385 -0.365417
-0.300507 0.002545 0.052478
0.471181 0.233448 0.181058
-0.219838 -0.179145 -0.272577
-0.319093 0.204707 0.006519
0.340185 0.321208 0.013705
-0.116566 0.376623 -0.139394
-0.154802 0.126168 -0.488767
0.340792 0.127304 -0.307454
-0.089376 -0.193122 -0.374463
0.241716 0.286633 -0.239702
-0.023278 0.011206 0.125255
0.179093 0.258731 0.035588
-0.022132 -0.137644 0.462449
0.280174 -0.334151 0.355946
-0.081756 0.351971 -0.409625
-0.043859 0.189477 0.110393
0.379657 0.074328 0.306918
-0.343356 -0.069664 -0.083629
0.083323 0.032141 -0.492262
0.414844 0.166946 -0.216775
0.361461 -0.054109 0.017331
-0.182272 0.094673 0.131911
-0.047482 -0.123601 0.008963
0.479844 0.266559 0.031382
0.015377 0.278538 -0.486922
-0.138817 -0.206733 -0.127226
-0.130853 0.174098 -0.488483
0.193750 0.076882 0.321762
0.129765 0.199736 0.073486
0.134701 -0.076346 0.362851
0.387836 -0.294609 0.430299
-0.201131 0.281722 -0.003876
-0.031848 0.136682 -0.491479
-0.346570 -0.087997 -0.251134
-0.006396 -0.146045 -0.020799
0.293546 0.075202 -0.398880
0.329690 0.276977 -0.048203
0.267000 0.108914 -0.357107
-0.249607 0.267890 -0.460582
-0.177185 -0.159879 -0.414424
0.389338 -0.192682 0.316054
-0.326521 0.099458 -0.475624
0.165839 -0.051412 0.295848
0.447915 0.168142 -0.047388
-0.377315 -0.054629 -0.368941
-0.022244 0.053921 -0.493504
0.194376 -0.036302 -0.494266
-0.299821 0.294424 -0.208895
0.193527 0.118114 0.247016
-0.200667 -0.133781 -0.041846
-0.085763 0.186274 -0.489894
-0.337830 0.263665 -0.187272
0.074672 0.343159 -0.478614
-0.461897 0.064083 -0.237317
0.114900 -0.020002 -0.495089
-0.247796 0.275057 -0.023055
0.271443 0.090543 0.307296
0.114835 0.276623 -0.044677
0.427296 0.268556 0.222862
0.166119 -0.016941 -0.493129
0.327718 -0.011526 -0.446477
0.126060 -0.067186 0.410184
0.060135 -0.181351 -0.385377
0.459533 0.163448 -0.092575
-0.017454 0.157235 0.119871
0.316849 0.046029 -0.328488
0.073524 0.250674 0.020393
-0.309818 0.083711 0.056719
0.310134 -0.061269 -0.270041
-0.156599 0.372642 -0.223081
-0.063817 -0.233008 -0.149616
0.393220 -0.037943 0.045412
0.252499 -0.131799 -0.153613
0.180437 -0.107356 -0.254588
0.377581 -0.081857 -0.112285
0.183942 0.067020 0.226642
0.241179 0.115687 0.309870
0.153773 0.300429 -0.133691
-0.374809 0.234690 -0.359412
0.204397 0.093428 -0.494145
-0.006264 0.258435 0.040606
-0.364011 0.149759 -0.450235
-0.386078 0.146401 -0.079765
-0.319638 0.215501 -0.012573
-0.176759 0.001157 -0.489020
-0.389890 -0.017093 -0.410089
0.029196 0.186103 -0.492761
-0.273043 0.124931 0.088011
-0.104193 -0.197871 -0.358629
-0.410518 0.051009 -0.232503
-0.188372 -0.140285 -0.452997
0.265513 -0.127512 -0.122676
0.048016 -0.233479 -0.173394
0.402451 0.149739 0.291245
0.349479 0.007007 -0.484468
0.180534 0.245440 -0.490607
0.108574 0.005404 0.108827
0.230925 -0.082665 0.052515
0.387316 -0.135980 0.279618
0.222190 0.264932 -0.011867
-0.088992 -0.126343 -0.489269
-0.274366 0.015260 0.071330
0.389337 0.271715 0.242260
-0.149493 0.368814 -0.286798
0.359674 -0.038153 0.321714
0.192203 0.045944 0.361036
0.201211 -0.063171 0.092887
0.270828 -0.021495 -0.398949
0.062304 0.004980 0.302750
-0.030926 -0.186674 -0.422655
0.287958 0.268581 -0.247558
-0.354740 -0.041835 -0.064437
-0.069872 -0.208509 -0.099479
-0.203937 0.079036 0.125936
0.104522 -0.072590 0.426925
0.223183 0.276953 -0.283251
0.150007 -0.012334 0.249134
-0.303522 0.246286 -0.028981
0.097108 0.057886 0.119147
-0.043424 -0.188507 -0.410995
0.344580 -0.086459 -0.213371
0.202911 0.210496 0.124348
0.182465 0.091151 0.156675
0.291176 0.236623 -0.486128
0.127872 -0.137723 -0.394937
-0.303452 0.230391 -0.449302
0.286698 -0.064940 0.082380
0.048718 0.357224 -0.443030
-0.046645 0.381576 -0.164794
0.303979 0.321560 0.096419
0.270052 0.278084 0.079594
0.095871 0.023522 0.317813
0.347983 0.057183 0.314010
-0.386493 0.232822 -0.336696
-0.025749 -0.222521 -0.318955
-0.148970 0.283128 0.012709
0.273021 -0.090187 0.026534
0.306442 -0.293030 0.418599
0.110606 -0.021523 0.267812
0.373257 0.133747 -0.278118
0.021056 0.359796 -0.439890
0.092901 0.155398 -0.492743
0.261692 0.063210 -0.371347
0.274825 0.056984 0.313321
-0.170748 0.082305 0.133481
0.200319 -0.029651 0.348433
-0.430266 0.067420 -0.233558
0.486641 0.141547 0.165313
0.078976 -0.151995 -0.493612
0.290861 0.191990 -0.489379
0.283176 -0.064632 0.079871
-0.339022 0.210354 -0.040870
0.418659 -0.003332 0.257492
-0.385997 -0.017922 -0.180737
-0.102635 0.375242 -0.137024
0.354292 0.010330 -0.466821
-0.121739 -0.212753 -0.260240
0.141058 -0.065989 -0.493381
0.024633 -0.195641 -0.430516
0.390101 -0.248335 0.409131
0.282419 -0.032227 -0.413496
0.291037 -0.268207 0.305951
-0.354235 0.061444 0.000004
0.062126 -0.191157 -0.411937
-0.229089 0.294138 -0.037372
0.113736 0.171733 0.090762
0.371190 -0.274196 0.429440
-0.149786 0.087021 -0.490052
0.061677 -0.008910 0.110711
0.093850 -0.003587 0.399689
0.458429 0.283820 0.021723
0.111194 0.271813 -0.033571
0.173538 -0.152241 -0.464507
0.498014 0.168706 0.080818
0.382421 -0.063229 0.246814
0.061272 -0.062543 0.076040
0.495265 0.127364 0.107723
0.275715 0.208912 -0.490530
-0.406784 0.066958 -0.146573
0.300953 0.035198 0.316273
-0.237832 -0.171679 -0.289479
0.061339 -0.076020 0.054328
0.033807 -0.139428 -0.493122
0.220596 0.266377 -0.313803
0.272146 0.156886 0.293706
-0.108229 -0.202219 -0.337844
0.321659 0.283749 -0.186021
0.364753 -0.097422 0.351129
0.106619 0.346680 -0.467111
-0.355789 0.142242 -0.007019
0.099507 0.253214 0.000299
-0.112482 0.059991 -0.491997
0.400147 -0.241887 0.391654
0.422142 0.006536 0.254449
0.089960 0.267567 -0.013229
-0.498916 0.084489 -0.319723
0.296676 -0.112844 -0.088149
-0.220968 0.209639 -0.486560
0.033810 0.048262 0.122439
-0.368709 0.033455 -0.452230
0.244047 -0.058146 -0.411014
0.282809 0.270406 0.159780
0.236879 -0.021863 0.250943
0.116745 -0.027071 0.429106
-0.348965 0.251788 -0.239474
-0.153704 0.090872 -0.488372
0.490449 0.251079 0.074847
0.086144 0.249402 -0.488317
-0.394372 -0.034292 -0.380375
0.053012 -0.049486 0.461966
0.339020 -0.329518 0.451455
0.377205 -0.230520 0.294318
-0.044068 -0.123228 0.015124
0.466239 0.030011 0.104724
0.369359 -0.153522 0.251790
0.091044 -0.198903 -0.170055
0.464495 0.070591 -0.132448
-0.242445 0.123578 -0.487434
-0.366395 -0.063449 -0.155868
0.305402 0.149086 -0.414835
0.097026 -0.182370 -0.221747
-0.205025 0.174998 0.110767
-0.058425 0.296961 -0.488521
-0.252216 0.325568 -0.135603
0.200087 -0.096490 -0.272603
-0.187333 0.083556 -0.490512
