ply
format ascii 1.0
element vertex 1684
property float x
property float y
property float z
end_header
0.397395 0.131682 -0.253406
0.444865 0.138137 -0.178470
0.311186 0.001818 -0.493047
0.129277 -0.025299 -0.367576
-0.216020 0.008696 -0.487939
0.195769 0.128903 -0.009618
0.083438 0.132580 -0.234203
0.327295 -0.023006 -0.009604
-0.113135 -0.021939 -0.234203
0.125751 0.042362 -0.105418
0.183225 0.013379 0.244095
0.183225 0.047513 0.250116
0.224272 0.266169 0.055823
0.348171 -0.315366 0.318363
0.182387 -0.093846 -0.009618
-0.406955 0.114774 -0.178133
-0.122360 -0.081741 -0.489641
0.118472 -0.180147 -0.450503
0.462028 0.072056 0.243934
0.002733 0.343297 -0.088448
-0.392416 0.004142 -0.234206
0.485994 0.272139 0.085060
-0.103311 -0.062629 0.083016
0.365484 -0.219763 0.406186
0.129829 0.169082 -0.367576
-0.175531 0.176413 -0.487352
0.029051 0.250571 -0.367576
0.036686 -0.235568 -0.241106
-0.047314 -0.228100 -0.135074
0.414887 0.032475 -0.231018
-0.050343 0.098014 -0.367576
0.094203 -0.119791 -0.348850
-0.244188 -0.163865 -0.205420
-0.105634 -0.087556 -0.367576
0.392380 0.148592 0.138628
0.230059 -0.055001 -0.009604
-0.332857 -0.023282 -0.367576
0.297791 -0.088114 0.004509
0.014152 0.126723 -0.491428
0.255925 0.228223 0.166047
0.392232 -0.132767 0.334070
-0.368026 -0.042648 -0.234203
-0.186053 0.349878 -0.122135
0.342081 -0.355884 0.419675
-0.214464 0.254862 -0.234203
0.137112 -0.134770 -0.173011
-0.083582 0.005587 -0.234203
-0.117456 -0.206180 -0.234203
-0.345890 0.125394 -0.367576
-0.393672 0.076360 -0.367576
0.125751 0.007173 -0.079929
0.117419 -0.123605 -0.234203
0.290361 -0.353345 0.345167
-0.242517 0.065379 -0.367576
-0.166963 0.365936 -0.160262
-0.394817 -0.031199 -0.386805
0.072196 0.116284 0.115328
0.206661 0.240261 -0.364247
0.290381 -0.023629 0.138643
0.125751 0.209607 0.013789
-0.149451 -0.172244 -0.400806
0.125751 0.162695 0.018249
-0.083724 0.342747 -0.069002
-0.341160 -0.088530 -0.347450
0.249321 -0.017716 -0.009618
-0.104315 0.124411 -0.234203
0.062815 0.042494 0.118397
-0.166496 0.086584 -0.367576
-0.051266 -0.127728 -0.367576
0.024675 -0.187215 -0.077630
-0.385637 -0.035579 -0.239298
-0.078920 0.071729 -0.234203
0.125751 0.163085 -0.191673
0.165466 0.214192 0.085013
-0.018982 0.200173 -0.234203
0.120614 -0.105923 -0.273879
0.419998 -0.010478 0.223989
0.311118 0.039605 -0.009618
0.032535 0.006478 -0.492216
0.491630 0.228959 0.058255
-0.277519 0.199378 0.052538
-0.342139 -0.036685 -0.034516
-0.114759 -0.036652 0.103365
0.089798 -0.195277 -0.158185
0.189303 0.274831 -0.305360
0.122310 -0.076137 -0.234203
0.065578 0.319803 -0.263758
0.456983 0.092843 -0.160565
0.152644 0.103826 -0.367576
0.207091 0.117058 -0.009618
0.438939 0.066334 -0.202492
0.328462 -0.094695 0.248412
0.125751 0.166887 0.005851
0.289167 -0.204996 0.298758
0.321352 -0.045495 0.288970
0.307737 0.282719 -0.065148
0.071360 0.074155 -0.234203
-0.022728 -0.110974 -0.491557
0.381333 -0.074464 -0.162090
-0.013037 -0.096618 0.039455
0.381166 0.203065 0.138628
-0.230236 0.039012 -0.234203
-0.259207 -0.112323 -0.234203
-0.078189 0.095904 -0.234203
0.282054 0.128549 -0.491419
0.492498 0.226225 0.062663
-0.290459 0.259101 -0.038575
0.143144 0.233342 -0.489341
-0.158476 0.286195 -0.367576
-0.129272 0.285080 -0.367576
0.303135 -0.374168 0.444926
0.249593 0.203117 -0.383129
-0.042145 0.163888 0.120887
-0.034948 -0.200957 -0.088642
0.125751 0.052047 -0.120689
-0.200960 0.316931 -0.234203
-0.406150 0.051685 -0.435710
0.125751 0.044391 -0.029131
0.125751 0.009802 -0.171483
0.125690 -0.005583 -0.323520
0.125751 -0.084940 -0.065089
0.125751 -0.127177 -0.071270
-0.187120 0.300952 -0.367576
0.076984 -0.202191 -0.248607
0.376807 0.168180 0.138643
0.165001 0.284018 -0.255536
0.336078 -0.068083 0.005133
0.476337 0.068874 0.138628
-0.115545 0.357056 -0.234203
0.475804 0.107929 0.251356
0.101835 0.295305 -0.249564
0.211707 0.160902 -0.493117
0.082460 -0.173668 -0.234203
-0.350749 0.237118 -0.115383
0.097380 0.281976 -0.234203
0.297214 0.048144 -0.341270
-0.193313 0.024845 -0.234203
-0.008531 0.377804 -0.164752
0.026116 -0.025544 -0.367576
0.068367 0.318072 -0.263791
0.350721 0.266758 -0.181627
0.268639 0.250306 0.027309
-0.407054 0.055223 -0.367576
0.165532 -0.150865 -0.451791
0.488320 0.266970 0.055223
-0.015065 0.123125 -0.367576
0.083985 -0.187993 -0.256002
0.002592 -0.054951 -0.234203
0.255925 0.070458 0.286034
-0.371716 -0.000074 -0.055794
0.167394 -0.044162 -0.367576
0.334871 0.326278 0.021777
0.198047 0.106753 0.270961
-0.484487 0.151780 -0.288807
-0.018167 -0.098588 -0.234203
0.017059 0.013928 0.117190
0.125751 0.004734 -0.064645
0.236771 -0.104143 -0.473253
0.125751 0.184962 -0.141444
0.448073 0.024492 -0.074502
-0.097854 0.344206 -0.234203
0.393927 -0.229606 0.389769
-0.298546 0.167639 -0.367576
-0.040591 0.163602 -0.367576
0.183225 0.024185 0.276780
0.268639 0.082068 0.087516
0.451708 0.251394 0.210787
0.125751 -0.066384 -0.144439
-0.150343 0.086090 -0.234203
-0.233826 0.006646 -0.367576
0.075023 -0.061996 0.456262
0.437183 0.190561 -0.145675
0.025836 0.057231 -0.367576
-0.008118 -0.148966 0.390103
0.324109 0.276942 -0.193754
-0.366323 0.131670 -0.032772
0.060517 -0.100348 -0.234203
0.171599 0.014251 -0.367576
0.472991 0.244954 0.150438
0.204721 -0.020940 -0.367576
0.416418 0.020431 0.138643
0.268639 0.082870 0.016668
-0.222967 0.176916 -0.234203
-0.079143 -0.190245 -0.076568
0.061882 0.018442 0.114509
0.183225 -0.029293 0.288348
0.126858 0.025454 -0.367576
0.264159 0.094292 -0.357039
-0.048631 -0.180684 -0.061743
-0.229303 0.000208 -0.367576
0.031509 -0.107176 -0.367576
0.479115 0.221682 0.133612
-0.150280 0.348329 -0.367576
0.028179 -0.209957 -0.317386
0.125751 0.094119 -0.149742
0.285343 -0.275393 0.354100
-0.422952 0.099173 -0.429499
0.268639 0.142170 0.029442
-0.129882 0.209763 -0.367576
-0.353474 0.033411 -0.007502
-0.367709 -0.037400 -0.409547
0.404341 0.235824 -0.076016
-0.118083 0.009019 -0.367576
-0.004576 0.076092 -0.234203
0.360180 0.275613 0.242691
0.125751 -0.098445 -0.226317
0.125751 -0.016135 -0.151077
0.150770 -0.031887 -0.009604
-0.076524 -0.174909 -0.053881
-0.058427 0.127104 0.129796
0.284093 0.063537 -0.348939
0.180594 -0.078454 -0.320283
0.305652 0.039194 0.138628
-0.336404 0.257422 -0.120456
0.125751 0.138411 -0.185866
0.251009 0.146520 0.293834
-0.409007 0.070102 -0.172514
0.171348 0.154661 -0.367576
0.218926 0.167453 -0.492719
0.448516 0.270388 0.195954
0.158350 0.019301 -0.009604
-0.228268 0.307526 -0.367576
0.019601 -0.083620 -0.367576
0.304332 0.005668 -0.493148
0.245538 0.207432 -0.381132
0.343306 -0.045495 0.149130
0.125751 -0.112331 -0.196030
-0.386938 0.181198 -0.230469
0.096022 -0.047919 -0.492995
0.337345 0.087479 -0.009618
0.000785 0.215182 -0.367576
0.156140 0.017669 -0.009604
-0.272278 0.086453 0.086640
-0.324507 0.024243 0.031097
-0.250647 0.128464 -0.367576
0.373495 0.060708 0.306617
-0.303553 -0.028962 0.025260
0.268639 -0.021854 0.035181
-0.152161 0.124081 -0.234203
-0.168273 0.357195 -0.125374
0.268603 0.004402 0.124913
0.183090 0.193176 -0.009604
0.268639 0.080016 0.121774
0.050928 -0.110224 0.359616
0.009060 0.325521 -0.234203
0.296808 -0.017563 0.138643
-0.080176 -0.117827 -0.234203
-0.456750 0.043952 -0.394175
0.268603 0.131058 0.027075
0.288242 -0.364004 0.356525
-0.208387 -0.105657 -0.234203
-0.346004 -0.014532 -0.367576
-0.385457 0.032963 -0.072035
0.046482 -0.004793 0.321874
0.463213 0.104681 -0.053898
-0.386407 0.047838 -0.367576
-0.277361 -0.106068 -0.409461
0.125751 0.167084 -0.275081
0.268639 0.085284 0.036208
0.083891 -0.040863 0.289367
-0.057484 0.298350 -0.367576
0.392293 0.025053 -0.009618
-0.131461 0.335123 -0.367576
-0.285836 -0.002714 0.056413
0.125751 0.170904 -0.138918
0.282129 -0.020158 0.293132
-0.317027 0.242005 -0.234203
0.365997 0.285280 -0.001967
0.067360 -0.124656 -0.234203
0.248714 -0.016517 -0.370012
0.378838 -0.117089 0.348991
0.434566 0.330977 0.088970
-0.173339 0.333762 -0.367576
0.113164 0.191185 0.075393
-0.420827 -0.013039 -0.383476
-0.145951 0.008709 -0.489661
-0.214961 0.280792 -0.234203
-0.232365 -0.084840 -0.367576
0.067788 0.250173 -0.234203
-0.290090 0.262401 -0.044277
0.402718 0.033624 0.299911
0.173424 0.014848 -0.367576
0.125751 0.142641 0.055148
0.387534 -0.283799 0.378670
0.212312 0.060387 -0.009618
0.125751 0.152538 -0.184816
0.297305 0.128479 -0.490572
0.056059 0.204111 -0.367576
-0.170445 -0.008970 0.113615
-0.071104 0.158280 -0.234203
-0.057046 0.041453 -0.234203
0.125751 0.058167 -0.052212
0.362339 0.191012 0.138628
0.210944 -0.005265 -0.367576
-0.469101 0.028414 -0.360881
0.125751 0.239702 -0.137773
0.401997 -0.017308 0.285392
-0.143574 0.185653 0.118030
0.015023 -0.197896 -0.387796
0.063378 -0.178054 -0.484290
0.082686 0.187214 -0.234203
-0.092992 -0.193144 -0.234203
0.125751 0.161616 -0.099630
-0.207588 -0.146351 -0.367576
0.111371 0.083831 -0.367576
-0.185644 0.008965 -0.488730
0.255925 0.027021 0.220273
-0.400928 0.023202 -0.185025
0.131542 -0.182149 -0.473132
0.268603 0.142275 0.011881
-0.482033 0.153239 -0.333743
-0.007855 -0.080062 0.056992
-0.113279 0.018356 0.129480
-0.223951 -0.073266 -0.234203
0.497976 0.154023 0.102261
-0.186136 -0.059344 -0.367576
-0.092276 -0.047038 -0.367576
-0.011924 0.326594 -0.234203
0.063396 -0.114533 0.392829
0.047294 0.288303 -0.028652
0.255925 0.092319 0.139313
0.283807 -0.357374 0.379890
0.125751 0.095562 -0.095680
-0.263111 -0.148171 -0.351380
-0.285621 0.160610 -0.234203
0.424289 -0.007880 0.138628
-0.282694 -0.106585 -0.234203
0.364999 -0.094695 0.261781
0.090496 -0.188390 -0.128189
-0.077146 0.329886 -0.461737
0.169679 0.193417 0.107779
0.183225 -0.004403 0.340062
0.048396 -0.070631 0.062197
-0.498606 0.075290 -0.301528
-0.402276 0.107449 -0.144945
0.453461 0.287583 0.138643
0.028877 -0.147262 -0.367576
0.273336 0.170047 -0.341875
-0.149374 0.231374 -0.234203
0.116471 0.159640 -0.367576
-0.305835 0.179697 -0.466597
-0.111389 0.072635 -0.234203
-0.203507 0.139675 -0.234203
0.125751 0.128443 -0.046502
-0.235839 0.318683 -0.341278
-0.371825 0.204511 -0.134560
0.347830 0.288410 0.138628
0.378549 -0.318619 0.442098
0.353483 -0.195979 0.396020
0.424203 0.337531 0.134261
-0.045664 0.106510 -0.367576
0.236482 0.243488 -0.009604
0.320569 0.249356 0.260966
-0.266336 0.246763 -0.367576
0.096170 0.293993 -0.292381
0.229047 0.208149 -0.490609
0.125751 0.174214 0.063568
-0.409103 -0.028155 -0.367576
-0.248727 -0.160307 -0.333450
0.075477 0.084551 0.118422
0.212306 0.264625 0.040369
-0.411295 -0.035948 -0.284981
-0.389175 0.072262 -0.234203
0.284895 -0.116980 -0.103615
-0.127599 -0.093396 -0.367576
0.433780 0.316562 0.157043
-0.404539 0.043956 -0.234203
-0.078253 -0.008199 -0.234203
0.229450 0.061635 -0.009604
0.379586 0.197682 0.138643
-0.036216 -0.105611 -0.491305
0.125751 -0.004824 -0.066195
-0.163627 -0.073268 -0.367576
0.125751 0.023994 -0.104192
-0.196293 0.009196 0.114352
-0.381028 0.193302 -0.154970
0.188309 0.080513 -0.493985
-0.123336 0.131795 0.135050
-0.294422 0.132884 0.065548
0.214473 0.071559 -0.494008
-0.180567 0.334440 -0.367576
0.350302 -0.226487 0.248890
0.362645 0.189195 0.138643
0.223988 0.114919 -0.009604
0.306177 0.295814 0.007788
0.082692 -0.023891 0.409544
-0.116316 0.240370 -0.486817
0.294136 -0.029025 -0.430256
-0.452892 -0.000823 -0.300837
0.274652 0.266010 -0.261756
0.153172 0.039618 0.333502
-0.255079 -0.152209 -0.151915
0.197913 0.294598 -0.198245
0.386451 -0.001890 -0.009604
0.125333 0.290332 -0.165640
0.373548 0.082203 0.303635
-0.108940 0.085670 -0.234203
-0.137921 -0.094892 0.051465
0.125751 -0.082936 0.022308
-0.186624 -0.119901 -0.008253
0.068796 0.312777 -0.484711
0.255925 0.023950 0.159377
0.175757 0.239691 -0.367576
0.186373 0.027970 -0.493737
0.249205 0.093742 0.308259
0.425011 -0.007067 0.023379
0.163311 0.002217 -0.367576
-0.146886 0.236829 -0.234203
0.040106 -0.233573 -0.234203
0.233491 0.171424 0.261364
0.453044 0.187290 0.255756
0.125403 0.134069 -0.234203
-0.448001 0.007260 -0.269049
-0.382308 0.238784 -0.303858
0.353507 0.064107 -0.300647
0.395514 0.150322 0.138643
0.125751 0.125811 -0.117320
0.125751 0.275434 -0.075807
-0.144813 0.373092 -0.238683
0.343470 -0.094695 0.272260
-0.156735 0.209362 -0.234203
0.153273 0.279296 -0.281382
0.287803 -0.063550 -0.480783
-0.413370 0.043636 -0.367576
-0.261288 -0.128865 -0.089734
-0.376863 0.155460 -0.234203
0.005164 -0.038200 -0.234203
-0.125404 0.230661 -0.367576
0.125751 0.026594 -0.112170
0.268639 0.218891 0.088002
-0.152402 0.307467 -0.030174
0.117524 0.188684 0.076275
0.125751 -0.112984 -0.043460
0.203733 0.272430 -0.029425
-0.150367 0.314398 -0.234203
0.255925 0.040231 0.173700
0.212154 0.153825 0.225228
-0.088531 -0.076969 -0.367576
0.007306 0.359869 -0.234203
0.268639 0.220456 0.068899
0.274951 0.254861 0.138643
0.197483 0.190455 -0.009604
0.086766 0.039353 -0.234203
0.125751 0.005134 0.051801
0.439219 0.124685 0.279382
0.374316 -0.182313 0.385408
0.470429 0.093748 0.250890
-0.061115 0.226135 -0.367576
0.125751 0.085927 -0.253869
-0.062548 0.180857 -0.367576
-0.013917 0.221115 -0.234203
-0.199049 0.284644 -0.476664
0.125751 -0.049022 -0.219251
0.155934 -0.097151 0.028505
0.262984 0.009807 -0.363231
0.255925 0.061435 0.173342
0.280609 0.132168 -0.394922
0.463285 0.120730 -0.054633
-0.008640 -0.112229 0.460983
0.255925 0.146255 0.166560
-0.058058 0.383865 -0.198549
0.082460 -0.103654 -0.367576
0.106885 0.239000 -0.234203
0.125751 0.215356 -0.047362
0.172650 0.213850 -0.490387
0.016236 -0.124541 0.362193
0.215027 -0.046813 -0.369398
0.053767 -0.014868 0.298502
-0.084530 0.050290 -0.490803
0.326755 -0.105052 -0.149929
0.116980 -0.143977 -0.070717
0.337276 -0.023468 -0.282118
0.304122 0.104370 -0.009604
0.030637 0.268707 -0.367576
-0.253406 0.180574 -0.234203
-0.191095 -0.182685 -0.129381
-0.100386 0.304721 -0.482556
-0.230845 0.148211 -0.367576
0.284621 -0.295262 0.355943
0.023592 -0.241270 -0.214980
0.082692 -0.068002 0.398695
-0.163187 0.268190 -0.234203
0.133534 0.248834 -0.009618
0.130620 -0.104653 -0.252067
0.258394 0.004964 -0.009604
0.332663 0.193541 -0.009618
0.125751 0.032974 -0.131617
0.221174 0.167685 -0.009604
0.002759 -0.216597 -0.112275
0.386310 0.070317 -0.269945
-0.147549 -0.171045 -0.367576
0.125751 0.083923 -0.047532
0.145412 -0.099645 -0.009618
-0.076628 -0.149533 -0.019801
-0.277279 0.026901 -0.234203
0.255925 0.201838 0.225076
-0.306567 0.214785 -0.234203
0.256092 0.145094 0.138643
0.295370 -0.060397 -0.282967
-0.075125 0.095658 -0.234203
0.314786 -0.126657 0.347350
-0.172045 -0.157269 -0.422166
0.202001 -0.054916 0.097793
0.084383 -0.141892 -0.338100
-0.026047 0.312298 -0.367576
0.420961 -0.032284 -0.096368
0.411777 0.053595 0.138643
0.268639 0.150550 0.081657
0.423552 -0.000093 0.235565
0.331639 -0.168297 0.235522
-0.123439 0.056443 -0.234203
-0.061689 0.109023 -0.234203
-0.055266 0.176927 -0.234203
0.043729 0.209371 -0.367576
0.048609 -0.203943 -0.301340
-0.402454 0.200105 -0.243608
0.039986 0.225677 -0.489209
0.328606 0.298942 0.138643
0.453564 0.029459 -0.143746
0.022604 0.171661 -0.490478
-0.280932 0.244636 -0.234203
0.386312 0.034716 -0.009618
-0.241233 -0.125853 -0.234203
0.458333 0.111650 0.138628
-0.347634 -0.035383 -0.043930
0.415894 0.164788 -0.009618
-0.392397 0.053823 -0.084245
-0.132233 -0.011093 -0.367576
0.042602 0.334237 -0.390531
0.428906 0.004464 0.223590
0.183225 0.009711 0.314411
0.370028 0.266400 -0.136630
-0.388099 0.035123 -0.078128
0.365848 -0.156452 0.376798
0.497776 0.139881 0.070644
-0.114102 -0.040281 -0.234203
-0.419869 0.213262 -0.327448
-0.093640 0.219316 -0.234203
-0.261471 0.321537 -0.163098
-0.385325 0.145417 -0.440574
0.109172 -0.171181 -0.154622
0.392902 -0.204394 0.335416
-0.476709 0.157106 -0.348652
0.152275 -0.084792 -0.367576
0.125751 0.106725 0.017408
0.351962 -0.045495 0.211036
0.326376 0.101750 0.138628
-0.064090 -0.228339 -0.239693
-0.025262 -0.073643 0.065396
-0.492251 0.114206 -0.338451
0.285404 -0.340040 0.358439
0.125751 0.068342 -0.231825
0.197479 0.284661 -0.255341
-0.086682 -0.010455 -0.490791
0.026417 0.136140 -0.367576
0.479073 0.175035 0.196055
-0.297051 0.106293 -0.234203
-0.011981 -0.142641 -0.367576
-0.280565 -0.100413 -0.415124
-0.375228 -0.046466 -0.141342
0.007040 0.073293 -0.367576
0.299558 -0.377040 0.438193
0.285357 -0.364696 0.403108
-0.071162 -0.202544 -0.093644
-0.324484 -0.099344 -0.116831
-0.196792 0.090301 -0.367576
0.183225 -0.020994 0.272126
0.125751 0.059796 -0.099155
0.293288 -0.191461 0.349264
0.025450 0.367755 -0.150069
-0.335531 0.099406 -0.234203
-0.291398 0.251626 -0.367576
0.111590 -0.160283 -0.492516
0.486020 0.210816 0.039480
0.004948 -0.053499 0.084364
0.136237 0.068860 -0.009618
-0.028723 0.106295 0.128241
-0.060318 0.177825 0.119334
0.423433 -0.010226 0.190244
0.246332 0.206577 -0.381522
0.263555 -0.029158 -0.009618
0.106543 -0.048428 -0.234203
-0.323628 -0.082796 -0.367576
-0.201374 0.315390 -0.401528
-0.162864 0.090445 -0.234203
0.159681 -0.080978 -0.315858
0.003976 -0.149585 -0.234203
0.427076 0.039741 -0.216800
0.322619 0.257930 0.138643
-0.410108 -0.029674 -0.366194
0.043804 0.149558 -0.234203
0.194050 -0.005667 0.129420
-0.201672 0.179672 -0.234203
0.395106 0.063264 0.138628
0.295496 0.283082 -0.063198
-0.163721 0.193042 0.112246
-0.114267 0.097794 -0.367576
0.027962 -0.239812 -0.234893
-0.028617 0.149432 -0.234203
-0.209154 -0.050212 -0.487181
0.003592 0.174941 -0.234203
-0.154648 0.016696 -0.234203
0.183225 -0.007240 0.251760
0.016461 -0.208583 -0.333650
0.449309 0.287709 0.138628
0.334384 -0.250221 0.255798
-0.225400 0.091947 -0.487678
0.220820 -0.066946 -0.400824
0.434467 0.325609 0.060424
-0.276043 0.281182 -0.061925
0.248155 0.145766 -0.375189
0.161192 0.292362 -0.190454
0.427551 0.291036 0.197781
-0.007250 0.240733 -0.488175
0.125751 -0.072198 -0.106310
0.018050 0.233808 -0.367576
0.205733 -0.028617 0.217869
0.255925 0.083644 0.199070
-0.027463 0.128208 -0.490787
0.123897 -0.027097 -0.234203
0.109923 -0.087778 0.385829
-0.018008 0.092497 -0.234203
0.221778 0.129910 0.304109
0.352051 -0.027205 0.321736
0.125751 -0.016182 -0.110153
0.100678 0.203940 -0.367576
0.268603 0.185875 0.057742
0.290764 0.261671 -0.421532
-0.242448 -0.155889 -0.367576
-0.140566 0.032210 -0.367576
-0.276273 0.000442 -0.234203
0.322469 -0.336514 0.302158
0.275597 0.300223 -0.145202
0.380630 0.012346 -0.260689
-0.078338 0.312203 -0.234203
-0.332412 0.155888 -0.367576
0.125751 0.194695 -0.033037
0.268945 0.083879 0.138628
-0.092718 0.275485 -0.486062
-0.103558 0.354592 -0.088793
-0.131441 0.311809 -0.468327
0.139334 0.070733 0.119225
0.348641 0.278638 -0.112243
0.125751 -0.122397 -0.166442
0.304314 0.291020 -0.177625
0.417893 0.078286 -0.009618
0.254272 -0.128441 -0.108830
-0.067080 -0.197724 -0.367576
0.320054 0.148347 -0.430648
-0.033347 -0.157936 0.458205
-0.339814 0.039669 -0.367576
-0.105076 0.092885 -0.367576
-0.038972 -0.188389 -0.072356
0.127314 0.152793 -0.009604
-0.271126 -0.106236 -0.417281
-0.139907 0.218940 -0.367576
0.050562 -0.105705 -0.234203
0.213583 0.317110 -0.473220
0.291240 0.072259 0.138643
-0.130689 0.369470 -0.131605
0.183225 -0.016209 0.277556
0.026148 0.272121 0.002567
0.358422 0.067101 0.138628
-0.088196 -0.222102 -0.246669
0.325580 -0.045500 0.307468
0.203294 0.266865 -0.325091
-0.264761 -0.083061 -0.234203
-0.080134 0.022664 0.127746
-0.180439 -0.077441 -0.488452
0.212880 0.110876 0.312016
0.345724 -0.094695 0.260459
-0.154009 -0.145177 -0.234203
-0.303483 -0.114148 -0.118783
0.334269 -0.045500 0.268188
0.125751 0.267622 -0.100738
-0.194471 0.174005 0.114465
-0.020280 0.010772 -0.367576
0.254437 0.167270 -0.354315
-0.261741 -0.148536 -0.153307
0.125751 0.039287 -0.275656
0.111225 0.256527 -0.488094
0.312158 -0.105624 -0.197486
0.193477 0.198983 -0.009618
0.125751 -0.038369 -0.183045
0.188833 -0.035922 -0.367576
0.268603 -0.057056 0.054920
0.029540 0.119482 -0.367576
-0.228035 0.025975 0.106855
-0.272487 0.306906 -0.118578
0.107601 0.181323 -0.491420
-0.113201 -0.189625 -0.373394
0.125690 0.134246 -0.307862
-0.319133 -0.113882 -0.205886
0.289735 0.234994 -0.009604
0.444958 0.160349 -0.006511
0.441529 -0.007429 0.105650
0.138021 0.240647 -0.009604
0.125751 -0.043993 -0.199102
0.255925 0.196211 0.265794
-0.214011 -0.011430 -0.234203
0.125751 -0.039868 -0.025350
-0.185093 0.034056 -0.234203
0.125751 0.268075 -0.277015
-0.240576 -0.102197 -0.457339
-0.238089 0.126967 -0.486558
-0.166286 0.225612 -0.234203
0.167940 0.158349 -0.492862
0.183225 0.051163 0.216538
0.312166 -0.251234 0.271106
0.138352 -0.064854 0.310856
0.268603 0.224076 0.018346
-0.179014 0.353659 -0.125074
-0.443545 0.047231 -0.406695
-0.179844 0.078329 -0.367576
-0.002850 -0.121721 -0.367576
0.268603 0.058660 0.013051
0.258003 0.197601 0.138643
0.086996 0.305920 -0.234203
-0.051797 0.134918 -0.234203
0.125751 -0.058284 -0.283383
0.203791 -0.063007 -0.009604
-0.128851 0.210337 -0.367576
-0.341025 0.258881 -0.246135
0.180475 -0.138551 -0.105925
-0.382220 0.165731 -0.091366
-0.102753 -0.160233 -0.035983
-0.349578 0.174250 -0.448819
0.125751 0.007401 -0.159096
0.307596 -0.038229 -0.490555
-0.282089 -0.140291 -0.179209
-0.247198 0.256881 -0.367576
-0.152606 -0.203202 -0.147093
0.045240 0.310478 -0.342367
0.244950 -0.051031 -0.009604
0.315058 0.209529 0.138628
-0.251956 -0.136969 -0.097136
0.183225 0.035094 0.206854
0.143485 -0.116334 -0.009781
-0.295154 0.088116 -0.483332
-0.046673 0.308722 -0.234203
-0.169578 0.362179 -0.139281
-0.292043 -0.011902 -0.367576
0.213623 0.034746 -0.009604
0.009299 -0.197240 -0.374330
0.299424 0.075191 0.309254
0.257169 0.099809 -0.009604
0.291413 0.089296 -0.399373
0.160488 0.179690 -0.367576
0.170751 0.082819 -0.367576
0.133761 0.039120 0.288381
0.045772 -0.175836 -0.482267
-0.132235 0.095545 -0.234203
0.012246 -0.085207 -0.234203
0.270580 0.052112 -0.009618
-0.331330 -0.099912 -0.207743
0.452881 0.075555 -0.030603
0.224249 0.288764 -0.486201
0.268603 0.221377 0.053889
-0.355458 0.009429 -0.234203
0.125751 -0.025450 0.042591
0.036344 -0.161612 -0.491306
0.268639 0.127469 0.113699
0.293652 -0.256525 0.300469
0.183225 0.022652 0.342762
0.487142 0.273010 0.072624
-0.339467 -0.020597 -0.367576
-0.378218 -0.005885 -0.367576
0.255925 0.034255 0.303737
-0.233365 -0.099236 -0.465763
0.264891 -0.126284 -0.148085
0.352524 -0.057455 0.330532
0.100724 -0.127458 -0.367576
0.125751 0.175993 -0.001103
-0.119167 0.199998 -0.367576
0.312762 0.038661 -0.328582
0.125751 -0.007289 -0.150864
-0.206347 -0.015583 -0.234203
-0.205471 -0.015699 -0.367576
-0.124202 0.227742 -0.367576
0.244830 0.102527 -0.494103
-0.214940 -0.158370 -0.367576
0.298731 0.297086 0.116118
-0.083979 -0.215386 -0.234203
-0.327800 -0.085528 -0.234203
0.047640 -0.019005 0.104199
0.284795 -0.377867 0.374211
0.125751 0.173906 -0.231024
0.228585 0.281005 -0.401093
0.004617 0.281199 -0.367576
0.301764 0.002228 -0.326822
0.242844 -0.008605 0.138643
0.289330 0.248816 -0.279358
0.124355 -0.144901 -0.114487
0.165446 -0.037829 -0.367576
0.445359 0.229999 0.138643
0.268603 -0.013386 -0.005918
-0.060934 0.047250 -0.234203
0.104503 0.342217 -0.437848
0.133554 0.052170 0.116409
0.353287 0.279281 0.237573
0.486529 0.094128 0.037698
-0.147545 0.248419 -0.367576
-0.277394 0.182029 0.065041
-0.136274 -0.200419 -0.118163
0.125751 0.134333 0.054206
-0.363696 0.148181 -0.032988
0.090582 -0.174345 -0.234203
0.255925 0.091219 0.207336
-0.008324 -0.061920 0.326404
-0.227424 0.061528 -0.367576
-0.223920 0.206440 0.082669
-0.192749 -0.014916 -0.367576
0.066279 0.132420 0.112896
0.287578 -0.040009 0.136674
0.275270 0.079611 -0.385565
0.191077 0.256999 0.047749
-0.245374 -0.165881 -0.291719
0.125751 -0.027228 0.001349
-0.332430 -0.058110 -0.419277
-0.087979 0.338362 -0.434830
0.090043 -0.194502 -0.155709
0.268639 -0.052516 0.026328
0.343505 0.313229 0.177790
-0.463032 0.025229 -0.266076
0.255344 -0.014893 0.201306
-0.034611 0.357543 -0.324313
0.347857 -0.017139 0.138643
0.319182 -0.100020 -0.070956
0.005478 0.170572 0.110433
0.293263 -0.386443 0.398709
0.459388 0.311371 0.090459
0.268603 0.181093 0.133487
-0.215045 0.038739 0.115306
0.082692 -0.068339 0.330140
0.206795 -0.021647 -0.009604
0.125690 -0.028610 -0.302561
-0.006670 0.364887 -0.247291
-0.172956 0.205089 -0.367576
0.010535 0.044301 -0.367576
0.125751 0.224585 -0.111762
0.013798 -0.204251 -0.344482
0.125690 -0.003966 -0.285141
-0.179982 0.121597 -0.488388
-0.124654 0.369654 -0.234203
-0.009850 -0.181249 -0.066380
-0.124181 0.049608 -0.490338
-0.267044 -0.059194 -0.367576
-0.147456 -0.160668 -0.429607
0.317822 -0.173238 0.242214
0.170404 0.125852 -0.493722
-0.093850 0.039735 -0.490702
-0.246166 -0.047340 -0.367576
0.061665 -0.226803 -0.207395
0.304245 -0.004186 -0.009604
-0.341676 0.183589 -0.234203
0.262316 0.267053 0.045802
0.254824 0.040132 -0.009618
0.151687 0.254985 -0.009618
0.465580 0.081471 -0.096617
0.112150 0.012351 0.371071
0.125751 0.279054 -0.141964
0.157742 0.293031 -0.181153
-0.480158 0.121927 -0.368362
-0.088093 0.338418 -0.234203
-0.316999 0.029338 -0.472121
0.338806 0.013122 -0.490898
-0.319733 -0.111676 -0.153724
0.396270 0.144409 -0.009618
0.464022 0.087983 0.007543
0.016903 -0.149646 -0.234203
0.268603 -0.040485 0.088977
0.125751 0.109832 -0.063298
-0.368136 0.217780 -0.167460
0.460933 0.218532 0.010393
0.202918 0.177415 0.138628
-0.226684 -0.038409 -0.234203
-0.216708 0.011262 -0.234203
-0.032656 -0.129131 -0.367576
0.383325 -0.227926 0.318670
0.163020 0.324697 -0.430905
-0.260595 0.316314 -0.129873
-0.401081 0.133377 -0.157979
0.049430 0.104798 -0.234203
0.272101 0.227671 -0.488427
0.142677 -0.038828 -0.493321
0.241493 0.196488 0.238637
0.125751 0.130408 -0.200628
0.125751 0.123345 -0.082143
0.316836 -0.063448 0.168372
0.358298 0.333746 0.148225
0.024418 -0.240740 -0.181328
-0.297486 0.290253 -0.237818
-0.226623 0.005956 -0.487650
-0.056934 0.195638 -0.234203
0.252631 0.193870 0.138628
-0.166867 0.338540 -0.085683
0.144338 -0.068068 -0.347399
-0.266518 -0.054278 -0.367576
-0.383480 -0.012501 -0.367576
-0.142737 -0.076109 -0.367576
0.164753 0.328796 -0.441213
0.284475 -0.311346 0.354943
0.385574 -0.176133 0.372325
0.036448 0.235982 -0.234203
-0.132133 0.316655 -0.456554
0.053716 -0.098816 -0.234203
-0.387696 0.088747 -0.072066
-0.075294 0.020649 -0.367576
-0.124912 -0.219274 -0.189911
0.268603 0.237340 0.040198
-0.291018 0.134571 -0.367576
0.106459 0.260513 -0.487879
0.268875 0.298855 -0.162620
-0.050547 -0.002123 -0.367576
0.125751 0.214954 -0.065721
0.074836 -0.025529 0.428216
0.125751 0.200141 -0.170339
-0.180290 -0.121223 -0.006161
0.297754 -0.050341 0.119251
0.108265 -0.100388 -0.342119
0.041987 0.162970 -0.490967
0.026014 -0.113607 -0.234203
0.380494 -0.154470 0.366830
-0.044716 0.161387 -0.367576
-0.308616 0.207392 -0.234203
-0.370248 -0.010207 -0.234203
0.095947 0.209652 -0.234203
0.125751 -0.104081 -0.077851
0.227165 -0.068883 -0.009604
-0.406767 0.175319 -0.367576
0.268603 -0.060653 0.066071
0.125751 -0.074722 -0.215699
0.383756 -0.070533 0.260731
0.169444 0.152312 0.125154
-0.157780 -0.117174 -0.367576
0.194659 -0.076760 -0.493051
0.319566 0.066869 -0.009604
0.268639 0.117173 0.131644
0.032715 0.368365 -0.165793
-0.180680 -0.138794 -0.367576
0.181566 0.187700 -0.367576
-0.319750 0.146820 -0.234203
0.049305 -0.040622 0.426536
0.125751 0.080302 -0.084399
0.125751 -0.116389 -0.097605
-0.184429 0.294735 -0.367576
0.255925 0.085248 0.173222
0.356100 0.274868 -0.102600
0.361591 -0.045500 0.204280
0.031519 0.335278 -0.387345
-0.015650 -0.110188 0.023413
-0.061220 0.358516 -0.234203
0.334783 0.317311 0.151927
0.023323 -0.197716 -0.413027
-0.020401 0.381535 -0.191775
0.376806 0.216505 0.138643
0.354388 -0.294281 0.302809
0.236737 0.009750 0.138643
-0.133163 -0.080258 0.066154
0.218035 0.235351 0.110161
-0.202725 0.247417 -0.484646
0.246583 -0.058100 -0.325820
-0.185166 -0.022765 -0.367576
-0.016268 -0.138572 -0.234203
-0.418082 0.167644 -0.367576
-0.017607 0.020512 -0.234203
-0.216402 -0.158174 -0.387436
0.167523 -0.019223 0.394617
0.125751 0.187989 -0.343207
0.246659 0.024698 0.138643
0.283256 0.029612 -0.009604
0.268639 -0.006805 0.095610
-0.307875 0.232457 -0.234203
0.255925 0.086674 0.151739
-0.069056 -0.168686 -0.367576
-0.102243 0.122936 0.134751
-0.313174 -0.101362 -0.234203
-0.279785 0.308623 -0.157389
-0.105716 -0.171579 -0.234203
0.125751 -0.073109 0.014710
-0.290764 0.093899 -0.234203
-0.117546 -0.142691 -0.012522
-0.006034 0.097821 0.126404
0.117426 -0.040557 -0.493223
0.343013 0.178950 0.292008
-0.005056 0.183828 -0.489785
0.125751 0.206252 -0.002235
0.294881 -0.004203 -0.330106
0.125751 0.116779 -0.106935
-0.151986 -0.197037 -0.309325
0.008269 -0.092767 0.041731
0.296523 0.020516 -0.493276
0.225068 0.031807 0.342337
0.125751 0.029295 -0.042105
-0.168315 0.362818 -0.273451
-0.033821 0.076705 0.129495
0.125751 0.145217 -0.226404
0.268639 0.101971 0.063309
0.048888 -0.076343 -0.367576
-0.173989 0.009563 -0.234203
-0.036764 0.201530 -0.234203
-0.115398 -0.206479 -0.311766
0.298735 -0.052915 -0.473027
0.294972 -0.097773 0.303364
-0.015109 -0.240641 -0.208526
-0.042055 0.057290 0.129537
0.135650 0.279616 -0.486803
0.125751 0.087351 -0.086324
-0.274895 -0.147253 -0.207888
0.082692 -0.078742 0.326911
-0.161825 0.028488 -0.489442
0.027567 0.057500 -0.234203
-0.217037 0.107766 -0.367576
0.125751 -0.065939 0.010119
0.171337 0.008230 -0.009618
-0.016168 0.333023 -0.479281
0.180762 0.324247 -0.474662
-0.068191 0.298838 -0.234203
0.271016 0.263417 0.005358
-0.395311 0.121256 -0.234203
-0.479601 0.036144 -0.340615
0.078782 0.210630 -0.367576
0.192519 0.136141 0.177919
0.299022 0.214762 -0.009604
-0.174205 -0.065097 -0.367576
0.357323 0.001650 0.317423
0.277459 0.093525 0.138628
0.125751 0.116618 -0.134838
0.246467 0.203567 -0.009618
-0.281655 -0.078852 -0.444336
-0.096161 0.068092 -0.367576
-0.095208 0.196963 -0.234203
0.214905 0.299890 -0.169675
-0.451683 0.066586 -0.367576
0.125751 0.185371 -0.272146
0.008183 -0.098024 -0.234203
-0.284443 0.198056 -0.234203
-0.119315 0.375480 -0.288385
0.032910 -0.218948 -0.291221
0.290024 -0.382088 0.416929
-0.183215 0.161848 0.121293
-0.022732 0.263683 -0.234203
0.265813 0.229368 0.242501
0.348863 -0.333190 0.352161
0.395110 -0.161933 0.331705
-0.258441 0.166734 0.086751
0.466970 0.249950 0.173818
0.291345 0.056467 0.312087
0.231821 0.308056 -0.432784
-0.060722 0.192318 0.110700
0.352937 0.273164 0.138643
0.061626 0.308523 -0.234203
-0.086201 0.334267 -0.056562
0.028711 -0.224950 -0.281389
0.139519 -0.134476 -0.073841
-0.125267 0.369646 -0.317023
0.287986 0.022324 0.138628
0.433368 0.015497 0.230948
-0.200129 0.070580 -0.367576
0.125690 -0.033900 -0.365584
0.207735 0.137696 0.242273
-0.252000 -0.063354 -0.367576
0.236231 0.107674 0.138628
0.015358 0.035923 -0.234203
-0.234344 0.329349 -0.128978
0.033132 0.237837 0.047905
0.125751 0.270027 -0.207702
0.056001 -0.014795 -0.492509
0.235804 -0.126178 -0.058041
-0.189581 0.243630 -0.234203
-0.322574 -0.010641 -0.367576
0.125751 0.117218 -0.056268
-0.356068 0.048120 -0.234203
0.496764 0.177359 0.078912
-0.063214 0.277951 -0.367576
0.163380 0.086339 -0.493689
-0.251119 0.091253 -0.367576
-0.082369 0.106209 -0.234203
-0.045694 0.136324 -0.367576
-0.195478 -0.181504 -0.327792
-0.035619 0.367731 -0.288329
0.430196 -0.013933 0.063729
0.099276 -0.091275 0.034801
0.381892 0.267155 0.138628
-0.020855 0.223375 0.081188
-0.280556 -0.134409 -0.353293
0.268639 0.009413 -0.009407
0.268603 0.006567 0.123594
0.336122 -0.065291 0.331419
0.407497 -0.040710 -0.170662
0.374429 0.348848 0.058780
0.255925 0.160875 0.222890
0.268639 0.257750 0.098101
0.402655 0.068508 0.138628
0.217177 0.018055 0.351875
0.058511 -0.095145 0.457513
-0.380080 -0.059764 -0.264278
0.309229 0.281684 -0.197945
0.268639 0.015095 0.038497
-0.078398 0.124494 -0.367576
0.132816 -0.126528 -0.042384
0.046650 0.296051 -0.485977
-0.172930 0.141042 -0.234203
-0.385954 0.110019 -0.367576
0.217992 0.035441 0.346952
0.145118 -0.065071 -0.493149
0.444968 0.041638 -0.036396
0.316439 0.064265 -0.009618
-0.228462 -0.009487 -0.367576
0.119663 0.231088 -0.489485
-0.002389 0.003454 0.115990
-0.204291 0.014968 -0.367576
-0.180707 0.348453 -0.234203
0.125751 -0.138190 -0.106742
-0.087220 -0.002604 -0.234203
-0.018097 -0.160727 0.406201
0.196562 0.139858 0.138628
0.397547 0.336894 0.159097
0.325438 0.186366 -0.009604
-0.115132 0.036534 -0.234203
0.143733 0.264745 -0.028304
-0.031881 -0.227253 -0.128279
-0.032558 -0.003205 -0.234203
0.237886 0.315711 -0.457031
0.278208 -0.038325 0.190857
-0.170149 0.320475 -0.056152
0.122870 0.242929 -0.234203
0.447769 0.127925 -0.012222
0.082692 -0.033450 0.385414
0.397016 0.339092 0.155579
0.110525 -0.058292 0.429312
-0.032541 0.337470 -0.234203
-0.407284 0.047443 -0.219583
0.221529 0.301036 -0.163120
0.202607 -0.003849 0.366665
0.089384 -0.007875 0.398651
0.299839 -0.198124 0.268083
0.071780 -0.061119 -0.367576
-0.095499 0.306904 -0.367576
0.125751 0.190882 0.065777
0.277438 0.274752 -0.036843
0.033139 -0.026527 0.360104
-0.090790 -0.128831 -0.367576
-0.190327 0.347961 -0.306510
-0.013250 0.232701 -0.234203
0.125751 0.082691 -0.209500
0.255925 0.075955 0.290798
0.412289 -0.044270 -0.102022
-0.144846 0.266445 -0.485744
-0.430860 0.057865 -0.367576
0.125751 0.044023 -0.337345
-0.199343 0.145724 -0.234203
0.125690 0.004669 -0.237825
-0.246938 0.060578 -0.367576
0.183225 0.064757 0.180515
0.299725 -0.021255 -0.317132
-0.128479 -0.052428 -0.234203
0.125751 0.103560 0.058154
-0.397676 0.032602 -0.116884
0.098525 -0.000926 -0.367576
-0.098119 -0.061114 -0.234203
0.367822 -0.308152 0.445194
0.082959 0.292387 -0.330555
0.268603 0.071974 0.084090
0.347075 -0.219447 0.405567
-0.247239 0.278989 -0.440160
0.388759 -0.189293 0.375443
0.125751 0.066551 0.009459
-0.345399 0.009834 -0.456206
0.180934 -0.089708 0.042781
-0.166945 -0.043729 0.093922
0.314772 0.138454 -0.009604
0.048230 -0.092201 -0.492481
0.187487 -0.085207 -0.389153
0.183225 0.016748 0.271422
0.338858 0.072413 -0.009604
-0.238342 0.094176 -0.234203
-0.209536 -0.085002 -0.367576
0.261579 0.280540 -0.411724
0.268639 0.058605 0.082045
0.125751 0.085238 0.045842
0.091319 -0.086067 0.338551
-0.217627 0.167702 -0.367576
0.196949 -0.037748 -0.009604
0.255925 0.199810 0.231509
-0.025174 0.299750 -0.015969
0.175583 -0.070845 -0.367576
0.156867 0.240099 -0.009604
-0.187497 0.347501 -0.234203
-0.200755 -0.187108 -0.217419
-0.291493 -0.074090 -0.440404
-0.077810 -0.228472 -0.153842
0.067752 -0.100881 0.438373
-0.119460 0.234618 -0.234203
0.268639 0.009334 0.034707
0.141748 0.273523 -0.311852
-0.231298 -0.105558 -0.462308
0.037086 -0.032189 -0.367576
0.009223 -0.098062 -0.234203
-0.113519 -0.049255 -0.234203
0.330236 -0.045500 0.164407
-0.225212 0.344348 -0.184078
0.082943 0.283786 -0.367576
0.406335 -0.037697 -0.058063
0.210212 -0.039082 0.257593
0.363923 0.023066 0.138628
0.268603 0.010267 0.063170
-0.019804 0.342620 -0.234203
0.125751 0.018904 -0.031178
0.339146 -0.097357 -0.120275
-0.243054 0.088170 -0.234203
0.350990 0.049131 -0.454513
-0.111304 0.194480 0.113246
0.419879 0.065845 0.138643
0.125751 0.092480 0.008319
0.255925 0.128225 0.193801
-0.328492 0.259861 -0.361316
-0.034634 -0.098410 -0.234203
-0.408517 -0.008709 -0.401702
-0.205519 0.068761 -0.367576
-0.068571 0.267425 -0.367576
0.205324 0.122055 -0.494154
-0.111586 0.020461 -0.234203
0.031365 0.058487 -0.234203
0.233776 0.098381 -0.009604
0.094974 0.349314 -0.459178
0.309255 -0.316051 0.427032
0.093027 0.256640 -0.002207
0.247624 0.285278 -0.233583
0.115888 0.012761 0.108429
-0.228526 -0.043683 -0.234203
-0.244268 0.301710 -0.234203
0.268603 0.140914 0.018510
-0.005655 -0.120339 0.481391
0.125751 0.143586 0.067717
0.125751 0.043170 -0.066178
-0.125609 0.285273 -0.485365
0.368992 0.121840 0.138643
-0.345022 -0.017886 -0.023637
0.348065 0.020181 0.315326
0.175330 0.148682 -0.493248
0.255925 0.084778 0.250377
0.125690 0.072510 -0.253274
0.125690 0.233258 -0.295054
-0.144262 -0.194843 -0.334437
-0.229222 0.341591 -0.225876
-0.253980 0.296978 -0.234203
-0.170052 0.118602 -0.367576
-0.141613 0.278723 -0.367576
0.358758 -0.046510 0.122176
0.389417 -0.069284 -0.144974
-0.141654 0.298371 -0.012941
-0.171312 0.156568 -0.487900
0.424154 0.265280 0.226316
0.390826 -0.040883 0.259215
0.378241 -0.044760 0.029777
0.002548 -0.094141 -0.491946
0.280110 0.207207 0.280452
0.125751 -0.091352 -0.193921
-0.241823 0.212457 -0.234203
0.118471 -0.037989 0.088276
-0.047496 -0.177667 -0.437902
0.125751 0.187403 0.062581
-0.019590 -0.168582 -0.470495
-0.024246 -0.235323 -0.252036
0.332641 -0.356945 0.375166
-0.161695 -0.034183 -0.234203
-0.243802 0.132046 -0.234203
-0.138003 0.349903 -0.234203
-0.090891 0.164340 0.126305
0.040172 0.038700 -0.367576
0.256126 0.159975 -0.009604
-0.270078 0.252311 -0.234203
0.447784 0.171919 -0.141774
-0.055538 -0.058709 -0.367576
-0.017914 0.351836 -0.449224
0.010404 -0.169381 -0.480975
0.237915 -0.034669 -0.009618
-0.473035 0.054645 -0.377157
-0.184227 0.127774 -0.367576
-0.033286 -0.144227 -0.367576
-0.271980 -0.126631 -0.234203
-0.172065 -0.199987 -0.250143
0.125751 0.025967 -0.194733
0.214994 0.139046 -0.009604
0.069988 -0.006657 -0.492667
0.397271 0.233678 0.138628
-0.224961 0.234842 0.051586
-0.010742 -0.181958 -0.067176
-0.425737 -0.026033 -0.331992
0.391899 0.213492 0.138628
0.358748 0.021450 -0.284811
0.125751 0.073820 0.010753
0.114493 -0.072552 0.315938
-0.257323 0.012509 -0.485124
0.119681 0.033171 -0.367576
0.352642 0.264909 0.250718
0.416245 -0.000289 -0.009604
-0.199693 0.111943 -0.488012
-0.301670 -0.113747 -0.364212
-0.161658 0.321228 -0.054450
-0.179813 -0.043635 0.089928
0.268639 -0.088930 0.017863
-0.202340 0.308200 -0.421992
0.055827 0.174885 0.098553
-0.028788 -0.101770 0.393187
0.191495 -0.122405 -0.032348
-0.043631 0.002810 -0.491323
0.063721 0.310697 -0.234203
-0.214786 0.076460 0.119125
-0.335839 0.233592 -0.234203
-0.216954 0.044975 -0.367576
0.151861 0.252908 -0.367576
-0.088686 -0.162088 -0.036465
-0.021718 0.184327 -0.234203
0.420985 0.169034 0.279603
-0.214341 -0.117250 -0.465134
-0.201897 0.062292 -0.367576
0.166900 0.050870 0.260452
-0.213572 -0.080430 -0.483794
-0.109453 -0.045779 0.096721
-0.155899 -0.178744 -0.234203
0.409420 0.293627 0.210357
0.420399 0.023404 0.138628
-0.159079 -0.007829 0.117379
-0.298101 0.062713 -0.483246
-0.281654 0.190271 -0.234203
0.007477 -0.222860 -0.120688
-0.129141 0.195563 0.112162
0.059673 -0.217576 -0.139113
0.268639 -0.005553 0.032514
0.209193 0.251796 -0.374314
0.014580 0.152493 -0.234203
-0.130178 -0.211418 -0.257460
0.349894 0.066894 0.138628
-0.299609 0.201522 -0.234203
0.150644 0.250792 -0.367576
0.382059 0.324093 0.182810
0.064284 -0.061052 0.071085
-0.034593 0.182379 -0.367576
0.344621 0.042590 -0.303018
-0.024286 0.138985 -0.367576
0.363525 0.195715 -0.258584
-0.166213 0.033876 0.130576
-0.271733 0.183019 -0.367576
0.332718 0.185079 0.138628
0.107896 -0.000117 -0.367576
-0.248156 0.087086 -0.487110
0.125751 0.121569 -0.046910
0.000287 -0.223140 -0.234203
0.153049 0.195422 0.092352
-0.200649 -0.126104 -0.029009
0.284782 0.286296 -0.206279
0.085091 -0.201994 -0.163505
0.357930 -0.045500 0.291219
0.183225 0.005161 0.247295
0.255925 0.125796 0.286121
-0.171305 0.125666 0.132462
0.218046 0.290055 -0.227334
0.125751 0.194356 0.063514
0.303378 -0.222234 0.272031
-0.432017 0.108688 -0.422607
0.201028 -0.010838 -0.009604
0.420762 0.099990 0.288636
0.238396 0.234409 -0.340754
0.125751 -0.016465 -0.210977
0.398613 -0.249107 0.379221
0.076131 0.145040 -0.234203
-0.120633 -0.218427 -0.215524
-0.057701 -0.104713 -0.234203
-0.220921 0.068016 -0.234203
-0.308917 -0.085233 -0.404628
0.113479 0.071772 -0.493115
-0.127686 -0.143928 -0.234203
0.240789 0.251160 -0.321932
-0.309215 -0.057981 -0.234203
0.061225 -0.172348 -0.234203
0.489663 0.263638 0.062958
-0.015021 0.320242 -0.483993
0.291659 0.251816 0.138628
0.364753 0.240584 -0.009618
0.399275 0.241837 -0.092221
0.148907 0.223428 -0.009618
-0.073603 -0.116166 -0.234203
0.125751 -0.133339 -0.112775
0.405843 -0.026195 0.196657
-0.259116 0.133810 -0.234203
0.366604 0.078130 0.138628
0.125751 0.275254 -0.171611
0.149538 0.078055 0.123783
0.125690 0.076409 -0.293725
-0.225216 -0.162350 -0.367576
-0.296653 -0.123315 -0.134388
0.181023 -0.121688 -0.204201
0.320594 -0.364001 0.354515
-0.025864 0.013861 -0.367576
0.193241 0.222741 0.101948
-0.195563 0.319450 -0.065790
0.268639 0.102476 0.097146
-0.088054 0.356743 -0.381460
-0.190559 -0.000172 0.112301
0.318902 0.323976 0.030684
0.337553 0.149047 0.138643
0.127346 0.054932 -0.367576
0.442788 0.022043 0.013090
0.296738 0.204561 -0.009604
0.134264 0.043529 -0.009604
-0.056358 -0.235034 -0.187526
-0.246101 0.184537 -0.367576
-0.059483 -0.229432 -0.239083
0.268222 -0.018168 0.138628
-0.057077 0.238292 -0.234203
-0.296597 0.210795 0.025258
0.125751 0.255366 -0.245216
-0.118024 -0.012221 0.116242
-0.261477 0.025765 -0.234203
0.125751 0.252061 -0.017602
0.255925 0.058549 0.189361
0.331600 0.035992 0.313659
-0.353514 0.134221 -0.234203
-0.238645 0.290417 -0.417115
-0.167234 0.273665 -0.367576
0.147605 0.205782 -0.367576
-0.287977 0.090354 -0.234203
0.320252 -0.077418 0.190884
0.333005 -0.035382 -0.274537
-0.186785 -0.194659 -0.247352
0.086614 0.014381 0.302013
-0.284403 0.026915 0.068539
-0.048706 0.008541 -0.234203
0.199429 -0.012698 0.196981
0.144851 -0.137328 -0.411451
0.268639 0.238444 0.018210
-0.359847 0.134237 -0.455780
0.125751 -0.023766 -0.278462
0.283197 0.184992 0.138628
0.183081 0.040870 0.351151
0.125751 0.230635 -0.138286
0.222783 0.246346 0.099834
0.116318 -0.105110 -0.299800
0.305373 -0.161994 0.249248
-0.265001 0.031050 -0.367576
0.404030 0.043594 -0.009618
0.152363 -0.108260 -0.009618
0.388555 0.254231 -0.061744
0.190688 0.299521 -0.404207
0.255925 0.070878 0.174800
0.200156 -0.137104 -0.121010
-0.270760 0.179812 -0.367576
-0.059696 0.084671 -0.367576
0.364881 -0.045500 0.240394
0.032725 -0.214128 -0.234203
-0.343149 0.148568 -0.367576
0.180658 0.154951 0.131062
0.061132 0.297939 -0.353987
0.280837 -0.039453 0.185482
0.406600 0.089917 -0.009618
-0.132634 -0.215452 -0.183764
0.192290 0.006799 -0.009618
-0.372165 0.016700 -0.045600
0.291309 -0.115472 0.268320
0.247765 0.148070 -0.009618
0.460308 0.040736 0.176233
-0.393642 0.106740 -0.095765
-0.097648 0.201326 -0.367576
0.131919 0.182485 -0.009604
-0.478022 0.158508 -0.337986
0.374009 -0.168863 0.263902
0.185319 0.034132 0.362744
0.160747 0.274669 -0.307238
-0.010563 -0.232742 -0.278181
0.023786 -0.165808 -0.234203
0.256464 0.002812 -0.009604
-0.198173 0.057407 -0.367576
-0.403322 0.011719 -0.421515
-0.111169 -0.049297 0.093884
0.395227 -0.265440 0.381717
0.125751 0.269587 -0.289817
0.401996 -0.028041 0.182792
0.194220 0.121027 0.225003
0.184807 0.156142 -0.493129
-0.294391 0.299611 -0.182137
0.106451 0.239524 -0.367576
0.255732 -0.006102 -0.009604
0.134417 0.002881 -0.009604
0.298566 -0.019663 -0.424717
0.491786 0.228383 0.083359
-0.054190 -0.087478 -0.367576
0.392436 0.181681 -0.236760
-0.145416 0.133576 -0.234203
-0.048257 0.294001 -0.234203
0.174519 -0.109718 -0.237056
0.293987 0.012349 -0.009618
-0.345493 0.245317 -0.119764
0.352337 0.190305 -0.009618
0.041273 0.090898 -0.234203
-0.109228 0.088857 0.136767
0.125751 0.105334 -0.150993
-0.360478 -0.034312 -0.367576
0.409069 0.012756 0.138628
-0.286688 0.147118 -0.234203
0.095913 -0.074414 0.053843
0.139705 0.172188 -0.009618
-0.374010 0.006478 -0.437074
0.198398 0.036851 0.361532
-0.048139 0.128854 -0.490471
0.125751 0.076503 0.057769
0.255925 -0.015794 0.192872
-0.187894 0.020856 0.121613
-0.058498 -0.232724 -0.157115
0.188780 -0.000449 0.208357
0.086399 0.032985 -0.234203
-0.231365 0.308390 -0.068843
0.177630 0.293552 -0.198601
-0.054756 0.345453 -0.075482
0.181117 -0.061953 -0.361435
-0.015942 0.216252 -0.488853
-0.239449 0.220967 0.061795
0.101244 0.076729 -0.492967
-0.151130 0.132823 -0.367576
0.126644 -0.038981 -0.493272
0.268639 0.105791 0.108226
-0.263136 0.195914 -0.234203
0.268639 -0.045177 0.003583
0.125751 0.108601 -0.162501
0.330151 0.225962 0.138628
0.399132 0.186375 -0.009604
0.264657 -0.013467 0.250919
-0.416666 0.212132 -0.277995
0.255925 0.058220 0.189706
-0.184882 0.208459 -0.234203
0.122309 0.231621 -0.489454
0.011059 -0.171867 -0.234203
-0.447877 0.161810 -0.250690
-0.143674 0.120627 0.136150
-0.472520 0.163364 -0.346875
0.267100 -0.025865 -0.342382
0.176100 0.254903 -0.488127
0.072024 0.155111 -0.367576
0.160210 0.232474 -0.009618
-0.271275 -0.101979 -0.234203
-0.010430 0.258092 -0.234203
0.200960 -0.010072 0.188071
0.452575 0.297670 0.138643
0.024506 -0.041298 0.093748
0.059695 0.218353 0.064145
0.057956 0.223023 -0.234203
-0.386206 -0.049674 -0.362837
0.059485 -0.043937 -0.234203
-0.060071 0.312585 -0.367576
0.183225 -0.009724 0.304525
0.125690 0.026350 -0.313359
-0.027047 -0.173384 0.427834
-0.302956 0.219591 -0.455228
0.109501 -0.055995 0.431192
0.125751 0.230672 -0.013355
-0.223022 -0.120491 -0.234203
0.125751 0.182606 0.039858
-0.304832 -0.090300 -0.401134
0.268886 0.301276 -0.444188
0.034565 0.252790 -0.234203
0.030973 -0.025339 0.352826
0.283131 0.285949 0.033761
0.027979 0.337345 -0.283264
-0.047534 0.190168 0.109446
-0.179097 0.233291 -0.234203
0.455163 0.047520 0.011267
-0.425387 0.075643 -0.367576
-0.368785 0.155426 -0.367576
-0.260773 0.307298 -0.324901
-0.127870 -0.172701 -0.412857
0.045037 -0.235023 -0.195038
-0.238620 0.310246 -0.234203
0.417938 -0.021212 0.053895
0.318236 0.219983 -0.009604
-0.261966 0.218637 0.048396
-0.308329 0.188346 -0.234203
-0.006857 -0.039564 -0.367576
0.435624 0.157777 -0.187320
0.078013 0.114321 -0.234203
0.324486 0.337015 0.095757
-0.125913 -0.099371 -0.489466
0.288115 0.098098 0.306127
0.402364 0.218594 0.269401
0.105971 0.075595 -0.493023
-0.232912 0.284506 -0.448176
0.089947 0.318760 -0.187660
0.424927 0.280803 0.138643
-0.232558 -0.105221 -0.367576
-0.019530 -0.130077 0.459115
0.125751 0.009645 -0.091857
0.278394 -0.033353 -0.493296
-0.382262 0.125294 -0.447464
0.125751 -0.104902 -0.070435
0.369570 -0.328077 0.448798
-0.412295 0.081657 -0.436660
0.260569 0.245509 0.148994
0.255925 0.088318 0.185729
-0.219583 0.253476 -0.234203
0.322124 0.337103 0.049776
0.125690 0.110877 -0.325416
0.413731 -0.008361 0.257745
-0.120335 -0.189577 -0.368420
-0.075965 -0.004813 -0.490949
-0.152197 0.296865 -0.367576
-0.147208 0.199100 -0.487352
0.380976 -0.105014 0.262713
-0.092942 -0.189250 -0.388101
0.258591 0.003252 0.138628
-0.420554 0.140641 -0.367576
-0.442792 -0.005085 -0.282203
0.000641 -0.117898 -0.234203
0.226553 0.050042 0.336682
0.097546 -0.041528 -0.234203
0.284363 0.155509 -0.009604
0.223171 -0.046317 -0.009604
-0.049718 0.319575 -0.481964
0.209093 0.071200 0.138643
0.082692 -0.047618 0.440269
0.333100 -0.045495 0.262811
-0.026977 0.081506 0.128952
-0.252250 -0.130846 -0.399056
0.125690 0.229839 -0.331444
0.234474 -0.015354 -0.367576
0.442349 0.118349 -0.197522
-0.079785 -0.121878 -0.490274
0.417502 0.042165 0.292715
0.433477 0.031734 -0.198090
-0.360867 -0.060149 -0.367576
-0.002580 -0.219512 -0.320603
0.261607 0.043391 -0.364389
-0.293520 0.295064 -0.278500
0.051724 -0.110075 0.451242
0.125751 0.245504 -0.091916
0.016831 -0.194236 -0.234203
0.036779 0.145734 -0.234203
0.228253 -0.094936 0.025650
-0.275558 0.099868 -0.234203
-0.484820 0.046859 -0.278023
0.481020 0.284359 0.086389
-0.367380 0.056580 -0.024593
0.101292 0.248540 -0.488542
0.125751 0.170260 -0.099184
-0.291117 0.155132 -0.367576
0.397502 0.141164 -0.009604
-0.099499 0.156227 -0.234203
-0.222830 -0.072533 0.046215
0.118602 -0.065696 0.061326
-0.187823 0.294719 -0.022500
0.125751 0.203152 -0.057437
0.369062 -0.277781 0.320089
0.082692 -0.058049 0.352505
-0.010729 0.009493 -0.367576
0.194879 0.047131 -0.367576
-0.261168 0.324232 -0.190138
0.147886 0.128554 -0.009618
0.268639 0.088999 0.125602
0.082692 -0.068938 0.389858
-0.288221 0.256704 -0.435186
-0.112332 0.067292 -0.234203
0.173117 0.119494 0.132721
-0.303220 0.169311 -0.234203
-0.062633 -0.143943 -0.234203
-0.222215 0.267017 -0.367576
0.125751 0.156038 0.021476
0.280512 0.131800 -0.394809
0.444173 0.320330 0.059978
0.339109 0.272366 -0.042494
0.119523 0.288090 -0.211078
0.201556 0.024885 -0.009604
-0.196037 0.341643 -0.326454
0.453612 0.030695 -0.149851
0.332045 -0.094695 0.252250
-0.215193 0.016713 0.109908
0.287204 0.064646 -0.009604
-0.286918 0.085942 0.074968
0.117796 0.056883 -0.493177
0.198399 -0.130420 -0.463357
0.068266 -0.134278 -0.367576
-0.302153 0.149835 -0.234203
0.129525 0.284039 -0.224594
-0.394136 0.190404 -0.413792
-0.003122 0.347974 -0.468071
-0.436280 0.034109 -0.240024
