ply
format ascii 1.0
element vertex 1682
property float x
property float y
property float z
end_header
-0.051229 -0.236481 -0.172946
0.187174 -0.012942 0.232291
0.383773 -0.041912 0.217220
-0.258247 -0.061975 -0.471452
-0.261430 -0.125855 -0.082217
0.358895 -0.055689 -0.011752
0.270930 0.278021 -0.239481
0.057202 -0.122593 0.000233
-0.007737 -0.098202 0.438752
-0.303127 0.293149 -0.171046
0.295461 -0.228890 0.286980
-0.361956 0.070254 -0.461392
-0.166833 -0.203517 -0.201764
0.387745 0.332389 0.031171
-0.403429 0.225040 -0.295663
0.386431 -0.037270 0.002626
-0.263029 -0.063007 0.027855
-0.085680 0.291896 0.005641
-0.175259 0.343789 -0.101821
-0.126406 -0.117625 0.024211
0.098570 0.213092 0.056174
0.413853 -0.016487 0.236542
-0.439532 0.002210 -0.380136
0.145465 0.234759 -0.489261
0.297810 -0.060845 0.096189
0.493680 0.211710 0.065673
-0.116379 0.186823 0.117435
0.282668 -0.119014 -0.176727
0.265041 0.224596 0.256317
0.267193 0.242750 0.194981
0.078629 0.325201 -0.207160
-0.485849 0.149115 -0.287233
0.313138 -0.311781 0.291066
-0.278414 -0.038587 0.038653
0.449205 0.004145 0.059568
-0.385246 0.006407 -0.092486
-0.359151 0.002055 -0.033020
-0.296583 0.113883 -0.482389
-0.140377 0.345619 -0.084788
0.241518 -0.040803 -0.349950
-0.429554 0.147277 -0.236201
0.284214 -0.319228 0.364072
0.269702 0.089632 -0.382099
0.128762 0.287923 -0.191659
0.169962 -0.039648 -0.493304
0.004832 0.213334 0.083122
0.031451 -0.183219 -0.368522
0.041960 -0.156027 -0.492189
-0.236181 0.323678 -0.312357
-0.378438 -0.018461 -0.418161
-0.121510 0.086351 0.137294
0.307268 0.232840 0.271688
0.292621 -0.040862 -0.305390
-0.125230 -0.101649 0.044085
-0.092650 -0.210685 -0.316337
0.353460 -0.271644 0.271640
-0.462277 0.123718 -0.241433
0.257824 0.269437 -0.025446
0.390281 -0.152250 0.310340
-0.162320 0.165622 0.125697
0.140103 -0.111503 0.001439
0.202754 0.163249 0.171212
0.361422 0.279850 0.238623
-0.310006 -0.120674 -0.169330
-0.143266 0.242674 -0.486370
-0.297263 -0.130167 -0.178083
-0.317309 0.046521 0.044186
0.020165 0.206052 -0.489607
-0.286091 0.013824 -0.479012
0.187612 0.128933 0.145459
-0.329135 0.076923 0.031144
-0.422105 0.001896 -0.399920
0.206065 -0.047647 -0.493235
-0.247844 0.278258 -0.441531
0.289790 -0.116757 -0.120723
0.320431 -0.077012 0.010176
-0.247842 0.156097 0.096528
0.292363 -0.047432 0.242847
-0.106477 0.312498 -0.026117
-0.252114 -0.128779 -0.076358
-0.404669 0.040357 -0.174568
-0.377663 -0.066643 -0.284395
-0.336071 0.262541 -0.153794
-0.097523 0.122145 0.134425
0.259902 0.282839 -0.235246
-0.395786 0.163198 -0.206134
0.025718 0.333386 -0.302190
0.462577 0.076419 -0.142871
-0.044497 -0.144057 -0.015832
0.061671 0.345482 -0.169033
0.030662 -0.049482 0.415976
0.321377 0.339234 0.059506
0.449895 0.318630 0.114133
-0.101304 -0.044380 -0.490293
-0.050183 -0.164206 -0.466457
0.430278 -0.001582 -0.047144
-0.032115 -0.167367 -0.467568
-0.105468 -0.147146 -0.016393
0.422948 -0.014582 0.036060
-0.401924 0.046650 -0.131825
-0.036430 0.381582 -0.183097
0.354621 -0.279325 0.282196
0.479065 0.180106 0.186011
0.370053 0.200299 0.283870
-0.230488 0.314546 -0.081445
-0.058911 0.265732 0.039419
0.372432 -0.127636 0.250060
0.241846 0.298220 -0.483618
-0.234729 0.322946 -0.322339
0.130853 -0.054667 0.293839
-0.225167 -0.134721 -0.427555
0.289072 -0.128755 0.282423
0.380334 0.192498 0.285227
0.313543 -0.035396 -0.461494
-0.167168 0.362332 -0.283502
-0.033238 0.353843 -0.431615
0.170765 -0.127556 -0.189603
-0.424845 0.159159 -0.412254
0.189380 -0.115461 -0.014502
0.259570 -0.104284 -0.009522
0.041790 0.347817 -0.415752
0.232363 -0.029214 0.179939
0.370460 -0.052410 0.211873
0.468368 0.105036 -0.114620
-0.372509 0.208990 -0.160238
0.465326 0.279191 0.139182
0.020451 0.256503 -0.487992
0.262072 0.291519 -0.484418
0.399588 0.007551 0.301565
-0.242078 -0.067666 0.038708
-0.187997 -0.134616 -0.035172
-0.012330 -0.123379 0.006732
-0.267235 -0.101076 -0.037339
0.309993 0.264749 -0.229935
-0.317376 0.117808 0.043984
-0.077728 0.384231 -0.246647
-0.268788 0.167352 -0.481841
0.286166 -0.216411 0.328827
0.418160 0.253198 -0.002575
0.075256 0.111465 -0.492633
0.145029 0.313788 -0.404325
0.183225 0.072183 0.198961
0.203903 0.204515 -0.490874
0.131042 0.278143 -0.274985
-0.011215 0.275553 0.012588
-0.260069 -0.010586 0.071412
0.415821 0.321784 0.171467
0.183602 0.084747 -0.493929
-0.261171 0.217760 0.050261
-0.150812 0.345846 -0.089973
0.032326 0.132606 0.117682
-0.367017 -0.045373 -0.398333
-0.237185 -0.146092 -0.392132
0.025556 -0.079013 0.055201
0.188319 0.029889 0.366725
0.020797 0.357711 -0.452565
0.337961 0.228725 -0.256903
0.442237 0.185732 -0.004186
0.154692 -0.117417 -0.218622
-0.338612 -0.048629 -0.041086
0.139376 0.288915 -0.195075
-0.350920 0.249378 -0.352868
-0.264161 0.019476 0.081550
0.363104 -0.185227 0.249154
-0.381628 -0.028147 -0.124598
-0.400608 0.127076 -0.148035
0.095272 0.292074 -0.061293
0.197645 -0.001856 -0.493537
-0.068236 -0.125557 -0.490494
0.031090 0.294896 -0.031502
-0.416843 0.148113 -0.422815
0.018970 0.350775 -0.253237
0.006581 0.356558 -0.417006
-0.116750 -0.156921 -0.452726
-0.339801 -0.065102 -0.073298
-0.460600 0.181529 -0.340623
-0.498188 0.111384 -0.297594
-0.335749 -0.072890 -0.079335
0.482750 0.257827 0.036637
0.340397 -0.112782 0.222496
0.234776 0.025992 0.336211
-0.364609 -0.074941 -0.307020
0.295370 0.100554 0.305701
-0.170710 -0.176042 -0.378370
0.218260 0.212805 -0.490405
-0.021057 0.337864 -0.370492
0.165471 -0.106833 -0.394682
-0.364122 0.133623 -0.028613
-0.318683 0.156062 0.037291
0.490076 0.109028 0.122651
0.146348 -0.112691 -0.492838
0.182370 -0.114691 -0.011499
-0.224013 0.243163 0.039707
0.053140 -0.214820 -0.127692
0.336920 -0.086893 0.343677
-0.021651 -0.172503 -0.460902
-0.044472 -0.112122 0.372363
0.105412 -0.132791 -0.290518
0.053482 0.328854 -0.257205
0.094229 -0.162971 -0.396908
-0.284117 -0.141040 -0.238674
-0.047647 -0.211273 -0.341613
0.390917 -0.109767 0.304836
0.013387 -0.174088 -0.473104
0.008924 -0.066585 0.410287
0.278601 0.280574 -0.051514
0.350663 -0.312919 0.321141
0.060081 0.342340 -0.132344
0.187407 -0.075673 -0.325946
0.382469 -0.197523 0.301704
0.049495 0.279471 -0.017078
0.073981 -0.191934 -0.276391
0.325239 0.061693 -0.321551
-0.146687 0.200241 0.108471
-0.419886 0.213048 -0.328794
0.163447 -0.137737 -0.091870
-0.384278 0.009315 -0.086284
0.467506 0.102962 -0.099207
-0.238588 -0.138341 -0.081800
0.156989 0.310107 -0.404066
-0.091786 0.176512 -0.488698
0.349674 -0.324422 0.337509
0.238939 0.141716 -0.493358
0.347219 -0.175278 0.386693
-0.484468 0.058322 -0.350243
0.270519 0.106666 0.302618
-0.011942 -0.224358 -0.312150
0.235322 -0.108009 -0.233930
0.380900 -0.036836 0.156693
0.456222 0.127895 0.271764
-0.204342 -0.177983 -0.333675
0.171751 -0.109517 0.002853
-0.181304 -0.116634 -0.485986
-0.499127 0.080866 -0.298130
-0.226854 0.309068 -0.375302
0.237693 -0.130842 -0.090492
-0.353570 0.144847 -0.455587
0.271600 -0.031406 0.203427
0.475597 0.225848 0.025021
0.345577 -0.071287 0.181199
0.497372 0.167575 0.088075
-0.152708 -0.095091 0.048841
-0.214828 0.324205 -0.089730
0.245075 0.263412 0.019754
-0.424580 0.168677 -0.406860
0.422686 0.243374 -0.002584
0.100504 -0.068499 0.309925
0.099417 0.040106 0.114709
0.183559 0.073834 0.255794
0.223529 0.104912 -0.494221
0.122315 0.110889 0.109301
-0.073749 -0.224010 -0.137266
0.016412 0.301762 -0.485680
0.296978 0.058593 -0.341945
0.354693 -0.181994 0.390096
0.081857 -0.192918 -0.253304
-0.003676 0.314310 -0.045040
-0.166665 0.364580 -0.261749
-0.232755 -0.155396 -0.116867
0.141088 -0.049291 0.407451
0.059128 -0.100421 0.452938
0.320290 0.274828 -0.201352
-0.012566 -0.104924 0.029527
0.309341 -0.189247 0.370445
-0.248386 -0.090034 -0.461512
-0.158654 -0.191543 -0.330238
-0.059108 0.116876 -0.490597
-0.175166 -0.173026 -0.094668
0.066480 -0.222436 -0.215919
-0.323925 -0.108819 -0.153114
0.316187 -0.120894 0.345883
0.362125 0.306053 0.206709
0.078243 -0.100550 0.025684
0.357415 0.311175 0.197844
0.175393 0.249917 0.044650
0.163091 0.324913 -0.478514
-0.428510 0.161037 -0.239319
0.330911 -0.022444 -0.467698
-0.010395 0.374512 -0.140564
-0.410773 0.093304 -0.187862
-0.293152 0.170415 -0.473313
-0.237119 0.290397 -0.420054
0.340969 0.301441 0.007000
0.329515 0.333440 0.109646
0.171460 -0.107749 -0.401083
0.090256 -0.101354 0.023408
0.488059 0.092394 0.044667
-0.023404 0.160938 -0.490065
-0.188060 -0.088855 0.045517
-0.067244 0.219527 0.093734
-0.318979 -0.110185 -0.299121
-0.069814 0.382905 -0.189997
0.187806 0.200332 -0.491118
0.113968 -0.179662 -0.443639
0.101158 0.091687 -0.492953
0.008909 -0.241504 -0.215236
0.287415 -0.032428 0.278861
-0.295573 0.259133 -0.417391
0.176269 -0.051028 -0.493227
-0.367098 -0.062695 -0.150120
-0.107142 -0.149093 -0.473509
0.016318 0.314032 -0.484791
0.024787 0.101734 0.122750
0.445887 0.165242 -0.045412
-0.135109 0.016961 -0.489935
0.415869 0.205510 -0.187574
0.296292 -0.054771 -0.288477
-0.254462 -0.115191 -0.049851
0.053876 0.043168 0.119305
0.453552 0.165248 -0.072898
0.378106 -0.253846 0.417005
-0.249651 0.319113 -0.290194
-0.311234 0.274174 -0.101269
0.292054 0.083112 -0.399284
-0.415271 0.145887 -0.424545
-0.388610 0.234206 -0.310684
0.109722 -0.171475 -0.172087
-0.012798 -0.197784 -0.399491
-0.315851 -0.065814 -0.426604
0.166764 0.323453 -0.430219
-0.193516 -0.188312 -0.176301
0.105589 0.270972 -0.360207
0.026484 0.282652 -0.012410
-0.063043 0.375031 -0.285460
0.435379 0.218427 0.252979
-0.176603 0.291746 -0.014150
-0.321370 0.011855 -0.466952
0.231077 -0.078706 -0.493004
0.400032 -0.235340 0.382489
0.331659 -0.189509 0.240600
0.037970 -0.130627 0.398268
-0.150843 0.204390 0.105476
0.306356 0.184335 -0.420981
0.013119 0.021261 -0.491976
-0.098901 -0.185748 -0.395967
-0.286876 -0.129389 -0.133302
-0.418167 0.093158 -0.231647
0.058222 -0.228053 -0.168747
0.258399 0.287584 -0.415383
0.274513 0.256751 0.161414
0.029622 -0.230439 -0.146724
0.266076 0.165453 -0.347333
0.183578 0.285345 -0.250596
0.117584 -0.121750 -0.250757
0.212738 0.298146 -0.108336
0.465874 0.100923 0.261682
0.212394 0.131423 0.270039
-0.275619 0.313543 -0.180805
0.069773 0.299269 -0.333154
-0.068934 -0.233646 -0.172061
0.028149 -0.212136 -0.312656
-0.167716 -0.112777 0.016322
-0.240176 0.060561 -0.487557
0.287316 -0.159677 0.305457
0.057473 -0.117958 0.390688
0.446840 0.169507 -0.150187
0.481979 0.137489 0.220335
0.376877 0.262835 -0.087470
0.065488 -0.166354 -0.492139
0.406557 -0.025649 0.198058
0.010609 -0.242107 -0.201279
0.217368 0.235023 0.109924
0.243135 0.301904 -0.129014
0.016854 0.116581 0.122133
-0.144729 0.374777 -0.199570
0.441843 0.023843 -0.173299
-0.131981 -0.212900 -0.243819
0.126195 0.246903 -0.001249
0.339980 -0.160383 0.378176
-0.196314 0.125315 -0.487827
0.330252 -0.098545 -0.197595
0.377644 0.262318 -0.081729
0.479846 0.145448 0.240439
0.394873 -0.250707 0.399799
-0.126442 -0.119464 -0.488993
0.296073 0.263943 0.223657
0.000852 0.357761 -0.265741
0.192424 0.077670 -0.494028
0.311413 0.250207 0.256945
0.068117 0.032239 -0.492613
-0.407813 0.061107 -0.170059
-0.131704 0.030790 -0.490084
0.300506 -0.006003 -0.324349
-0.140430 0.070628 -0.490128
0.347682 -0.071995 0.182912
-0.390223 -0.004563 -0.223269
-0.289280 0.303379 -0.169120
-0.240444 0.271295 -0.012631
-0.037714 0.281227 -0.486521
0.355663 -0.093588 -0.159832
-0.049375 0.150207 -0.489943
-0.333640 0.052845 -0.471370
-0.350764 -0.040182 -0.055235
-0.159044 0.369003 -0.246375
0.023487 -0.068553 0.448080
0.108052 0.210749 0.055651
0.336594 0.008967 0.317229
-0.423925 0.062643 -0.427152
0.056731 -0.010366 0.354853
0.010775 -0.041261 -0.491999
0.236795 -0.100237 -0.490101
0.030298 0.099528 0.122319
-0.213044 -0.054880 0.069062
-0.364344 0.230995 -0.384603
0.275671 -0.081748 -0.270991
-0.388295 0.028566 -0.083957
0.166405 0.118211 -0.493699
0.044317 -0.112569 0.459494
0.218026 0.028405 0.348661
-0.334086 0.066489 0.023973
-0.277812 0.217515 0.036552
0.313061 -0.105024 -0.094078
-0.045984 -0.228899 -0.264561
-0.420663 -0.008350 -0.250885
0.159056 0.117990 0.125870
-0.285531 0.184132 -0.473233
-0.288820 -0.045241 -0.461610
0.183586 0.054947 0.170055
0.015183 0.367690 -0.138988
0.175905 0.049745 0.326310
-0.192249 0.292341 -0.472364
-0.414003 0.217099 -0.294742
-0.248358 0.071873 0.101825
0.169852 0.277313 -0.486900
-0.052876 0.285994 -0.486191
0.117691 0.321589 -0.404033
0.381582 0.060252 -0.273217
0.195366 -0.041537 0.277574
0.030410 0.063999 0.122822
0.239696 0.312562 -0.469313
0.001721 -0.190707 -0.079531
0.088469 0.351100 -0.456142
0.184693 0.101801 0.184609
0.288503 0.112543 -0.399310
0.087925 0.008384 0.347127
0.308860 0.291843 0.155383
0.349194 -0.053600 0.102015
-0.378467 -0.042852 -0.387819
0.099022 0.277247 -0.351529
0.209733 -0.134827 -0.087550
0.077814 0.179881 0.090991
0.467362 0.102841 -0.122219
0.277790 0.188586 -0.333421
-0.237714 -0.026202 -0.485292
0.298989 0.292085 -0.177601
-0.294805 0.281183 -0.087917
0.340109 0.305069 0.192715
0.243725 0.147755 -0.492879
0.457123 0.188789 0.250854
0.032365 0.079054 0.122859
0.209452 0.170301 0.183903
0.369498 0.267910 -0.119003
0.095529 0.301100 -0.485600
0.144004 -0.115085 -0.006250
0.277251 0.246372 0.226147
-0.264166 0.083335 0.092350
-0.299018 0.184857 0.044663
0.183275 0.087634 0.195079
-0.162233 -0.029090 0.104852
0.378909 -0.310184 0.390247
-0.176429 -0.072951 0.067517
0.183906 0.013030 0.212016
-0.037552 -0.168969 -0.461588
-0.450184 0.018156 -0.385782
0.253618 -0.052847 -0.417756
-0.040605 0.027024 -0.491339
0.198629 -0.091768 0.036793
-0.029034 0.210869 0.091859
0.388467 -0.039203 0.040876
-0.058712 -0.159808 -0.472358
0.387205 -0.168370 0.304085
0.285235 0.037444 0.314900
0.212619 0.316202 -0.475921
0.059508 0.299054 -0.353341
0.326876 0.342411 0.087368
0.288541 -0.363286 0.355195
0.310638 -0.366381 0.448732
-0.341373 0.222253 -0.426585
0.416346 -0.036423 -0.147154
-0.192404 0.353747 -0.260416
0.059736 0.232781 -0.489212
0.124113 -0.070831 -0.343029
0.250516 -0.127784 -0.092886
-0.369842 0.232391 -0.369473
0.188914 0.130597 0.158131
0.422308 0.210256 -0.154214
0.351753 0.106823 -0.301128
-0.242695 0.307714 -0.361928
0.327012 0.047720 -0.318850
0.108328 -0.127658 -0.287278
0.043440 0.360092 -0.168435
0.188343 -0.031824 0.262088
0.280303 -0.038726 0.168656
0.138090 0.304571 -0.485163
0.121301 -0.072744 0.318188
0.392738 -0.248627 0.401748
0.304524 -0.344364 0.435470
0.322841 -0.334364 0.300219
-0.451197 0.157312 -0.387925
0.210013 -0.093218 -0.423671
0.310974 -0.068180 0.310836
0.396975 -0.025424 -0.221993
-0.172663 -0.191925 -0.130755
0.395571 0.246304 -0.058977
0.065037 0.313487 -0.290811
-0.007887 -0.189546 -0.077035
-0.228524 -0.005645 -0.487271
0.225832 -0.134425 -0.131244
-0.399878 0.088746 -0.121113
0.276649 -0.053508 0.101299
-0.218097 -0.176168 -0.184983
-0.150029 0.263765 0.037047
-0.079433 0.254650 0.057901
0.194731 0.313646 -0.481820
-0.199468 0.038763 -0.488512
0.005087 -0.065558 0.399137
0.261929 -0.121212 -0.191317
0.294010 -0.261878 0.383339
0.317793 0.272242 -0.036348
0.341276 0.314177 0.171880
-0.469683 0.082105 -0.389076
0.236066 0.306181 -0.431869
0.166464 0.267130 -0.346073
-0.088747 -0.225250 -0.219767
0.138107 0.016476 0.386043
0.330500 0.310053 0.163549
0.303705 -0.029378 0.308228
-0.239272 -0.167400 -0.219985
0.264418 0.285820 -0.063668
0.437007 0.037326 -0.013415
0.294118 -0.240205 0.373536
0.105429 -0.107915 -0.492881
0.359970 -0.340819 0.421426
-0.109542 -0.206407 -0.112255
0.021217 0.346088 -0.265641
0.263326 0.099502 0.303078
-0.049650 0.319087 -0.482132
0.013273 -0.147476 0.449454
0.155712 0.281892 -0.266083
0.453992 0.022419 0.148547
0.247851 -0.131165 -0.135957
0.307305 -0.150832 0.243376
-0.341795 -0.097035 -0.162234
0.229461 0.209929 0.166754
0.254647 -0.023548 -0.382353
-0.070427 0.352705 -0.369385
0.243590 -0.035204 -0.383721
0.259476 0.242285 -0.394890
-0.262377 -0.106324 -0.041842
0.355839 -0.305325 0.323130
0.462173 0.088156 -0.056784
0.146976 0.031735 0.357521
-0.013267 -0.160911 0.410730
0.347843 0.091567 -0.458068
0.412750 -0.020204 0.189932
0.345463 0.089231 0.305887
-0.101522 0.152682 -0.489125
0.291783 0.240498 -0.486906
0.145879 0.079529 -0.493489
0.151117 -0.126361 -0.195017
-0.374169 0.168491 -0.072153
0.021903 0.016320 0.117388
0.442003 0.152642 0.275301
0.068344 -0.118934 0.003639
0.131926 0.314542 -0.399869
-0.084701 -0.141240 -0.008581
-0.271323 -0.068175 0.012930
0.288897 -0.041298 0.247191
-0.389691 0.175052 -0.231249
-0.156005 -0.140110 -0.023594
0.234135 0.245645 0.112574
0.132684 0.020886 0.372817
-0.047135 -0.223653 -0.296523
-0.052807 0.137611 0.127689
0.059125 -0.157441 -0.492491
0.021117 -0.119858 0.007562
-0.452092 0.144154 -0.244096
-0.106866 0.191714 0.114769
-0.085741 -0.171914 -0.433479
-0.038342 -0.121444 0.357614
0.073539 -0.085079 0.447093
-0.368714 0.236183 -0.362871
0.091783 0.194351 -0.490818
0.165427 -0.090950 0.040010
0.131974 -0.142026 -0.492636
0.164762 0.312032 -0.410140
-0.274456 0.278149 -0.391864
0.129152 -0.135414 -0.172020
-0.198660 0.355187 -0.169478
-0.221496 0.329641 -0.322928
-0.014550 -0.201098 -0.387023
0.381810 0.088647 0.301396
0.224248 0.209418 -0.490586
0.387037 -0.205066 0.318521
0.124456 -0.124809 -0.205707
-0.306269 -0.123141 -0.169530
0.434292 0.331700 0.117683
0.166163 -0.113477 -0.227907
0.124855 -0.095991 -0.492957
0.355495 0.028518 0.313946
0.151971 0.008887 0.391926
-0.389291 0.178704 -0.170127
0.292004 -0.045082 0.233441
0.235698 -0.071671 -0.423122
-0.091011 0.383989 -0.199624
0.394260 0.129976 0.293649
0.397523 -0.031039 0.186870
0.285061 -0.273016 0.344515
0.346476 0.040017 -0.448381
0.335226 0.337354 0.034283
0.119314 0.271977 -0.324116
-0.053269 0.087798 0.131697
-0.322309 0.278102 -0.170131
-0.087107 -0.212794 -0.312536
0.179383 -0.096893 -0.270932
0.452195 0.060489 -0.168374
0.239642 0.179640 -0.491905
-0.026692 -0.236504 -0.239900
0.399856 -0.226897 0.375119
0.335853 0.194564 0.287731
0.309142 0.295522 -0.151489
0.063525 0.342520 -0.140667
-0.040856 -0.235973 -0.159850
-0.022340 -0.198469 -0.086710
-0.341324 0.199665 -0.442726
-0.072170 0.333884 -0.455666
-0.159031 -0.105571 0.032241
0.463796 0.031319 0.125479
0.147471 0.276713 -0.295664
-0.268693 -0.135175 -0.117237
0.079286 -0.210241 -0.227806
0.104548 0.084600 -0.492999
-0.375747 -0.045434 -0.143544
0.137452 0.062453 0.118322
0.364986 -0.022773 0.319081
0.241883 0.000591 -0.493534
0.389718 -0.137023 0.344107
-0.206331 -0.095988 -0.482823
-0.052504 -0.230517 -0.145777
-0.119718 -0.109378 -0.489513
0.172129 0.331788 -0.456927
0.460811 0.020962 0.095147
-0.392333 0.057615 -0.084138
-0.089776 -0.128701 0.007758
0.231399 0.057041 -0.493906
0.344266 0.281367 -0.127727
0.085864 0.074190 -0.492788
-0.076086 0.366659 -0.326814
0.368128 -0.049734 0.071691
-0.059459 0.151195 -0.489773
0.281502 0.015597 0.317878
0.490964 0.243305 0.073713
0.335632 0.332834 0.028781
-0.305756 0.162284 0.049273
0.192227 0.187761 0.128638
-0.379064 -0.016455 -0.100684
-0.132362 -0.085285 -0.489412
0.397395 -0.033656 0.040553
-0.342289 0.238373 -0.093628
0.330626 0.076229 -0.318766
0.014266 0.357341 -0.434535
-0.361195 0.201747 -0.428374
-0.336316 -0.078280 -0.092054
0.203041 0.010481 0.364741
-0.346365 -0.085767 -0.341326
-0.390409 0.217919 -0.249018
0.060583 -0.209068 -0.269738
0.186741 0.105889 0.206244
-0.047492 0.357012 -0.408493
-0.384706 0.111632 -0.069009
-0.125379 -0.218930 -0.193659
0.282914 -0.119031 -0.175754
-0.319673 0.180375 0.023374
0.348328 0.220934 -0.254430
0.156002 -0.137148 -0.423012
0.093698 -0.198825 -0.200920
-0.100941 -0.225852 -0.187919
0.396831 -0.236458 0.364458
-0.285312 0.218022 0.029612
0.092041 0.260073 -0.006655
-0.007674 -0.119345 0.475011
-0.052278 -0.165111 -0.041683
0.345750 0.252311 -0.217837
0.224274 -0.080897 -0.302323
-0.033978 -0.134071 -0.004395
0.282006 0.248724 -0.487121
-0.327515 0.063294 0.032751
-0.164497 0.335955 -0.078953
-0.368973 0.217692 -0.178551
0.073033 0.304450 -0.065562
-0.295648 -0.088854 -0.043277
-0.132938 -0.022750 -0.489755
-0.014936 -0.130295 -0.491610
-0.314228 0.232447 -0.439375
0.325985 -0.098572 -0.081399
0.084876 -0.034515 0.093362
-0.365161 0.136355 -0.031833
0.327398 0.288204 -0.118010
-0.269537 0.313685 -0.241066
-0.204344 -0.116605 -0.014812
-0.076211 0.022713 0.127423
0.078170 0.231821 0.038332
0.486509 0.228753 0.043297
0.320748 -0.364029 0.355526
-0.331800 -0.053756 -0.425055
0.470132 0.068183 0.192895
-0.350013 0.243478 -0.202148
0.416124 0.305533 0.016020
-0.333417 0.269631 -0.291339
0.159069 0.275452 -0.303133
-0.186055 -0.182137 -0.339790
0.303563 -0.105841 -0.068521
-0.256391 -0.158938 -0.228971
0.115956 0.015248 0.367020
-0.355047 0.056498 -0.005466
-0.196875 -0.076554 -0.487162
-0.416756 0.086263 -0.232442
0.130878 0.162483 -0.492272
-0.034867 0.286995 0.004304
0.122860 -0.040507 0.085445
0.155817 -0.104125 -0.383308
0.105579 0.006365 0.379921
-0.444566 0.027755 -0.247199
0.314045 0.005060 -0.317197
0.450612 0.265586 0.197845
-0.191095 -0.006752 0.109071
0.061991 -0.091063 0.456207
0.433666 0.265978 0.003899
0.070928 0.047495 0.118064
-0.421381 0.109944 -0.429293
0.285409 -0.276024 0.339125
-0.114511 0.016584 0.129132
-0.323301 0.069995 0.038784
-0.059409 -0.203651 -0.093801
0.031529 -0.233226 -0.156330
0.094895 -0.182349 -0.429393
0.054904 0.246257 -0.488683
-0.316752 0.279401 -0.209145
-0.431573 0.142100 -0.415895
0.418786 -0.014969 0.184057
0.243639 0.126539 0.304503
0.220095 -0.006503 0.344216
0.151486 -0.083856 -0.309055
0.300600 -0.184965 0.262687
0.195501 -0.114061 -0.011891
0.199967 0.115224 -0.494096
0.399094 0.242030 -0.106575
-0.216179 0.188743 0.097886
-0.396935 0.091736 -0.106298
-0.364881 0.190112 -0.433241
0.289021 -0.230570 0.307315
-0.188636 0.070083 -0.488942
-0.421525 -0.030981 -0.316862
0.183210 -0.006953 0.241949
-0.405501 -0.036696 -0.356154
0.235983 0.300122 -0.483401
0.397938 -0.056048 -0.159586
-0.339612 0.217892 -0.055656
0.245760 0.009798 0.320387
0.395828 0.246014 -0.048369
-0.111777 -0.115214 0.026783
-0.027268 0.212107 -0.488787
-0.118982 -0.204095 -0.113921
-0.215931 -0.175091 -0.151687
-0.194649 -0.119008 -0.012281
-0.051844 0.266845 -0.486817
0.248451 0.263407 0.020425
0.337177 -0.069073 0.334021
-0.212943 -0.062950 0.062050
0.222279 0.190006 0.187696
-0.060536 -0.192635 -0.078031
-0.315783 -0.008373 -0.463296
0.273929 0.241643 0.233333
-0.073606 0.356124 -0.394327
0.354051 0.352349 0.070381
-0.367872 0.030233 -0.031266
-0.493256 0.133914 -0.289689
0.386233 -0.061547 0.301097
0.023683 0.102200 -0.492034
-0.023979 0.354531 -0.435427
0.305760 -0.381020 0.434455
-0.139688 -0.165528 -0.058200
-0.069453 0.343083 -0.435962
-0.000468 0.367195 -0.123377
-0.052952 -0.229902 -0.246096
-0.095056 0.285517 0.015514
-0.164331 0.292022 -0.010442
-0.185588 -0.191162 -0.285892
-0.217047 -0.086455 0.029508
0.391604 0.339886 0.048571
0.319986 -0.027133 0.321443
-0.095845 -0.187052 -0.393429
-0.178073 -0.191894 -0.138826
-0.047846 0.353378 -0.423194
0.066447 0.176939 0.095168
0.031583 0.369153 -0.163550
0.327883 -0.179969 0.239669
-0.250018 0.323534 -0.138020
-0.165419 0.195299 -0.487178
-0.193664 -0.189002 -0.279532
-0.456354 0.000365 -0.308166
-0.163278 0.276792 -0.485197
-0.343280 0.205613 -0.437717
0.299436 -0.109706 -0.087949
-0.171711 0.318190 -0.426122
-0.002742 0.268252 0.019509
0.438662 0.097884 -0.203586
-0.196200 0.160607 0.117306
0.281487 0.068791 -0.389470
-0.095970 -0.204651 -0.334940
-0.152893 0.303014 -0.023493
0.077386 0.204706 -0.490318
0.324139 0.158063 -0.438546
-0.348175 0.147018 -0.003138
0.045576 0.346744 -0.124533
0.474177 0.231863 0.158245
-0.338093 -0.063202 -0.064997
-0.315622 0.148303 -0.469771
-0.277086 0.168650 -0.479005
-0.379120 -0.038350 -0.163054
0.198125 0.086888 0.310247
0.226719 0.027398 0.342139
0.283643 -0.376341 0.388227
-0.498101 0.108871 -0.288628
0.164094 0.309737 -0.406539
0.359425 -0.107530 0.230038
0.221665 -0.015441 0.154014
0.425157 0.071359 -0.223212
-0.334957 0.008321 -0.460164
-0.356692 0.254147 -0.266387
-0.325650 0.275899 -0.280160
0.354367 0.307909 0.009125
-0.430591 -0.017375 -0.284439
-0.020881 -0.042936 0.096274
-0.028218 -0.098224 0.039081
0.079034 -0.102014 0.408762
-0.023262 -0.084132 -0.491634
-0.253885 0.207973 0.065592
-0.081686 -0.105790 -0.490354
-0.154003 0.316985 -0.441430
0.189942 0.100823 0.248952
0.462989 0.063402 -0.084938
0.149413 0.274163 -0.309791
0.347411 -0.059364 0.073850
-0.358719 0.232801 -0.183415
0.093737 -0.195986 -0.212968
0.237527 0.273019 -0.487078
-0.025186 0.336363 -0.366983
0.123961 0.022887 -0.493278
0.221571 0.250988 -0.340821
0.035446 0.318992 -0.067200
0.287805 0.274671 -0.037067
-0.018265 0.292878 -0.009030
-0.427362 0.091771 -0.426350
-0.085441 0.042923 -0.490799
0.317516 -0.220811 0.255744
0.125571 0.051499 0.113085
0.447516 0.027673 0.199629
0.337195 -0.028006 0.322309
-0.376196 0.203965 -0.183251
-0.295071 -0.078724 -0.025138
-0.435121 -0.017777 -0.336582
0.110314 -0.169610 -0.153680
-0.215461 0.217580 0.075741
-0.405762 0.130965 -0.197049
0.113278 0.138510 -0.492588
0.345460 0.316999 0.171169
-0.013647 -0.005893 -0.491683
-0.205635 0.030587 0.118985
-0.332327 0.263575 -0.335468
-0.183416 0.329979 -0.383660
0.328200 0.016848 -0.492781
-0.047311 -0.221149 -0.120019
0.269363 0.280891 -0.233279
0.069373 0.310092 -0.073145
0.243364 0.151161 -0.492779
0.323832 -0.342380 0.450026
0.193754 -0.043467 0.297361
0.333715 0.048259 -0.490766
-0.184726 0.249583 0.047100
-0.215816 -0.129728 -0.046072
0.225385 0.283833 -0.252267
-0.390805 0.126482 -0.443172
-0.311934 0.253946 -0.062629
0.474534 0.192947 0.215756
0.112846 0.294227 -0.376253
-0.156738 0.002179 -0.489399
0.045776 0.046530 0.120365
0.372567 -0.323931 0.401956
-0.470547 0.149997 -0.259739
-0.040075 -0.187856 -0.416952
0.014151 0.166489 0.110610
0.056618 0.281791 -0.486752
0.170861 -0.144200 -0.448405
0.114401 -0.160418 -0.175951
0.189151 -0.088996 -0.291028
0.093044 0.257412 -0.488061
0.480559 0.109789 0.202070
0.444850 0.004138 0.049141
-0.091141 0.342750 -0.422507
-0.420541 0.192473 -0.251287
0.065666 0.246726 0.022648
-0.332250 -0.066520 -0.057147
-0.328404 -0.086880 -0.093306
-0.009761 0.048798 -0.491684
-0.291568 -0.136218 -0.216514
0.208492 -0.014373 0.353502
-0.204001 -0.068353 -0.486805
-0.276333 0.208454 -0.471444
0.371785 -0.214201 0.401171
-0.309335 -0.119935 -0.223781
0.366080 -0.057590 0.201268
0.314634 -0.368798 0.354608
0.045459 -0.195651 -0.424528
-0.365349 0.244705 -0.331730
0.302293 0.269650 -0.006048
-0.069698 0.335571 -0.453347
-0.369413 -0.066927 -0.345748
0.331384 0.274228 0.237181
0.316795 -0.061184 0.312880
-0.030426 -0.148180 -0.490113
0.105601 -0.159243 -0.082035
0.341682 -0.088664 -0.069351
0.022633 0.330451 -0.078316
0.015037 -0.197344 -0.413786
0.446897 0.021567 0.023767
0.387713 -0.172801 0.368045
-0.352660 0.065639 -0.001899
0.412204 -0.007818 -0.011776
-0.260395 -0.151130 -0.341012
-0.426787 -0.026261 -0.325718
-0.239083 -0.001947 -0.486344
0.224512 0.266511 0.049563
0.343008 -0.067920 0.335667
0.015050 -0.069310 -0.492072
-0.062315 -0.219899 -0.302841
0.465861 0.088343 -0.090256
-0.203834 0.225579 0.072429
0.158673 -0.099412 0.024719
-0.308540 -0.009033 0.034763
0.334903 0.102890 -0.487859
-0.002676 -0.051128 0.346369
0.143788 -0.122587 -0.205970
-0.127809 0.223657 0.091353
0.053952 0.220832 -0.489527
0.005409 0.353492 -0.409364
0.446703 0.057321 -0.004215
0.135256 0.290479 -0.177641
-0.194176 -0.148993 -0.424819
0.139678 0.232207 -0.489407
-0.250435 0.006511 0.086207
-0.147398 -0.207646 -0.167503
0.213155 -0.121545 -0.200977
0.304333 -0.087077 -0.012773
-0.434316 0.187882 -0.262488
0.118356 0.332651 -0.480169
0.079841 0.326894 -0.192269
0.468916 0.121348 0.011104
0.221914 0.316839 -0.447677
0.081835 0.147983 -0.491905
-0.056861 0.276108 0.024348
0.271634 -0.035160 0.182611
0.394698 -0.035061 0.213243
0.059290 0.162444 0.103993
-0.247488 0.223498 -0.478730
-0.149544 0.176070 0.122507
-0.236808 -0.158546 -0.131313
-0.094711 0.378100 -0.277565
0.287408 -0.059033 -0.489203
-0.076559 0.326296 -0.470508
0.217225 -0.132189 -0.169237
0.328678 0.180791 -0.454742
-0.174094 0.319702 -0.420556
0.091292 -0.010813 0.410653
-0.281312 0.207847 -0.469479
0.211885 0.060298 -0.493936
-0.181326 0.354994 -0.291063
-0.155371 -0.097636 0.045433
0.012772 0.259984 0.024994
-0.025188 -0.160779 -0.038961
0.065390 -0.032499 0.096120
0.205236 0.007541 0.147052
-0.404115 -0.042602 -0.284296
0.287365 -0.062701 0.086684
0.437086 -0.010106 -0.109164
0.168259 -0.137556 -0.160020
0.346109 0.062522 -0.306086
-0.263552 0.321510 -0.213539
-0.398220 0.143924 -0.152138
0.180171 0.138199 0.134001
0.323674 -0.357521 0.342492
0.422113 -0.011480 0.163433
0.491479 0.232150 0.058242
-0.386229 0.051353 -0.067659
0.116733 -0.102705 0.018850
0.422560 -0.011236 0.190731
0.283181 0.163592 -0.400023
-0.153700 -0.115760 -0.488198
0.060869 0.342287 -0.133601
0.463607 0.301039 0.043473
0.427564 0.013731 0.251535
-0.019883 0.372876 -0.226678
-0.313480 0.206649 0.007268
0.312526 0.330369 0.077648
-0.083974 -0.223780 -0.241171
-0.002217 -0.234155 -0.275211
0.211348 -0.124103 -0.486660
0.343497 0.248398 0.263086
-0.080987 0.338360 -0.439423
-0.280031 -0.134928 -0.352765
0.013124 -0.148131 0.419144
-0.417983 0.136122 -0.426266
0.143343 0.220373 0.053508
0.356205 0.032272 -0.469742
0.080069 0.353030 -0.456157
-0.057919 -0.177877 -0.057370
0.203752 0.134882 0.234602
0.076653 -0.004354 0.369939
0.433856 0.031494 -0.197090
-0.396772 0.007844 -0.203747
-0.024803 -0.181816 -0.438901
0.257366 -0.039788 -0.337949
0.169497 0.051726 0.307692
0.461526 0.056265 -0.096308
0.462230 0.023384 0.093746
0.359027 0.266647 -0.030832
-0.182712 -0.184464 -0.331864
-0.205039 -0.185140 -0.221347
0.477794 0.197303 0.171293
-0.042351 0.102119 -0.491193
0.457476 0.163986 -0.116436
0.289862 -0.092388 -0.004451
0.356325 0.272791 -0.065286
0.086639 0.301865 -0.072467
-0.340632 0.251579 -0.119231
-0.054110 0.170002 -0.489402
0.372982 -0.045585 0.102394
0.178211 -0.094351 0.033472
-0.444516 0.192931 -0.285104
-0.242724 -0.164851 -0.208556
0.317569 0.288279 -0.171601
0.453895 0.054593 0.236863
0.341507 -0.065251 0.017161
0.176804 0.064142 -0.493862
0.291533 -0.153364 0.274435
-0.266342 -0.105360 -0.043838
-0.341664 -0.068506 -0.085142
-0.023298 -0.033419 -0.491592
-0.138756 0.225818 -0.486838
0.265416 0.061291 -0.493763
-0.058880 -0.121374 0.014130
-0.422580 0.212286 -0.321187
0.290222 -0.309111 0.397341
0.117719 -0.128273 -0.022930
-0.176232 -0.124124 -0.482725
0.277462 0.154582 -0.341921
0.330539 0.275094 -0.190632
0.394424 -0.036302 0.064739
-0.253823 -0.160655 -0.278397
0.205228 0.000523 0.157832
0.145740 0.277110 -0.292742
-0.330026 0.159528 0.021021
0.283042 0.146021 0.295643
0.124616 0.207287 0.053861
0.360250 -0.252920 0.274031
-0.416734 0.008316 -0.410464
0.229531 -0.072518 -0.316329
0.280472 0.108757 0.303529
0.103208 -0.114636 -0.331408
0.477610 0.225917 0.135801
0.439134 0.149091 -0.184792
0.485075 0.219207 0.117470
-0.372939 0.242247 -0.318484
-0.321910 -0.005166 0.020003
-0.398407 0.128298 -0.135552
0.307576 0.088539 -0.491406
0.430805 -0.010448 0.125568
-0.125470 -0.218980 -0.192304
0.263308 0.286852 -0.485942
0.308003 0.300358 0.126229
0.220444 -0.057316 -0.346299
0.414813 0.289953 0.209715
0.391713 0.348816 0.130194
0.130760 -0.050953 0.289001
-0.269948 -0.103644 -0.423088
0.208945 0.060907 0.347715
0.136034 -0.082187 0.047214
0.394558 -0.203036 0.340093
-0.263635 -0.150893 -0.313641
-0.257391 0.038574 0.091605
-0.136211 0.267103 0.035752
-0.363877 0.249085 -0.267618
0.333769 -0.094964 -0.076512
-0.490730 0.048790 -0.298573
-0.411536 0.091756 -0.191612
-0.284042 -0.132518 -0.140632
0.364940 -0.088493 -0.170131
0.010020 0.247452 0.043754
-0.158711 0.352133 -0.107889
0.255107 -0.011137 -0.362140
0.429991 0.080267 -0.216431
-0.157145 -0.078235 0.067236
-0.368145 0.227412 -0.237408
0.122078 0.276444 -0.298865
0.262661 0.235240 0.203688
0.286730 -0.208668 0.334799
0.375085 -0.067665 0.231027
-0.383258 0.061523 -0.450684
0.051181 0.306805 -0.343426
0.021812 -0.233072 -0.149986
0.174427 0.223350 0.081600
0.292573 0.280722 -0.214358
-0.263679 0.295539 -0.362673
-0.073757 0.032641 -0.490945
0.144418 -0.104457 -0.254556
0.066122 0.305622 -0.318033
0.128398 0.265072 -0.035709
0.449170 0.125364 -0.176812
0.487233 0.098740 0.037392
0.237602 0.034836 0.331828
-0.248202 -0.154831 -0.144227
0.393078 0.249291 -0.012536
-0.081666 -0.209430 -0.327906
-0.372300 0.185251 -0.088914
0.000340 0.157868 -0.490483
0.012918 0.377882 -0.182688
0.057464 0.316608 -0.377055
0.032021 0.335955 -0.279705
0.237838 -0.055742 -0.404499
0.304591 0.082595 0.308072
0.448512 0.264661 0.202548
-0.239085 0.033867 0.102195
-0.046136 -0.161410 -0.474217
-0.136639 0.376475 -0.225638
0.003121 -0.048643 0.353306
-0.255077 -0.151275 -0.360629
0.353562 -0.059019 -0.012236
0.309250 0.028695 0.315360
-0.397656 0.109282 -0.118251
-0.156436 0.370044 -0.244697
-0.249822 0.307792 -0.352007
0.076629 0.344503 -0.476918
0.359350 -0.330851 0.379008
0.385568 -0.285347 0.428633
0.060957 -0.176304 -0.486035
-0.317662 -0.113152 -0.214859
0.000501 -0.158373 0.440844
-0.017640 -0.219752 -0.114116
0.326932 0.276905 -0.052916
-0.018049 0.175108 0.112778
0.320904 0.280310 -0.190626
0.066570 0.014254 0.113036
0.491730 0.222264 0.057485
-0.433833 -0.005261 -0.265141
-0.111666 0.139041 0.133031
-0.007435 -0.058044 0.352793
-0.175069 0.053812 0.130815
-0.221893 0.217693 -0.484326
0.284429 -0.118410 -0.116299
-0.311491 0.212552 -0.453554
-0.319217 0.042539 0.041349
0.287847 -0.371954 0.421492
-0.403432 0.003997 -0.235470
-0.289587 0.228235 0.011803
0.366875 0.268423 -0.069714
-0.352730 0.240776 -0.171104
-0.175620 0.114339 -0.488671
0.332799 -0.342531 0.327522
-0.191619 0.212288 0.091226
0.262352 0.103966 0.301892
-0.458977 0.186151 -0.313064
0.291988 0.273499 -0.231159
0.118822 -0.133707 -0.216530
0.046981 -0.234098 -0.201574
0.354413 0.174226 0.293101
-0.019649 -0.142575 -0.016642
0.182856 -0.000973 -0.493550
-0.402349 0.030403 -0.224720
0.031872 -0.013764 -0.492225
0.289353 -0.294664 0.328404
0.090985 -0.166870 -0.273361
0.293429 0.252668 -0.268275
0.194514 0.252369 -0.364151
-0.361143 0.229593 -0.170101
0.465824 0.267006 0.154498
0.153672 0.298704 -0.392240
0.280284 0.249792 0.224021
-0.217603 0.259997 0.017493
0.441910 0.068884 -0.198268
0.106647 0.084745 -0.493024
0.338755 -0.052794 0.116202
0.051550 -0.215533 -0.270297
0.063763 -0.183909 -0.473972
0.251826 0.257656 -0.299258
0.297807 0.281349 -0.208350
0.330845 0.329266 0.028135
0.073779 0.228416 0.044796
0.261595 0.022561 -0.365256
-0.488207 0.050046 -0.284235
-0.214412 0.329427 -0.342231
-0.218608 -0.177029 -0.203261
-0.059128 -0.047333 0.096430
-0.065171 -0.217534 -0.311146
-0.394709 0.121138 -0.108399
0.032660 -0.204920 -0.100821
0.025426 0.355708 -0.464431
0.117330 -0.084079 -0.493031
0.356247 0.125914 0.300411
0.083273 0.282552 -0.363427
0.295456 0.071923 0.309828
0.252963 -0.126666 -0.088172
-0.218661 -0.120894 -0.455815
0.213365 0.293648 -0.206251
-0.262110 0.313743 -0.277246
-0.026988 0.363589 -0.290825
-0.371684 0.238857 -0.256362
-0.255998 0.209916 0.062059
-0.201302 -0.074723 -0.486767
-0.305158 0.032253 0.053240
0.215711 -0.125176 -0.046976
-0.352291 0.249542 -0.348536
-0.384405 0.237211 -0.306844
0.343676 -0.340662 0.356951
0.191847 -0.086026 -0.492992
0.418013 -0.037404 -0.103463
-0.081518 0.069478 0.133959
0.305117 -0.168577 0.357093
0.295249 -0.105325 -0.213001
-0.114615 -0.141046 -0.009194
-0.127140 0.377644 -0.167598
0.186233 0.296694 -0.182049
0.287144 -0.184270 0.326594
-0.162261 -0.123040 0.001827
0.388712 -0.025583 0.303677
-0.337738 -0.097435 -0.190247
-0.239963 0.292901 -0.406115
0.364168 -0.185007 0.390669
-0.422023 0.002744 -0.244636
0.466324 0.275795 0.025276
0.072261 -0.124389 -0.003650
-0.047888 -0.124791 0.376892
0.274293 0.215992 -0.322386
-0.231214 0.115271 -0.487010
-0.206372 -0.179824 -0.147183
0.443125 0.005794 -0.143262
0.308010 -0.359319 0.445222
0.387903 -0.268753 0.417684
-0.468333 0.112998 -0.242864
0.140098 0.176270 -0.491962
0.477397 0.241175 0.130369
0.371356 -0.072383 -0.071497
-0.150950 0.082340 0.137172
-0.459954 0.015816 -0.364122
0.412249 0.042769 0.295300
-0.479459 0.130613 -0.366081
0.256244 0.189927 0.279405
0.121146 -0.144061 -0.091371
-0.010994 -0.112483 -0.491793
-0.041839 0.178376 0.115781
0.479183 0.193541 0.157223
0.256511 -0.033901 -0.344505
-0.193945 -0.189710 -0.272336
0.280379 0.072647 -0.388961
0.026094 -0.173509 -0.479456
0.363473 -0.339346 0.430931
0.011658 -0.239638 -0.239048
0.237849 -0.078955 -0.300354
-0.252803 -0.030639 -0.481015
-0.186151 0.050618 0.127903
0.354078 0.028520 -0.291870
0.386871 0.351165 0.094817
-0.219351 0.078080 0.117283
-0.441726 0.200000 -0.313024
0.302139 0.317431 0.055063
-0.171882 0.330159 -0.396051
0.000784 0.057695 -0.491801
0.267611 0.237972 0.219752
0.437085 0.034758 -0.016549
-0.249466 0.311605 -0.094679
-0.357173 -0.073799 -0.196415
0.050217 -0.194172 -0.413322
0.240384 0.269612 -0.025144
-0.035955 -0.148736 0.440949
0.240254 -0.092100 -0.455384
0.291771 -0.382611 0.376291
-0.091462 -0.194192 -0.085935
0.077630 0.158571 -0.491591
0.014729 -0.174435 -0.472938
-0.336057 0.124379 0.020150
0.242894 0.178323 0.278969
-0.090266 -0.146367 -0.014591
-0.407066 0.048995 -0.186753
0.382265 0.140728 0.294118
-0.330015 0.264529 -0.222860
-0.077903 0.382927 -0.190005
0.105598 -0.164156 -0.492443
0.064823 -0.180740 -0.480948
0.286898 -0.218931 0.313881
-0.277432 0.034944 0.076316
0.157701 -0.116975 -0.219470
0.005581 -0.152796 0.420144
0.014964 0.282923 -0.008211
-0.184756 0.294415 -0.020999
-0.318396 0.019899 0.036932
0.437531 0.154818 -0.184751
0.183277 0.059744 0.300444
-0.094419 -0.040078 0.101435
-0.254912 0.246384 -0.469730
-0.271571 0.103238 0.086943
0.024052 0.325596 -0.332064
0.277443 0.130517 -0.392238
0.269473 0.293813 -0.431770
0.470750 0.301086 0.067757
0.254231 -0.126474 -0.089523
0.337044 0.113593 -0.310830
0.107922 -0.134010 -0.025398
0.385920 -0.170404 0.368945
0.329323 -0.142943 0.365447
-0.099129 0.385301 -0.225265
0.045844 0.358285 -0.170104
-0.020813 -0.102573 0.033230
-0.023414 -0.172512 -0.460093
0.405520 0.234366 -0.109958
-0.096527 0.348360 -0.405648
-0.225521 0.108078 -0.487331
0.238788 0.223039 0.156441
-0.021675 -0.156732 0.394758
0.363743 -0.066349 0.332365
0.463062 0.114456 -0.052383
-0.075983 -0.159478 -0.465345
-0.096294 -0.033392 -0.490460
0.460215 0.146712 -0.069717
0.274457 -0.042816 0.123099
-0.247268 0.096905 0.103080
0.149555 0.282650 -0.257989
-0.194509 -0.098038 0.024812
0.329479 0.275408 -0.191220
-0.369382 0.212990 -0.231036
0.321274 -0.085924 0.205032
0.243161 -0.131741 -0.115970
0.111871 0.257659 -0.011138
-0.094215 -0.226367 -0.199161
0.253845 -0.089635 -0.472338
-0.218776 -0.174763 -0.326767
0.314090 0.294036 0.170057
0.138383 -0.086831 -0.298846
-0.320618 0.039552 -0.472954
0.276118 0.251975 0.192886
0.374522 0.264563 -0.074633
-0.257133 0.256593 -0.002429
0.159174 0.113582 -0.493618
0.479962 0.163710 0.204953
0.130751 0.158581 0.096808
0.045587 -0.057312 0.463613
0.263092 -0.037267 -0.335321
0.325442 -0.085218 0.203213
0.293007 0.205641 0.282562
-0.402196 0.028169 -0.212524
0.151854 -0.045026 0.399647
0.183225 0.025493 0.289925
-0.215131 -0.181894 -0.266682
-0.480364 0.030487 -0.288330
-0.195418 0.152602 0.119605
0.242867 0.211961 -0.351792
0.253304 -0.115021 -0.037691
0.261916 -0.022122 0.196372
0.048652 -0.061688 0.071767
0.084031 0.327335 -0.144917
0.380149 0.180813 0.288263
0.358959 0.347301 0.113261
0.119424 -0.155423 -0.145320
-0.465699 0.160194 -0.263480
-0.294919 0.291570 -0.296100
0.212751 0.198393 0.139521
0.073260 0.183447 0.089509
-0.023072 0.333211 -0.478036
0.184883 0.174453 0.128609
0.336053 0.061795 0.309962
0.110699 -0.165894 -0.136833
-0.394954 0.123030 -0.111146
0.345283 0.269846 -0.036519
0.291968 -0.044260 0.214247
0.397885 0.190461 -0.225610
-0.122217 0.228383 0.087181
0.342084 0.171389 -0.288309
-0.399108 0.193245 -0.406808
-0.496173 0.097405 -0.328123
0.286157 -0.362013 0.363358
-0.098628 -0.013716 0.115715
0.305854 -0.208756 0.264385
0.347272 -0.009679 0.319468
-0.221354 -0.099565 0.003366
-0.210976 0.338856 -0.299237
0.012729 -0.079384 0.448979
0.302373 0.232178 0.271165
0.341380 -0.081637 -0.218504
0.091750 0.350629 -0.450543
0.431544 0.328949 0.140590
0.177412 -0.106410 0.008761
0.207507 0.088228 0.332809
-0.352701 0.017708 -0.455463
0.293808 0.184125 0.288471
-0.001026 -0.135158 -0.491873
0.004120 0.330256 -0.482835
-0.114308 0.316213 -0.032651
0.375364 -0.058737 -0.042590
-0.163694 0.231396 0.081975
-0.020265 -0.086679 0.387968
0.310235 -0.070262 0.072602
-0.188239 -0.137554 -0.454592
0.216476 0.302320 -0.140324
-0.012022 0.188324 -0.489576
0.181115 0.062366 0.280395
-0.379721 0.203453 -0.412957
0.154534 0.223768 0.060399
0.145501 0.129220 -0.493279
0.087146 0.317808 -0.206173
-0.236002 0.273091 -0.012088
0.490580 0.239093 0.084506
0.139469 0.285629 -0.222332
-0.221635 -0.108796 -0.013153
-0.205579 -0.074881 0.053655
0.184398 -0.138615 -0.118069
0.442473 0.002131 -0.104691
0.202239 0.229111 -0.489523
-0.441311 0.068322 -0.412911
-0.067914 -0.130066 0.004109
-0.422267 0.044033 -0.423590
0.317083 0.013745 -0.492978
-0.091706 0.254361 0.059524
-0.366502 0.040770 -0.455363
-0.383015 0.176299 -0.115375
0.475072 0.292235 0.088582
0.230890 -0.130684 -0.171822
-0.161586 0.328987 -0.407679
0.144181 -0.062128 0.308967
0.214399 0.142094 0.255717
0.137069 0.129795 0.111445
0.302237 -0.111618 -0.117966
-0.208426 0.114589 -0.487697
-0.128767 -0.118505 0.022215
-0.158980 -0.014608 -0.489257
0.037340 0.342623 -0.237143
0.454628 0.315045 0.076581
-0.312297 -0.067588 -0.028336
-0.046819 0.293913 -0.486008
0.187851 -0.049046 0.100764
0.229366 0.315591 -0.449722
0.110888 -0.149948 -0.396505
0.086479 -0.042841 0.086713
0.107807 0.019669 0.340350
0.029717 0.337149 -0.280259
-0.471821 0.110142 -0.384061
0.197542 -0.063078 0.086169
0.210489 -0.070369 -0.394151
-0.386623 0.184392 -0.180552
0.359378 0.096452 0.303975
-0.330573 0.244161 -0.077166
0.291087 -0.217380 0.295378
0.474995 0.225804 0.157670
0.025270 -0.232587 -0.260765
-0.348197 0.229362 -0.413129
-0.401873 0.106071 -0.141583
0.010793 -0.105130 0.490626
0.386225 0.004318 0.308562
-0.000646 -0.199961 -0.395832
0.305575 0.297775 -0.135832
0.182605 -0.006408 -0.493514
0.299231 -0.187691 0.357799
-0.205147 0.029614 0.119097
-0.365445 -0.054605 -0.118639
-0.093401 -0.028942 -0.490546
0.413542 0.216875 -0.015781
-0.257685 0.108493 -0.486026
0.274719 -0.028795 0.231788
0.237533 0.092344 -0.494133
0.126589 0.272830 -0.306247
0.180974 0.260606 -0.001568
-0.319652 0.230427 -0.037093
-0.211122 -0.176101 -0.333332
-0.380068 -0.049573 -0.372021
0.061439 -0.040332 0.091452
0.327227 0.218981 -0.274332
-0.039636 -0.033817 0.103708
-0.033587 0.178759 -0.489491
0.114934 -0.160145 -0.172930
0.476279 0.219986 0.149363
0.145768 0.324572 -0.421919
0.290115 0.077898 0.309170
-0.353720 0.218289 -0.088229
0.454382 0.230317 0.223705
0.195044 0.017463 0.162233
0.437127 0.027046 -0.186410
-0.358929 0.012706 -0.026267
0.353317 0.128021 -0.297876
-0.270099 0.306920 -0.291221
-0.339945 -0.082363 -0.109786
0.407883 0.050155 0.296814
-0.096187 -0.160716 -0.035137
0.282496 -0.032321 -0.422003
0.223673 -0.079822 0.055768
0.091359 0.319662 -0.169151
-0.041626 -0.176215 0.445200
0.467422 0.271025 0.024094
0.251317 0.287380 -0.066505
0.344043 -0.229402 0.249266
-0.167006 0.368157 -0.189276
0.203832 0.025998 -0.493716
0.338063 0.119878 -0.309082
0.414770 0.065984 0.293012
0.481350 0.114003 0.197605
-0.301874 -0.126979 -0.245819
-0.015886 -0.178812 -0.449538
0.382891 0.099810 0.299676
0.131625 -0.093930 -0.279065
-0.046938 0.251097 -0.487379
0.491479 0.122669 0.044711
-0.187725 -0.127580 -0.022568
-0.168463 0.274553 0.015027
-0.303476 -0.111709 -0.111318
-0.239558 -0.137977 -0.403172
0.280319 -0.096588 -0.008979
0.130459 -0.060277 0.409380
0.099823 -0.175871 -0.419149
0.146758 -0.173793 -0.468025
-0.356664 0.116862 -0.009786
-0.312542 -0.084107 -0.059169
-0.273899 0.304524 -0.111917
0.111802 0.065235 -0.493100
0.205605 -0.004387 -0.493517
-0.343215 -0.092386 -0.145767
0.243677 0.179618 -0.491717
0.430774 0.194217 -0.038622
0.299298 0.274078 -0.449867
-0.346541 -0.084008 -0.349071
0.385621 -0.091930 0.324777
0.434727 0.262085 0.003675
-0.231777 0.086415 0.111213
-0.389718 -0.056727 -0.285880
-0.401158 0.078952 -0.124124
0.380686 -0.069871 -0.081209
0.477952 0.186811 0.189889
0.314506 0.204114 -0.435249
0.350749 -0.060359 0.037972
0.149330 0.189546 0.093591
0.012220 0.230396 0.065068
0.154620 0.283039 -0.258716
0.345066 -0.149583 0.231216
-0.240637 -0.062450 0.045513
-0.292274 -0.013746 -0.471496
0.006825 -0.212655 -0.107750
0.119056 -0.045518 0.427347
0.482253 0.141451 0.211658
0.136719 0.027214 0.357689
-0.215576 0.030858 -0.488056
0.419454 -0.015386 -0.187451
-0.341904 -0.092667 -0.300757
0.379351 -0.060067 -0.053789
0.209233 0.243983 -0.359410
0.450561 0.298800 0.026385
-0.064197 -0.056790 0.086869
0.213779 -0.061982 0.089653
0.377242 0.329006 0.173488
-0.102064 0.352198 -0.389834
-0.031506 0.379177 -0.217915
0.413420 -0.043942 -0.120438
-0.383605 -0.026335 -0.132819
-0.240759 0.337717 -0.193365
0.070597 0.333478 -0.201081
0.364678 0.270421 -0.132173
-0.484345 0.141548 -0.344743
0.027804 -0.106864 0.023077
0.068370 0.307614 -0.305891
0.323481 0.034169 -0.318626
-0.210603 0.296268 -0.445850
-0.272575 -0.093235 -0.028852
0.366919 -0.327478 0.394025
0.377345 -0.312960 0.441587
-0.180958 0.330575 -0.078771
0.321976 0.172428 -0.438601
0.066199 -0.223550 -0.173018
-0.193729 0.354820 -0.152885
0.167738 -0.106589 0.009208
-0.037245 0.353521 -0.430057
-0.170542 -0.064098 0.076941
0.282341 0.249226 0.236863
-0.038085 -0.234295 -0.150735
0.260761 0.269840 -0.267630
-0.087977 -0.169925 -0.436874
0.293621 -0.013349 -0.327236
0.375131 -0.045133 0.091039
0.301708 0.274888 0.204388
0.015745 -0.198349 -0.403102
-0.059083 -0.178658 -0.430518
0.320315 0.064644 -0.420020
0.421556 0.002649 0.250669
-0.061241 0.227224 0.087252
0.360636 -0.310447 0.343273
-0.247659 0.010212 0.089790
0.196794 0.270619 -0.318298
0.279525 -0.034146 0.231823
0.381930 -0.181501 0.379265
-0.005846 -0.127905 0.000337
-0.279385 -0.067347 -0.454917
0.281138 0.143095 0.296001
0.300934 -0.021749 -0.315699
-0.001806 -0.237531 -0.252250
-0.291319 0.019449 -0.478433
0.444604 -0.004858 0.102927
0.067427 0.051011 -0.492590
-0.321987 0.009703 0.027896
0.291967 -0.249645 0.373444
-0.115746 0.187761 -0.488081
0.333489 -0.046568 0.136256
-0.344439 0.250688 -0.199251
-0.058715 0.373323 -0.291809
0.471839 0.298355 0.062258
-0.208361 0.128495 -0.487403
0.451289 0.308067 0.134366
0.362459 0.352456 0.069245
0.299153 -0.020905 -0.317895
0.251347 0.295222 -0.483942
-0.287646 -0.106727 -0.394935
0.286699 -0.234360 0.348464
0.463904 0.122827 -0.134529
-0.393568 0.120147 -0.100837
-0.215171 0.200333 -0.485627
-0.198559 -0.028160 0.093319
0.391731 -0.300327 0.427347
0.389779 -0.286386 0.388137
0.119597 0.206417 -0.490715
-0.435175 0.060797 -0.417080
-0.189191 -0.163541 -0.395367
0.353078 -0.076490 -0.052329
0.498277 0.129832 0.072344
0.104906 -0.099095 0.024673
0.382232 0.215589 -0.222725
0.068692 0.273080 -0.015704
0.418830 0.010624 0.279485
0.214803 -0.102457 0.013314
-0.477371 0.053886 -0.367307
-0.030744 -0.086783 0.051782
0.315876 0.335733 0.073669
-0.119044 -0.113115 -0.489476
0.053035 -0.062799 0.469658
0.340774 0.113671 -0.482800
-0.299131 -0.112347 -0.105472
-0.142176 -0.191906 -0.348942
-0.235231 -0.123873 -0.049363
-0.121430 0.323784 -0.045806
0.286960 -0.290489 0.335590
0.195778 -0.074469 0.069035
0.327269 -0.097243 -0.074259
0.178246 0.213180 0.099078
0.446726 0.321611 0.105396
0.375427 -0.059615 -0.044736
-0.164509 0.319822 -0.053249
0.328995 0.075940 -0.319955
-0.303088 0.220569 -0.454741
0.205755 0.323045 -0.454502
0.003488 -0.042162 0.338028
0.357130 -0.080802 -0.200931
-0.147941 -0.195639 -0.324151
-0.122008 0.136693 -0.489209
0.305090 0.156618 -0.489147
-0.063174 0.353544 -0.411829
0.414046 0.332962 0.055783
0.095154 -0.127558 -0.010123
-0.229997 0.154247 0.104811
0.215374 0.295662 -0.094165
0.351607 -0.091178 -0.107437
-0.190938 -0.134202 -0.459891
0.131073 0.284466 -0.222756
-0.097376 -0.131039 -0.489377
-0.129360 0.135969 0.134816
0.220694 0.280351 -0.047740
0.353548 -0.067114 -0.224033
-0.260357 -0.060900 0.032440
0.189223 -0.001253 0.208269
0.254081 0.074070 -0.493938
0.445998 0.183664 -0.097681
-0.333096 0.141243 0.021087
