ply
format ascii 1.0
element vertex 1685
property float x
property float y
property float z
end_header
0.047131 -0.071487 0.317150
0.248514 0.202509 0.215619
0.213955 -0.019464 0.334949
-0.043990 -0.149119 0.421504
0.251035 0.113221 -0.338965
-0.101069 0.292614 -0.046556
0.117271 0.189932 0.071156
-0.263092 0.322798 -0.190138
0.312677 0.026348 -0.312984
0.325123 0.340169 0.050236
-0.401593 0.076011 -0.131420
0.137686 -0.056808 0.077078
0.077427 -0.096020 0.427783
0.210691 -0.045505 -0.385807
0.308258 0.259654 -0.454850
0.387185 -0.037790 -0.220069
0.187692 0.062655 0.139905
0.449695 0.123233 -0.163833
0.327457 0.004297 -0.299665
-0.491708 0.138301 -0.284239
-0.004206 0.111620 -0.462180
0.390126 -0.104887 0.319016
0.423031 0.212717 -0.107356
0.387324 -0.065399 0.294331
0.072945 -0.179838 -0.293593
-0.183345 -0.179959 -0.348364
0.462195 0.062403 -0.130289
0.298598 0.227427 -0.486612
0.379101 -0.232353 0.354754
0.390336 0.202784 0.279228
0.075646 -0.153853 -0.107121
0.476012 0.177647 0.215243
0.271059 0.263444 -0.019239
-0.322300 -0.100911 -0.283314
-0.366408 0.218573 -0.221324
0.290446 -0.027170 0.230194
-0.298838 0.035985 0.059301
-0.045756 0.057639 0.126481
-0.024053 -0.238739 -0.187374
-0.155852 -0.159926 -0.085372
-0.036726 -0.102884 -0.477900
-0.391817 0.174234 -0.263297
0.317451 -0.166576 0.241268
0.207685 0.046066 0.177327
-0.198543 0.092912 -0.479099
0.049431 -0.075563 0.047888
-0.309738 0.097167 0.053506
-0.379838 0.196860 -0.188770
-0.042697 -0.192264 -0.385224
0.022600 0.315383 -0.324683
0.010080 0.208827 0.076520
0.186262 -0.118832 -0.470484
0.488986 0.087718 0.112017
0.270348 0.245128 0.008343
0.117322 -0.052444 0.069340
0.032078 -0.216499 -0.119768
0.290203 -0.343149 0.353484
-0.476384 0.168982 -0.311073
0.143250 0.285442 -0.195344
-0.386558 -0.032641 -0.370552
0.293008 0.257770 -0.422785
0.316761 0.260044 -0.229140
-0.342519 0.251800 -0.130469
0.173197 0.030084 0.120965
0.455049 0.040467 -0.090571
-0.362310 0.008912 -0.443826
0.005646 -0.133699 0.491172
0.299687 -0.231304 0.286952
0.117530 0.269501 -0.299725
0.086596 0.006017 0.292250
0.296612 0.300764 0.087696
0.435002 0.222067 0.251130
0.228635 -0.113863 -0.209887
0.238497 0.203721 0.171663
-0.039942 0.348654 -0.345270
-0.494681 0.073587 -0.279726
0.168151 -0.093047 0.027473
-0.162109 -0.201015 -0.179414
-0.382057 0.204603 -0.320282
0.290948 -0.110772 -0.100453
0.427153 0.150216 -0.203505
0.386693 0.298743 0.215862
0.069998 0.318621 -0.164858
0.247794 -0.110597 -0.028710
-0.007442 0.201387 0.089097
0.454333 0.059423 -0.156970
0.222803 0.275192 -0.407694
0.106209 0.114871 -0.489777
-0.051143 -0.153465 0.393632
0.437517 0.322627 0.055682
-0.372402 0.209069 -0.211542
-0.245949 0.255076 -0.000513
0.061256 0.281271 -0.481899
0.494682 0.168224 0.096528
-0.387929 0.079556 -0.070624
0.489550 0.158609 0.128145
-0.312043 0.029309 -0.472394
-0.400891 0.165234 -0.263677
-0.400722 0.107134 -0.150772
-0.014574 -0.164235 -0.439636
-0.390489 -0.003809 -0.130145
0.300973 0.299714 0.104285
0.045287 -0.145271 -0.069090
0.198303 -0.050804 -0.386667
-0.013436 0.299739 -0.067934
0.394942 -0.159225 0.334609
0.116583 0.118228 -0.486295
0.417950 -0.001257 -0.013873
0.313294 0.039468 -0.316383
-0.041629 0.329156 -0.440794
0.377377 -0.198919 0.332887
0.449593 0.099898 -0.171791
-0.412402 0.056180 -0.433149
0.412038 0.345401 0.129555
0.071440 -0.017558 0.336702
0.217148 -0.043184 -0.402474
0.160581 -0.094018 0.026374
-0.085864 0.316088 -0.448487
-0.072884 -0.139221 -0.043804
-0.215594 -0.177584 -0.205810
0.459573 0.042614 0.163222
0.057996 0.291783 -0.483946
0.468513 0.034290 0.059314
-0.325903 0.242291 -0.066624
0.367474 0.351044 0.065376
0.082994 0.337223 -0.431582
0.198991 -0.054614 -0.492272
0.312166 0.264070 0.232655
-0.313696 0.275032 -0.108261
-0.338266 -0.081154 -0.218834
-0.103060 0.310348 -0.446120
0.382180 0.295435 0.001526
0.039916 -0.165264 -0.093352
-0.330913 -0.082316 -0.309746
0.241068 -0.000443 0.221479
0.217935 0.275335 -0.408370
0.248250 0.243498 0.010076
-0.191682 0.336999 -0.330651
-0.312700 0.125551 -0.474352
0.272034 0.220971 -0.405499
0.336310 0.338654 0.109053
0.133574 -0.165662 -0.436247
-0.238839 -0.049954 0.057672
-0.090309 -0.051147 0.089597
0.494947 0.164615 0.103395
0.193937 -0.108743 -0.005119
-0.035525 -0.009168 -0.459107
-0.349732 -0.049733 -0.072097
0.182381 -0.078353 -0.433966
0.305533 -0.351184 0.438226
-0.011240 0.144959 -0.461971
0.202378 -0.026890 0.346241
0.225422 0.119188 0.237014
0.076829 0.246284 -0.329725
0.380500 -0.026974 0.013837
-0.044321 -0.120285 0.364337
0.162505 -0.104905 0.007344
0.088703 0.295090 -0.082706
0.388350 -0.020433 0.025220
0.495388 0.124830 0.109837
-0.412976 0.137266 -0.247088
0.200404 -0.008606 0.367703
-0.219186 0.291028 -0.427061
0.233211 0.165176 -0.398409
-0.034628 -0.136641 -0.028260
-0.218742 0.312194 -0.073201
0.291168 0.296514 -0.155272
0.440966 0.042042 0.002491
0.224796 0.299702 -0.137720
-0.107293 0.234714 0.081778
0.397675 0.121512 -0.256871
0.294882 -0.077327 0.241285
-0.258405 -0.053262 -0.434854
-0.332908 -0.086066 -0.291130
0.427935 0.013021 -0.187688
0.202284 0.290419 -0.079914
-0.335379 0.258590 -0.119973
0.259038 -0.034435 -0.493171
0.312524 0.077038 -0.429673
0.051224 0.134610 -0.464536
0.486964 0.231087 0.089245
-0.022823 -0.162067 0.474666
0.224402 -0.085525 0.043899
-0.091526 -0.158187 -0.072232
-0.172852 0.077139 0.133188
-0.155202 -0.109956 0.026064
0.104384 -0.064247 -0.351029
0.317819 -0.054624 0.033887
-0.082808 0.316402 -0.439862
-0.218840 0.008238 -0.486861
0.282913 -0.019234 -0.493168
0.251184 0.205934 0.212037
-0.034587 -0.170269 0.461588
-0.143978 -0.118542 0.010481
-0.490841 0.050313 -0.295858
0.104705 0.286801 -0.147556
-0.316907 0.128216 0.043596
-0.376911 0.178794 -0.092852
0.204029 0.036066 0.214504
0.310962 -0.263616 0.386208
-0.348752 -0.037417 -0.339357
0.146529 -0.136502 -0.492067
0.187707 0.183549 -0.490342
0.303238 0.209323 -0.428987
0.299191 -0.009677 -0.493052
-0.136770 0.368472 -0.135923
0.249199 0.166085 -0.489464
0.008666 -0.119919 0.002886
-0.214599 0.135893 -0.483791
0.423500 0.108703 0.284590
0.073148 -0.139448 -0.050528
0.095253 0.267149 -0.483588
0.080539 -0.136667 -0.327239
0.428649 -0.019407 -0.090603
0.085289 0.260500 -0.273139
-0.196259 0.003735 -0.487804
0.402755 -0.046870 -0.082153
-0.101787 0.276565 0.023220
0.041839 0.092152 0.106857
0.011974 0.276080 -0.008891
0.453572 0.309826 0.121269
-0.190865 0.343442 -0.114465
0.264138 0.075001 -0.405458
-0.030460 -0.121793 -0.489206
-0.118101 -0.106935 0.037473
0.244003 0.181114 0.266825
-0.448507 0.075260 -0.407678
0.056437 0.273810 -0.289072
0.027241 0.331448 -0.273588
-0.319232 -0.013747 -0.440504
0.103093 0.013240 0.322617
0.058677 -0.007157 0.086725
0.365958 0.280067 -0.002109
0.377551 0.197020 0.284002
0.324230 0.239795 0.268847
0.403549 0.030165 -0.241931
0.097530 -0.038731 0.284207
0.169457 0.043110 0.327454
0.232027 0.133165 -0.493509
0.438659 0.184793 0.009833
0.477857 0.111823 0.153448
0.280561 0.277669 0.071792
0.410071 -0.009750 -0.011052
0.377402 0.313874 0.196784
0.321830 0.014685 -0.426845
0.406010 0.091999 0.287851
-0.449387 0.194046 -0.337739
-0.399643 0.119419 -0.149458
0.392988 -0.009723 0.252523
0.289293 -0.365459 0.418335
0.230295 0.229355 0.039567
0.305632 0.261527 -0.449557
0.475022 0.101568 0.240548
-0.339202 -0.033732 -0.373140
0.086460 0.017850 0.314152
0.214714 -0.130454 -0.125886
0.352215 0.014317 -0.284691
-0.044319 0.251533 -0.456210
0.241116 0.108659 0.281684
0.154456 -0.064053 0.075796
-0.381322 -0.030617 -0.358520
-0.451010 -0.005329 -0.336959
-0.135450 0.324424 -0.072109
-0.330553 -0.041577 -0.019867
-0.015722 -0.009940 -0.459664
0.298740 0.168285 -0.459650
0.461426 0.280676 0.150467
-0.269877 0.292691 -0.333114
0.145290 0.265129 -0.343092
0.152165 0.158037 -0.485037
0.282665 0.273082 -0.037060
0.017629 0.230219 -0.458259
0.344138 0.262406 -0.200025
0.107926 -0.071772 -0.322129
0.403637 0.104178 0.289362
0.337682 0.252530 -0.025274
0.259008 0.192432 0.279633
-0.249674 -0.132496 -0.092885
0.105483 -0.154326 -0.162396
0.326917 -0.258674 0.399308
-0.387637 0.128902 -0.086369
-0.095141 -0.228561 -0.166878
-0.141814 0.050099 -0.487167
0.154574 0.222187 0.037327
-0.248201 -0.150351 -0.140457
0.091347 0.067610 0.102417
0.315624 0.293131 -0.154504
0.027820 0.005320 -0.461328
0.185380 0.019051 0.230015
-0.136059 0.111075 0.137659
-0.239383 0.280105 -0.440180
-0.170240 -0.140008 -0.452087
-0.045829 0.374229 -0.133098
0.169288 -0.065807 -0.338543
-0.209854 0.278789 -0.020638
0.360775 0.273939 -0.124153
-0.469987 0.160176 -0.270003
0.289975 -0.043850 0.102510
0.368426 -0.253894 0.360332
-0.161386 0.300944 -0.462848
0.244064 0.287522 -0.210040
0.238705 0.165566 -0.407779
0.314499 0.277998 -0.069340
0.084069 -0.155072 -0.295449
0.335717 -0.356366 0.456121
0.323139 0.337285 0.091913
0.156592 0.031874 0.320269
0.296544 -0.029436 0.263272
-0.340420 0.224192 -0.067617
0.138960 -0.129175 -0.175477
-0.352229 -0.065251 -0.219269
0.304170 0.297005 -0.129524
-0.191664 0.251898 -0.484580
0.107960 -0.119146 -0.255945
0.297856 -0.045035 0.270946
0.323721 0.067281 -0.490010
-0.434620 0.060795 -0.242291
-0.234149 -0.118896 -0.044890
0.318649 -0.305031 0.417879
-0.058916 -0.218665 -0.304438
0.395849 0.045234 -0.253594
0.291323 -0.019128 0.245421
0.359697 -0.169596 0.383297
-0.306042 0.264575 -0.339129
0.445553 0.225837 0.238597
0.305601 -0.281540 0.388414
0.154339 -0.104103 0.010542
-0.256514 0.269657 -0.390099
0.225591 0.075969 0.298800
-0.371495 0.209318 -0.229222
0.313180 0.279747 0.166509
-0.084811 -0.089198 0.046914
0.147043 0.215578 -0.486949
0.363429 0.054764 -0.289899
0.314548 0.269192 -0.041080
-0.388548 0.156507 -0.104361
0.182740 -0.104070 -0.450230
-0.034811 -0.121776 0.001384
-0.234794 0.163875 -0.483230
0.339082 -0.258195 0.256463
0.451980 0.173043 -0.115699
0.333555 0.075297 -0.452669
-0.119432 0.246657 0.066782
-0.391467 -0.014685 -0.318398
0.013059 -0.203839 -0.102343
-0.020307 0.094319 0.123149
0.099427 0.017300 0.319632
0.008269 0.359447 -0.115410
0.078144 0.260932 -0.276338
0.123858 0.304779 -0.447722
0.402514 0.242107 -0.008503
0.471791 0.104415 0.191950
0.037863 0.316524 -0.269231
0.380676 -0.059512 0.267607
0.131848 0.220835 0.035656
0.424579 0.208651 -0.078682
0.217931 0.091894 -0.487356
0.092602 0.293949 -0.122286
-0.367899 0.134418 -0.037644
0.229934 0.217910 -0.386081
0.182851 -0.075078 -0.306738
-0.298687 0.196094 0.036717
0.341104 -0.133500 0.366819
0.171476 0.277867 -0.053781
-0.013848 -0.238310 -0.214708
0.144048 -0.068322 -0.319130
0.397190 0.048748 -0.253655
0.379626 0.077470 -0.274501
0.340437 0.310562 0.179922
0.096817 0.137250 0.095073
0.370452 -0.177471 0.257730
0.100209 -0.112650 -0.286152
0.252457 -0.092053 -0.249123
-0.018665 -0.219204 -0.326275
-0.009524 0.368026 -0.120467
0.048540 -0.197012 -0.315032
0.210948 -0.118871 -0.194868
0.125626 -0.058129 0.068194
0.148587 0.216999 -0.486824
0.289928 0.037243 0.287660
-0.373330 0.201115 -0.265725
0.228907 0.091096 -0.360877
0.189787 -0.087015 -0.453114
0.031278 -0.176925 -0.385071
-0.128569 0.305942 -0.463897
-0.277914 0.048110 0.078463
0.280522 0.056872 -0.492162
0.177148 0.058291 -0.484659
-0.018765 -0.083572 0.365360
0.007693 -0.129612 0.387098
-0.217606 -0.174183 -0.156996
0.264172 0.299652 -0.123244
0.445184 0.135738 -0.020366
0.286319 0.284751 0.086258
-0.137982 -0.120129 0.000111
0.046960 -0.234183 -0.185240
-0.015679 -0.164159 -0.447388
0.293341 -0.275701 0.333988
-0.150154 -0.190900 -0.317708
0.066860 0.292289 -0.087758
0.306100 0.092534 -0.438208
-0.296017 0.184990 -0.454793
0.254596 0.287866 -0.080039
0.151896 -0.089207 0.035305
0.359604 -0.132420 0.367814
0.384719 -0.057864 0.302662
-0.002482 -0.217820 -0.324673
-0.378169 0.199331 -0.199236
0.096920 -0.128213 -0.277695
0.062351 -0.104777 0.371807
-0.317553 -0.023890 0.013375
-0.314204 0.069734 -0.480891
0.041611 -0.108545 0.465037
-0.355881 0.231369 -0.260465
0.340029 0.140030 -0.301420
-0.289695 -0.136358 -0.232898
0.070505 0.128758 -0.469513
0.293618 -0.092993 0.257423
-0.389698 0.100540 -0.081268
-0.025133 -0.151086 -0.484916
0.094185 -0.056211 0.443088
0.481353 0.058649 0.086645
0.221635 0.099322 -0.365492
-0.344718 0.167685 -0.004966
0.290041 0.218060 0.277653
0.445336 0.124083 -0.181187
0.286641 0.167422 -0.310975
0.296235 -0.242536 0.301986
-0.263284 0.300951 -0.278142
-0.143450 0.172300 -0.471156
0.067151 0.279213 -0.040105
-0.185990 0.308763 -0.048095
-0.019138 -0.153258 0.479229
0.287913 -0.087822 0.004770
-0.218793 -0.046415 -0.483385
0.103275 -0.171273 -0.213917
0.201214 -0.033530 0.299747
0.056963 -0.171927 -0.486212
-0.124245 -0.064644 -0.459256
0.087140 0.230676 -0.465999
-0.091550 -0.196896 -0.095132
0.226388 0.171026 -0.357272
-0.052616 -0.133556 -0.011260
-0.389394 0.174442 -0.153898
0.385308 -0.035112 0.064499
0.126531 0.020892 0.271919
0.152708 -0.039490 0.401238
0.327353 -0.121506 0.355017
-0.178140 0.336132 -0.371916
0.229053 0.268780 -0.244707
0.254483 0.004349 -0.363115
0.266641 0.024348 -0.492634
-0.396428 0.144354 -0.138210
0.074039 0.269363 -0.378044
0.177554 -0.102247 -0.243397
0.384780 0.252917 0.255305
0.473588 0.267360 0.029114
0.246103 0.198327 -0.307403
-0.307569 -0.112701 -0.122772
-0.402362 0.124810 -0.178133
0.306055 -0.223337 0.369253
-0.126417 0.009672 0.127084
-0.228527 0.345499 -0.209360
-0.384435 0.127209 -0.075292
-0.359142 0.101738 -0.012851
-0.182837 -0.114329 -0.014684
0.339153 -0.310700 0.288403
0.293827 -0.078971 0.249036
-0.152581 0.154630 0.129709
-0.220033 -0.005012 0.097086
0.235861 0.171600 0.218997
-0.236286 -0.057674 -0.464345
0.309473 0.228840 -0.438619
0.277561 0.239134 -0.272238
0.299655 0.025761 -0.412041
0.190565 0.289903 -0.118410
0.332512 -0.336730 0.369070
-0.135694 0.328686 -0.075038
0.182474 -0.079926 -0.435117
0.032257 -0.128267 0.417199
-0.291437 0.055244 -0.483563
0.342776 -0.042713 0.161932
0.355067 -0.036865 0.185567
0.367207 -0.064994 -0.045167
0.391649 -0.230729 0.363592
0.034700 -0.088596 0.483364
-0.445582 0.011862 -0.280045
0.389742 -0.139285 0.316081
-0.362002 0.170336 -0.041970
0.433242 0.316487 0.157851
0.213286 -0.005911 -0.492289
-0.206315 0.202306 0.091805
-0.487848 0.099735 -0.255967
0.233488 0.242565 0.011598
0.247767 -0.022952 -0.328907
0.490099 0.083546 0.062724
-0.373675 0.153875 -0.443832
-0.114503 -0.144522 -0.478435
0.476848 0.166945 0.211437
-0.032045 -0.171254 0.462742
0.018911 -0.004693 -0.460803
-0.318988 -0.113119 -0.168612
0.377302 -0.050717 -0.028065
0.266964 0.087789 -0.492176
0.200549 0.291272 -0.482688
-0.012785 0.376781 -0.185482
0.270224 0.271017 0.099759
-0.046246 0.381682 -0.187338
0.277186 0.278955 -0.223073
0.120483 -0.139416 -0.171893
-0.131014 -0.120350 -0.001905
-0.384654 -0.018219 -0.211799
0.116538 -0.080816 0.336957
-0.201604 0.201580 0.095311
-0.393379 0.040183 -0.440481
-0.224092 -0.034071 -0.482389
-0.013060 -0.104795 0.347474
0.235674 -0.000104 0.177061
-0.240225 -0.035566 0.068225
0.282247 0.237412 0.198652
-0.268885 0.251569 -0.435421
0.040588 0.351016 -0.475558
-0.039477 0.228440 0.080800
-0.071716 0.377029 -0.161180
0.455390 0.074544 -0.041116
-0.052782 0.080590 -0.460801
0.394806 -0.298934 0.423938
0.385376 -0.022113 0.014171
0.306815 0.057142 -0.321393
0.020653 0.344311 -0.414909
0.418576 0.061436 0.277721
0.479603 0.092432 0.146951
0.018618 0.345778 -0.259710
0.396474 -0.052909 -0.175864
-0.494790 0.085935 -0.271242
0.326569 0.288715 0.012928
0.297463 -0.048289 0.067624
0.370171 -0.138700 0.281850
-0.221629 0.327597 -0.133412
0.164054 0.039505 0.320552
0.340890 -0.008719 -0.279718
0.118560 0.082614 0.111104
-0.180757 0.038563 -0.480018
0.223793 0.108480 -0.399394
0.213703 -0.055640 -0.428094
0.156046 -0.106853 -0.231694
0.200888 -0.128036 -0.051211
-0.105261 0.215505 0.098554
0.114626 0.290406 -0.414574
0.482020 0.061821 0.102656
0.110847 -0.124750 -0.241032
0.148721 -0.054086 -0.480778
0.381698 -0.038282 0.122302
0.100152 -0.032272 0.280505
-0.227913 0.323219 -0.319951
-0.387249 0.171535 -0.129902
0.432180 0.159305 -0.186258
0.027474 0.034076 0.105441
0.216593 0.214362 0.123105
0.144765 0.142101 -0.480219
-0.232651 -0.020282 -0.480929
-0.378315 -0.035333 -0.123635
0.168312 0.271405 -0.289581
0.425435 0.105956 0.284087
-0.129413 0.348272 -0.376971
0.145308 0.093534 -0.473056
0.447686 0.022053 -0.098306
-0.035386 0.362462 -0.103053
-0.317523 0.104299 -0.477335
0.017573 0.088812 -0.462441
0.079329 0.326135 -0.483335
-0.154152 -0.201056 -0.153178
-0.420564 0.209329 -0.341432
-0.181750 0.357521 -0.178907
0.240017 0.259496 -0.011546
-0.335195 0.116564 -0.469099
-0.391844 0.171303 -0.207103
-0.038801 -0.220556 -0.116905
0.014988 -0.212564 -0.110469
0.220812 0.127663 -0.355888
0.234625 -0.011815 0.281008
-0.368905 0.128889 -0.037805
0.380409 0.168361 -0.256259
-0.161142 0.354403 -0.323577
-0.186851 0.261808 0.007864
0.082565 0.285332 -0.484717
0.028531 0.332426 -0.269276
-0.027287 -0.238903 -0.180770
-0.193080 0.350459 -0.135600
-0.055906 -0.104615 -0.481893
0.010847 0.120894 -0.462521
-0.283949 0.245094 -0.412003
0.241872 0.253702 -0.264736
-0.376529 0.203115 -0.188054
0.290370 -0.078909 -0.257544
-0.348547 0.242985 -0.155985
0.040141 0.058984 -0.462480
0.218903 0.120401 0.204793
-0.239880 0.223589 -0.476403
0.450578 0.176035 -0.100783
-0.304503 0.126368 0.056632
0.277656 -0.050916 -0.480456
0.190447 -0.018312 0.373812
-0.165672 -0.090949 -0.488100
0.292830 -0.143978 0.267818
-0.388151 0.178366 -0.234000
-0.352731 -0.032243 -0.384076
0.204919 0.279483 -0.232669
-0.285581 -0.083289 -0.025531
0.065339 0.328740 -0.181520
0.063046 -0.178654 -0.442982
0.424430 0.303189 0.186677
0.257029 0.211319 0.208759
0.209526 -0.051521 -0.492530
-0.465040 0.173521 -0.347164
-0.294261 0.250212 -0.037498
0.350133 -0.294472 0.363960
0.397790 0.069954 0.286512
-0.104882 0.309278 -0.437859
-0.245907 -0.159891 -0.346356
-0.148385 -0.139096 -0.476019
-0.421444 0.201753 -0.371881
0.018228 -0.038388 0.079677
-0.407594 0.212842 -0.365798
-0.489437 0.075658 -0.259465
-0.276920 0.298916 -0.239787
0.061018 -0.178691 -0.449474
0.069418 0.047881 -0.463436
0.062158 -0.227057 -0.175188
0.344922 -0.301274 0.352023
0.107523 -0.174000 -0.427313
0.318923 0.012839 -0.306490
0.381155 0.185214 -0.248243
0.356269 0.044928 0.290863
-0.434790 0.098070 -0.420647
0.020826 -0.225832 -0.127881
-0.101222 0.307661 -0.480587
0.000069 0.157162 0.106660
0.359969 -0.090524 -0.136337
0.287180 0.269713 0.123604
0.386210 0.108581 0.293085
0.189081 -0.042418 0.318203
-0.144967 -0.179839 -0.094916
-0.137793 0.357528 -0.334846
0.395226 0.013986 0.269930
-0.028196 0.316896 -0.483155
-0.337630 -0.098748 -0.148634
-0.050345 0.381177 -0.205774
-0.212205 -0.027727 -0.484841
0.293664 0.204284 -0.291632
0.062770 0.356327 -0.452160
0.264222 0.120017 -0.333683
0.308288 -0.002602 -0.426922
0.191263 -0.027162 0.269867
0.238527 -0.020224 0.135032
0.377436 0.242186 -0.023238
0.001317 0.264568 0.016762
0.066811 -0.088043 -0.459255
-0.397636 0.145980 -0.154971
0.083458 -0.087936 -0.459914
0.475339 0.052714 0.114128
0.173862 0.277839 -0.417557
0.101288 -0.104747 -0.293006
-0.284674 0.094603 -0.484379
-0.161456 0.359762 -0.311415
-0.252155 -0.162478 -0.251306
0.067746 0.085475 -0.467482
0.289669 0.234602 0.266332
0.200154 0.109739 0.165205
-0.048851 0.077976 0.128539
0.224270 0.150147 -0.355681
0.230973 -0.101515 -0.231329
0.422583 -0.022800 -0.164286
-0.295106 0.215859 -0.426624
-0.111366 0.018033 0.129068
-0.207758 0.026036 0.116897
0.048210 -0.124124 -0.007964
0.101187 -0.186140 -0.484001
0.024918 -0.132236 0.416545
-0.331929 0.266827 -0.137505
-0.390693 0.157044 -0.119386
0.106704 0.252734 -0.348581
-0.103023 0.114105 -0.475598
0.121961 0.094028 0.111278
0.094479 -0.082488 -0.374325
-0.101360 0.384504 -0.229204
-0.305405 -0.113146 -0.307797
0.267680 0.113554 -0.491304
-0.102263 -0.200324 -0.100602
0.165965 -0.095270 -0.491610
0.275161 0.075988 0.295016
0.358449 -0.054167 0.328078
-0.054803 0.378874 -0.162987
0.307889 -0.104344 0.230190
0.182214 0.097351 0.137367
-0.098585 -0.114640 0.015381
0.203286 0.164753 0.149733
-0.097084 0.383240 -0.235714
0.400521 -0.057402 -0.104375
0.242631 -0.065139 -0.479324
0.212105 0.296262 -0.482607
0.081388 0.312097 -0.403313
0.175904 -0.013288 0.388024
0.466113 0.200887 0.168710
-0.116106 0.374764 -0.146823
0.219785 0.224245 -0.486397
0.344547 -0.298611 0.344033
-0.049715 -0.083148 0.055142
0.051296 0.266943 -0.008843
-0.163795 -0.204328 -0.229700
0.212455 -0.042397 -0.492583
0.247501 0.216599 -0.396596
0.356666 0.257001 -0.196388
0.321126 -0.317537 0.429231
-0.495301 0.120504 -0.315620
-0.289239 0.280377 -0.080439
0.134251 0.247335 -0.486127
0.080009 0.178187 -0.467442
0.072236 -0.010761 0.085343
0.023378 0.251873 0.027214
0.080739 0.297811 -0.091110
0.423350 0.193608 -0.037635
0.054090 -0.222824 -0.145021
0.168772 -0.156167 -0.471897
-0.001671 -0.125912 -0.011274
-0.012491 -0.211074 -0.104953
-0.359423 -0.033395 -0.371548
-0.277464 -0.145375 -0.246131
0.361821 -0.198334 0.300740
-0.151683 -0.209217 -0.209826
0.304144 0.274118 -0.213041
0.014538 -0.122205 0.379918
0.498049 0.141752 0.073015
0.221885 0.085829 -0.488451
0.156512 -0.064232 -0.344025
-0.303820 0.107123 0.058715
0.120222 -0.137626 -0.084620
0.459218 0.022020 0.119089
0.373149 -0.001207 -0.255844
0.173847 -0.078698 -0.491573
-0.149037 -0.120902 -0.016935
-0.428712 0.194732 -0.293861
0.367212 -0.264647 0.367962
0.186147 0.117706 0.140363
-0.406870 0.213241 -0.331470
0.231432 -0.014810 0.144679
0.300539 0.123315 -0.468534
0.069500 -0.167209 -0.110805
-0.035728 0.369010 -0.246811
-0.306707 -0.089645 -0.349563
-0.417529 0.197245 -0.295775
0.157916 -0.025939 -0.486496
-0.115719 -0.181905 -0.088693
0.072603 0.282316 -0.227587
0.177035 -0.094132 -0.267845
-0.419836 0.143946 -0.248438
0.094605 -0.095791 0.372402
0.430343 -0.023462 -0.113657
-0.309850 -0.026686 -0.422193
-0.309900 0.274429 -0.240697
0.364666 -0.082961 -0.091842
-0.153023 0.250181 0.054562
-0.405319 0.201209 -0.307320
0.084262 -0.062776 -0.460172
-0.251707 -0.003725 0.080176
-0.062895 0.340470 -0.381059
0.435310 0.048716 0.259820
0.256892 0.264217 -0.017741
-0.234465 0.166028 -0.483190
0.326947 -0.041621 0.177693
0.328106 -0.096188 -0.206642
0.359164 0.263249 -0.175541
-0.185588 0.003258 -0.487933
-0.093298 -0.075021 0.062862
-0.403335 0.135908 -0.218045
0.219583 -0.116242 -0.202040
0.014815 -0.235672 -0.153578
0.356696 0.045830 -0.480660
0.295994 0.297302 -0.150190
0.406896 -0.021687 -0.023422
0.470694 0.244924 0.147041
-0.112148 -0.050619 -0.455953
0.186361 0.078180 0.141964
0.435839 0.291977 0.188260
-0.043572 0.082042 -0.460997
-0.235828 -0.161051 -0.151263
-0.146987 0.236144 0.075891
-0.029453 -0.100120 -0.471988
0.067414 -0.016596 -0.461515
-0.405450 0.094951 -0.194334
-0.203123 0.190266 0.101932
-0.151005 0.216500 -0.456664
0.311639 -0.047425 0.075399
-0.398623 0.071805 -0.108665
0.022812 0.354208 -0.121841
0.102281 0.013471 0.287756
0.040441 -0.091457 0.031277
0.401786 0.228173 -0.068198
0.128015 0.269240 -0.320782
-0.333733 0.209790 -0.033634
-0.401307 0.059441 -0.440098
0.234544 -0.126580 -0.061488
-0.443443 0.159939 -0.394074
0.202868 0.274005 -0.410851
0.456656 0.047528 -0.073930
0.333527 0.071413 -0.447160
0.168340 0.272401 -0.407823
0.064699 -0.041502 0.071787
-0.290783 -0.111232 -0.090529
-0.082760 0.203288 0.108030
-0.179858 0.074708 -0.480328
0.043451 0.156797 0.088146
0.201501 -0.131237 -0.072554
0.210758 0.213216 0.055212
-0.113761 0.290938 -0.043868
-0.275135 0.067740 0.083867
0.240055 -0.038619 0.088995
0.202921 -0.019205 0.260807
0.070805 -0.168346 -0.318246
0.398341 -0.016327 -0.229689
0.090697 -0.192834 -0.171369
-0.093689 -0.223970 -0.207078
0.255147 -0.022855 -0.493296
-0.143461 0.105533 -0.489309
-0.276192 -0.146612 -0.240764
0.465490 0.123575 -0.068379
0.404330 0.049526 -0.247480
-0.239262 0.030908 -0.484966
0.209963 0.073928 0.216537
0.057665 0.351410 -0.435249
0.294426 0.074503 -0.491105
0.241371 -0.132543 -0.130778
0.273294 0.031911 -0.328658
0.230959 -0.067916 -0.485529
0.080436 0.297436 -0.156397
-0.194503 -0.092373 0.034414
-0.400492 0.142910 -0.183731
0.351860 -0.044353 0.136776
0.321764 0.225806 -0.472280
0.385132 0.280101 0.234945
-0.202579 0.244464 0.043040
-0.079815 -0.216982 -0.271912
-0.372151 0.211666 -0.181696
-0.159030 0.088709 -0.488351
0.164739 0.111128 -0.477285
-0.144314 0.369825 -0.206030
0.155316 0.281139 -0.240185
0.015490 -0.121147 -0.487188
0.024165 0.369702 -0.194047
0.101599 -0.122108 -0.022358
-0.385356 -0.012684 -0.241108
-0.215047 -0.144346 -0.097285
0.229256 0.244780 -0.278782
0.348329 0.342560 0.113118
0.345193 0.250320 -0.222390
-0.412986 0.210094 -0.323937
0.357337 0.250994 -0.038487
0.336006 -0.175783 0.382127
0.325678 -0.191209 0.244129
0.372173 0.075380 0.292574
-0.251555 -0.072421 0.024064
0.141608 -0.129557 -0.169954
-0.359692 -0.061310 -0.259861
0.039841 -0.236479 -0.230584
-0.118189 0.319010 -0.066797
-0.390763 0.203821 -0.317582
-0.294088 0.259238 -0.364063
0.439446 0.234059 0.005770
-0.024595 -0.084311 0.362185
0.027750 0.308921 -0.313309
0.027907 -0.101310 -0.464051
0.042157 -0.091855 0.475747
-0.186371 0.123435 0.129036
-0.120507 0.234635 -0.458782
0.375241 -0.144679 0.302334
-0.286448 -0.103906 -0.389451
-0.122067 0.281985 -0.006807
0.446372 0.126087 -0.174626
0.125168 0.295850 -0.480238
0.267728 -0.073807 0.041204
0.070050 -0.218098 -0.230473
0.366845 -0.054568 -0.223895
-0.446597 0.072145 -0.237786
0.082371 0.281081 -0.048255
0.113501 0.031629 0.106698
-0.233241 0.282453 -0.416156
0.161568 -0.064109 -0.490071
0.263151 0.113263 -0.335809
-0.219853 0.326263 -0.311175
0.321551 -0.048690 0.310254
-0.382477 0.090472 -0.451222
-0.347700 -0.091208 -0.164542
0.293438 -0.045125 -0.474014
0.142726 -0.178694 -0.483420
-0.162384 0.189096 0.115313
0.448290 0.055617 -0.031449
0.431861 0.021178 -0.018127
-0.044119 -0.170557 0.407361
0.387403 0.343183 0.058819
0.004616 -0.127694 -0.490931
-0.223376 0.302810 -0.051054
0.010741 -0.099805 0.346235
-0.134171 0.301267 -0.055712
-0.189815 -0.187156 -0.155564
-0.051077 0.053927 -0.460401
0.067778 -0.175489 -0.317846
-0.056157 -0.095054 0.037441
0.203537 0.072228 0.291961
0.019906 -0.024389 0.321230
0.228971 0.172881 -0.337118
0.400092 0.102953 -0.257995
-0.066026 0.054846 0.129923
0.010493 -0.227730 -0.287701
-0.103014 -0.220846 -0.221582
0.333293 -0.260420 0.405152
-0.162733 -0.019432 -0.482767
0.312477 0.015668 0.283077
-0.187154 0.286311 -0.025659
-0.254671 0.213284 0.059776
-0.007958 0.368693 -0.122956
-0.435230 0.029479 -0.408563
0.115592 -0.001623 0.268606
-0.141098 0.202906 0.106919
0.228658 0.298340 -0.174498
-0.085036 -0.000069 -0.457909
0.313028 0.309677 0.035037
0.003851 -0.151281 0.460426
-0.089648 0.110733 -0.464140
-0.396455 0.011137 -0.279276
0.302389 0.118309 -0.464638
0.064288 -0.122269 -0.485241
0.083147 -0.011268 0.085350
-0.238203 0.276757 -0.405562
0.372813 0.265084 -0.125761
0.132427 -0.031632 -0.465452
-0.285528 -0.067439 -0.406793
0.217367 0.266567 -0.029849
0.016381 0.352350 -0.249431
-0.186245 0.358187 -0.241688
0.333250 0.139778 0.296447
-0.122654 -0.061166 -0.458292
-0.130953 -0.091777 -0.483587
-0.153546 0.358852 -0.122746
0.263982 0.301942 -0.438287
0.238415 -0.128678 -0.162099
-0.136743 0.083375 -0.488821
0.241799 0.117115 0.280530
0.057163 -0.046467 0.455875
0.350819 0.155152 0.295787
-0.124401 0.254681 -0.479877
0.084554 -0.000681 0.088741
-0.140937 0.305102 -0.058143
0.467374 0.214062 0.169114
0.080061 0.146874 -0.473276
0.376874 -0.200712 0.333376
0.443960 0.012262 -0.118977
-0.082227 0.331824 -0.395370
-0.379941 -0.037190 -0.140920
0.457243 0.049173 -0.094409
-0.151774 0.095243 0.137278
-0.002447 0.345507 -0.310466
0.239708 -0.032186 -0.406243
0.293705 0.281053 -0.206151
-0.176061 -0.195308 -0.188779
-0.187618 0.219930 0.085050
0.207653 0.233200 -0.485972
0.185786 -0.107737 -0.457902
-0.255004 0.316724 -0.124883
-0.029745 0.142990 0.120283
0.136547 -0.063117 -0.334982
0.452611 0.224593 0.011713
-0.019033 0.037337 -0.460891
0.239885 0.180748 -0.400164
-0.348781 0.243416 -0.229114
0.310192 -0.110234 -0.181132
0.249613 0.161926 -0.418004
-0.370553 -0.016578 -0.416063
-0.093511 -0.153000 -0.451152
-0.366068 0.206988 -0.412779
0.234158 0.139067 0.264294
-0.403124 0.019331 -0.425300
0.457669 0.047516 0.172028
0.108008 0.300814 -0.416653
0.331044 0.186242 0.290135
0.002666 -0.045576 0.074657
0.289934 -0.197935 0.296415
-0.196046 0.017898 0.117792
0.291398 -0.131012 0.270364
0.460272 0.232735 0.013503
0.311456 -0.069667 -0.252727
-0.027373 -0.081396 0.054446
0.319400 0.087776 0.294457
0.331604 0.220289 -0.264104
0.005074 -0.149789 0.461960
-0.422488 0.101306 -0.236306
0.293051 -0.297844 0.346928
0.195174 0.151918 0.142430
0.254387 -0.044356 -0.436842
-0.069360 0.246714 0.066914
0.203925 0.297901 -0.133994
-0.357728 0.185703 -0.050532
-0.293374 -0.113198 -0.098660
-0.259129 0.243901 -0.455896
0.299271 0.123384 0.295153
-0.393755 0.089550 -0.445827
0.318796 -0.375169 0.435422
-0.054739 0.379581 -0.215656
0.051399 0.134728 0.094221
-0.075949 0.272902 -0.481869
-0.035978 -0.090734 0.354225
-0.110552 -0.220988 -0.169679
0.373279 -0.152726 0.256979
0.364942 -0.099309 0.349093
-0.275375 0.294435 -0.294349
0.439895 0.037774 0.005502
0.387914 -0.020763 0.271097
-0.200360 0.087237 -0.477910
0.203079 0.223733 0.034542
0.132135 0.285262 -0.430369
0.095187 -0.116713 -0.481527
-0.282893 0.255907 -0.384778
-0.339817 -0.081724 -0.280683
0.253238 -0.073225 -0.269152
0.215171 0.294338 -0.186264
0.219380 0.260671 -0.255474
0.240023 -0.008207 0.275576
0.210187 0.043207 0.184521
-0.389321 0.063153 -0.073580
0.147590 0.262828 -0.364100
-0.184659 -0.181583 -0.313588
0.320482 -0.065280 0.319255
0.450400 0.175517 -0.087650
0.382308 -0.136288 0.355164
0.198789 0.286287 -0.072080
-0.117834 0.372801 -0.296111
0.087849 0.274370 -0.213119
0.414102 0.222324 -0.118355
0.074777 0.247015 -0.333402
-0.067053 0.148836 0.127814
-0.410409 0.202385 -0.307226
0.405246 0.175001 -0.222919
0.439334 0.134574 -0.192018
0.173489 0.232556 -0.486037
-0.262652 0.083131 0.093415
-0.155384 0.273214 -0.008195
0.352650 -0.110087 0.357828
0.405823 -0.048543 -0.129952
0.305173 -0.051437 -0.270661
0.000145 -0.121332 -0.487914
0.171420 -0.131088 -0.143586
0.270179 0.142491 -0.444422
0.051434 0.218707 0.048690
0.316327 -0.109268 -0.156052
0.469441 0.158631 0.168798
-0.129095 0.050217 0.135707
0.093703 -0.045172 0.442009
0.086124 0.223976 -0.463006
0.295047 -0.360862 0.430510
0.067913 -0.219554 -0.230121
0.288737 -0.171273 0.292747
0.269789 -0.034686 0.131443
0.425949 0.165610 -0.198153
0.226510 0.189230 -0.343172
0.482649 0.138410 0.030338
0.359067 0.061762 -0.295469
0.363404 0.184469 -0.264882
0.332556 -0.098225 -0.115862
0.376459 -0.202133 0.389978
-0.387049 0.213735 -0.339479
0.214185 0.087368 0.230966
0.192642 -0.110109 -0.009033
0.387070 -0.030547 -0.006069
0.361962 -0.027345 0.311118
0.016601 0.138289 -0.462872
0.371648 0.029642 -0.275316
-0.157493 -0.147470 -0.430936
0.190064 -0.047685 -0.492044
-0.377766 0.070848 -0.453652
-0.341904 -0.058086 -0.068923
0.292665 0.252084 0.214946
-0.159060 0.334576 -0.389219
0.320308 -0.000886 -0.433190
0.261851 0.105826 -0.491915
-0.282672 0.232246 0.012660
-0.251020 -0.033230 -0.457082
-0.367095 0.085033 -0.459079
-0.110650 0.309200 -0.457831
0.460426 0.133105 -0.056177
0.271403 -0.007769 0.220428
-0.321663 -0.108819 -0.144585
0.005665 -0.147520 0.469249
-0.230990 0.279286 -0.461019
0.448741 0.164926 0.011453
-0.070056 -0.232566 -0.181941
-0.009335 -0.234382 -0.269836
-0.149259 0.244705 -0.479640
-0.361320 0.169387 -0.039127
0.008045 -0.143636 0.471886
0.178032 -0.003282 0.239533
0.478332 0.122939 0.247429
0.021029 0.255814 0.023186
0.259125 0.113987 -0.428144
0.260473 0.009860 -0.385301
0.275771 -0.003839 -0.316863
0.181358 0.107393 -0.479765
-0.049321 -0.202635 -0.096400
0.225490 0.248958 -0.391256
-0.202216 0.176611 0.110909
-0.005710 0.376160 -0.165254
0.343391 -0.214827 0.246900
-0.010258 -0.116680 0.358581
0.360413 -0.214183 0.252556
0.371073 -0.082957 0.239199
0.299322 0.006366 -0.313576
-0.087444 0.315508 -0.447600
0.255028 -0.124443 -0.186211
0.409075 -0.012711 0.171912
-0.163259 -0.182158 -0.106494
0.121575 -0.034886 0.274935
0.103284 -0.167359 -0.223874
0.232893 0.098316 -0.346335
0.450421 0.095963 -0.017649
0.193601 0.032305 -0.492417
0.269844 0.257509 -0.009949
-0.404873 0.125523 -0.217873
0.309231 -0.377246 0.399728
-0.274683 0.294197 -0.288242
-0.405972 0.066893 -0.197292
0.412723 0.256723 0.241852
0.429144 0.001232 0.155536
0.418824 0.017396 -0.217078
0.015975 -0.052495 0.349260
0.307757 0.182350 -0.456009
0.090794 -0.172550 -0.252483
0.429991 0.225205 0.252344
0.016873 0.123944 0.109857
0.337194 0.281781 -0.116720
0.114168 -0.186274 -0.466287
0.234306 0.131424 0.267569
-0.258445 -0.147090 -0.357123
0.073426 0.199853 0.058754
0.121007 -0.128147 -0.048181
0.173340 0.010350 0.116403
0.394429 -0.180263 0.359530
0.486801 0.087994 0.124568
0.371678 0.072895 -0.283015
0.291843 0.117104 -0.451984
-0.015202 0.162622 -0.461110
-0.417752 0.007839 -0.408982
-0.100454 0.370012 -0.124160
0.299865 0.216731 -0.423801
0.216617 0.299063 -0.436268
0.109337 0.018750 0.102562
0.067588 -0.105860 0.377705
-0.440757 -0.004942 -0.302891
0.297160 -0.080348 0.236186
-0.346778 -0.070411 -0.225818
0.233341 0.252223 -0.001985
0.354245 -0.039452 0.200708
-0.388556 -0.011185 -0.411786
-0.121161 -0.182314 -0.392818
-0.127022 0.372488 -0.236585
0.017102 -0.026934 0.318512
0.370493 0.319038 0.014195
0.234707 0.160142 0.244736
0.458350 0.249388 0.012315
0.149227 -0.068520 -0.319557
-0.290439 -0.009961 -0.453937
-0.374979 0.199002 -0.136173
-0.116394 0.359164 -0.098756
0.004185 0.162213 -0.461621
0.255751 0.289224 -0.087616
-0.232318 -0.039159 0.070206
-0.426185 0.150289 -0.416399
-0.416936 0.165410 -0.414346
0.141663 0.017084 0.336724
-0.488102 0.066437 -0.345530
-0.014828 0.350086 -0.094308
0.170049 -0.085803 -0.420489
-0.031291 -0.091432 -0.463570
0.275635 0.150926 -0.446388
-0.054742 0.369052 -0.309223
0.079071 -0.214090 -0.202946
0.174036 0.268549 -0.289770
-0.010122 -0.238464 -0.214255
-0.153288 -0.196736 -0.122873
0.399928 -0.017806 -0.006915
0.087314 0.179276 0.069085
-0.346332 0.149347 -0.000834
0.439468 0.315300 0.151319
-0.120890 -0.044648 -0.455940
0.229141 0.039732 -0.492308
0.089797 0.296380 -0.484437
0.400654 0.000945 -0.232115
0.344940 -0.046565 0.077551
-0.060007 0.187473 -0.459242
-0.472430 0.152964 -0.364119
0.221536 0.137183 0.197467
0.096487 -0.025532 0.434636
-0.175576 -0.116247 -0.014199
0.309347 -0.045717 0.126535
0.433539 0.331749 0.109702
0.063973 0.291147 -0.235223
-0.217869 -0.042518 -0.483566
0.347027 0.306267 0.198884
0.092391 0.236334 -0.472522
0.115105 -0.027644 -0.461685
-0.381391 0.183811 -0.128156
-0.032060 0.374396 -0.223372
-0.169788 -0.057895 0.082577
0.035373 -0.072159 0.384023
-0.243134 -0.163674 -0.295844
0.289217 -0.035273 -0.443120
-0.077754 -0.100074 -0.481947
0.279232 -0.043165 0.094990
0.303466 -0.017077 0.272720
-0.309789 0.079738 0.053752
0.182972 -0.026313 -0.491769
0.163600 0.276617 -0.059461
0.311922 0.023322 -0.417366
0.084941 0.252279 -0.311760
-0.155916 0.227681 0.086632
0.142907 -0.101797 -0.405233
0.112584 0.153459 0.091794
-0.200783 0.357200 -0.205346
0.490293 0.170140 0.119856
-0.080720 0.339552 -0.075895
-0.096815 -0.152561 -0.447136
0.193487 -0.126475 -0.174374
-0.309012 0.273955 -0.249471
-0.450278 0.008818 -0.373804
0.275053 0.009819 0.271364
0.208217 0.034709 0.167581
-0.145397 -0.200196 -0.275178
-0.230221 0.313541 -0.091941
-0.248723 0.063607 -0.481746
0.306028 -0.328504 0.308348
0.417327 0.199991 -0.193155
0.022744 -0.146662 -0.071198
0.225041 0.124002 -0.493566
0.499379 0.138434 0.089198
0.157338 0.267544 -0.337029
0.041131 -0.122243 0.405622
0.219555 -0.034690 0.098691
0.144014 -0.135999 -0.092200
0.464795 0.087935 0.176859
-0.013157 0.338679 -0.432119
0.280490 -0.116882 -0.134726
0.031431 0.300324 -0.344684
-0.405804 0.068447 -0.188458
-0.220598 -0.153090 -0.383598
0.420667 0.320233 0.041073
0.028380 -0.193237 -0.101500
0.399368 -0.031171 0.101059
-0.400547 0.119000 -0.157664
-0.404282 0.106687 -0.186382
-0.462215 0.062802 -0.392997
0.319201 0.067808 -0.426935
-0.039805 0.257823 0.045962
0.332487 -0.047716 0.112464
0.210914 0.230920 -0.305569
-0.074982 0.316181 -0.428757
-0.014306 0.170072 0.106902
-0.046397 0.372369 -0.120975
0.175421 0.032079 0.121812
-0.440466 -0.011089 -0.347810
0.233876 0.139637 -0.338940
0.006236 0.006884 -0.460752
-0.305194 0.270915 -0.317802
0.207446 0.295472 -0.435043
0.067602 0.084696 0.099491
0.437861 0.280969 0.007803
-0.466467 0.150897 -0.376205
0.318030 0.062775 -0.318778
0.262389 -0.051012 0.069810
0.030247 0.150110 0.096652
-0.039457 -0.149761 -0.482783
0.243906 0.269881 -0.241691
0.375084 0.259377 0.253254
0.459570 0.137050 -0.143300
-0.226848 0.022623 0.107001
-0.324741 0.001182 0.020301
-0.304231 -0.040597 -0.396655
0.468213 0.185798 0.235105
-0.114187 0.374358 -0.248580
0.047207 0.207137 0.062416
0.321883 0.202448 -0.280012
0.465704 0.083131 0.249937
0.327029 0.065061 -0.489884
-0.363928 0.223641 -0.207350
-0.290367 0.167274 -0.467095
-0.313753 0.283122 -0.200010
0.089764 -0.068108 -0.459952
0.163968 0.139259 -0.483294
0.137809 0.101326 -0.475036
0.480048 0.116917 0.023325
-0.262178 -0.155992 -0.242757
-0.131534 0.256884 0.050831
-0.113873 0.372935 -0.280625
0.256739 0.309212 -0.465886
0.000518 -0.100564 -0.468360
-0.055924 -0.144359 -0.060729
0.282537 0.177993 -0.307463
-0.290016 -0.116048 -0.100122
0.475022 0.056705 0.133666
-0.097468 -0.196201 -0.351023
0.039110 0.213871 0.061076
0.238315 0.214173 0.157338
0.309681 -0.121399 0.233232
0.104035 -0.182404 -0.490041
0.003470 0.034625 0.111762
-0.106639 -0.035477 0.100244
-0.425859 0.205600 -0.343743
0.316701 0.331536 0.087095
0.029373 0.020845 0.101502
-0.048165 0.090692 -0.461024
0.369096 0.252621 0.258382
0.469396 0.053992 0.152337
-0.280923 -0.038210 0.034122
-0.339911 0.255329 -0.197702
0.099016 -0.069420 0.311001
0.052064 -0.213312 -0.128609
0.286636 0.019706 -0.320393
0.034651 -0.099885 0.024627
-0.007438 0.234079 0.064284
0.285500 -0.057570 -0.275688
0.377035 0.245981 -0.188786
0.171134 0.282273 -0.188645
-0.115341 -0.217459 -0.192704
0.172602 -0.074474 0.066007
0.382731 0.348453 0.094099
0.391857 -0.122901 0.320936
0.024794 0.193949 0.079502
0.304748 -0.096142 0.319314
0.488367 0.270734 0.064228
-0.029350 -0.214733 -0.107800
0.358437 0.351082 0.089998
0.174875 -0.050907 0.316892
0.120033 -0.019522 0.421547
0.091075 0.281038 -0.177251
0.302928 -0.237720 0.284342
-0.121763 -0.017674 -0.459191
0.378042 0.187473 -0.250121
-0.127657 0.172695 -0.461775
-0.444005 0.107863 -0.235398
-0.219872 0.099361 0.116664
-0.337776 0.254099 -0.284691
0.224161 0.211287 0.141307
0.217138 -0.045897 -0.357164
0.292401 -0.092878 0.287696
-0.035858 0.313879 -0.483789
0.308979 0.287068 -0.182790
0.287659 0.236565 -0.271346
-0.349348 0.200822 -0.423061
0.019884 0.352965 -0.116587
0.464355 0.029204 0.083244
-0.345843 0.029553 -0.461526
0.344328 -0.149088 0.234209
0.173847 0.045538 0.330948
0.223661 -0.130419 -0.130739
-0.137937 -0.145190 -0.455842
0.331372 -0.300047 0.424415
-0.217920 0.133189 0.114707
0.472113 0.054350 0.143916
0.198444 -0.060247 -0.427704
0.005939 -0.126756 0.381545
0.327123 -0.023417 -0.459731
0.382103 0.237593 0.264921
-0.231057 -0.078731 -0.464704
-0.139918 0.220685 -0.456031
-0.201061 -0.069800 0.061776
-0.002933 0.102846 0.118283
0.439682 0.323122 0.077474
0.166580 0.108105 0.117976
0.056432 0.252507 0.007448
0.084262 -0.128019 -0.488577
0.220409 0.227430 0.090902
0.104455 0.294327 -0.102831
0.371478 -0.138793 0.291226
-0.347797 -0.088885 -0.151568
-0.077371 -0.155904 -0.440510
-0.214233 -0.052850 -0.484248
0.084617 0.258059 -0.374812
-0.402636 0.042453 -0.173794
-0.107333 0.163916 0.127250
0.186547 0.045973 -0.491009
0.019614 -0.222223 -0.121903
-0.075035 -0.203844 -0.099104
0.063538 0.299341 -0.386708
0.306501 -0.023099 -0.294305
-0.046405 -0.045338 0.090568
-0.312193 -0.081435 -0.350701
-0.215767 -0.177121 -0.212828
0.058715 -0.094555 0.347288
-0.437540 0.120476 -0.415951
0.009987 0.331405 -0.326802
0.056819 0.337411 -0.151328
-0.150712 0.344065 -0.094949
0.361306 -0.126205 0.239295
0.274928 0.077961 -0.334265
0.215563 -0.021348 0.284231
0.360455 0.166266 0.294078
0.437841 0.311843 0.030238
-0.098443 -0.127328 -0.009141
0.030933 0.322579 -0.098777
-0.387193 -0.020678 -0.152194
0.326136 0.289750 -0.146014
-0.386359 0.182371 -0.222447
0.190313 -0.019733 0.372999
0.070200 0.257115 -0.299431
0.254087 0.054290 -0.373417
0.072043 0.342659 -0.432871
0.249049 -0.067927 -0.273816
-0.369388 0.217027 -0.377408
0.098639 0.251177 -0.371710
0.476861 0.135847 0.023215
-0.193429 -0.094780 -0.485139
0.459946 0.132969 0.268997
0.089550 0.027203 -0.463838
-0.126014 0.123877 -0.485404
-0.310221 0.269109 -0.313989
0.178119 0.059224 0.284458
0.285903 -0.353983 0.377797
-0.287503 -0.065276 -0.405833
-0.229715 -0.020156 0.083733
-0.158576 -0.096281 -0.488724
-0.016863 -0.128996 -0.019442
0.487932 0.248997 0.085750
0.044768 0.301738 -0.273979
-0.035786 0.298339 -0.060563
-0.277935 0.055379 0.079726
-0.191541 -0.017738 -0.487198
-0.106715 0.154215 0.129785
0.100020 0.115392 0.102310
-0.184019 -0.192266 -0.222609
0.302951 -0.111437 -0.184202
0.318643 0.290565 -0.162192
-0.047835 0.373506 -0.124740
-0.394979 0.029533 -0.106982
-0.150025 0.052889 -0.484394
0.068230 0.142015 0.087566
-0.150217 0.362011 -0.317309
-0.352306 0.175453 -0.442803
0.055526 0.014989 0.094229
-0.031081 -0.116023 0.394557
0.247896 0.198319 0.233028
-0.450975 0.185769 -0.290539
0.420569 0.208925 0.266878
-0.154637 0.153209 -0.486184
0.344917 0.230865 0.273108
0.021441 -0.137225 0.429738
0.046376 -0.118683 0.397589
-0.206513 0.340044 -0.128668
0.384990 -0.074050 -0.134377
0.236107 0.281340 -0.225445
0.221308 -0.012946 0.259586
0.480953 0.177215 0.138363
0.198421 0.235667 -0.485911
0.316970 -0.055808 -0.260857
0.309644 0.251403 -0.004719
0.089977 -0.119499 -0.387277
0.255204 0.162670 -0.421565
-0.055657 0.317662 -0.406443
0.486263 0.270016 0.087008
0.298623 0.263869 0.150157
-0.050433 0.344301 -0.367646
0.346487 -0.261823 0.414003
0.238717 0.237561 -0.392467
0.349510 -0.304474 0.376006
-0.302577 0.160415 0.053091
0.230840 0.130090 -0.342927
0.421955 0.011014 -0.006123
0.469909 0.223878 0.149277
0.329033 -0.056561 0.020982
0.453318 0.141954 -0.152500
-0.130230 0.093338 0.137734
-0.460657 0.080833 -0.397746
-0.184081 0.354142 -0.130123
-0.217927 -0.180982 -0.262722
0.346348 0.023052 -0.451621
-0.385231 0.066932 -0.449874
0.211649 0.236800 -0.375104
0.121618 0.131633 -0.483582
-0.267099 0.165448 -0.476358
0.011874 -0.169602 -0.421093
0.230689 0.211206 -0.308076
-0.388459 0.178198 -0.209630
0.311548 0.251048 -0.476030
-0.113848 0.371402 -0.270190
0.145544 -0.098306 -0.253714
-0.046577 -0.235053 -0.185309
0.330790 -0.167047 0.237778
-0.242723 0.332667 -0.227672
0.028223 -0.075894 0.475999
-0.133472 0.180693 -0.459611
-0.154889 -0.187086 -0.327897
0.046378 -0.233995 -0.222656
0.370437 0.329826 0.023456
0.333334 0.283114 -0.123560
-0.111823 0.290564 -0.039396
0.148201 -0.067789 0.342142
-0.491263 0.049521 -0.306506
-0.154438 0.365796 -0.138729
0.076075 -0.027214 0.287494
0.209765 0.047938 0.188506
0.386154 -0.037493 0.114458
0.098153 -0.187694 -0.201379
-0.389291 -0.023207 -0.396471
0.304583 0.077539 0.293072
0.286614 -0.035307 0.168880
-0.202617 0.146318 0.118851
0.221199 0.256448 -0.260315
0.034856 -0.066148 0.057123
0.410829 -0.038107 -0.081284
0.484833 0.160768 0.136635
0.107794 -0.147027 -0.230299
-0.317894 0.133968 0.041960
-0.457341 0.187155 -0.307947
0.473344 0.080417 0.155475
0.257796 -0.065790 0.055570
0.246938 0.288636 -0.081636
0.463648 0.040638 0.034381
0.094323 0.023387 0.097781
0.309333 0.242125 -0.255290
0.052567 0.293869 -0.264743
0.036681 0.132693 -0.463470
0.104446 -0.169230 -0.192209
0.243729 0.118633 -0.339760
-0.364132 0.038907 -0.021931
0.336773 -0.046846 0.073704
0.085877 -0.021342 0.419536
-0.335821 -0.013747 -0.435425
-0.110597 -0.213351 -0.139374
-0.022942 -0.171028 0.432864
0.305502 -0.229868 0.275371
-0.156022 0.141244 0.131787
0.327989 -0.079504 0.214996
-0.291442 0.121052 -0.481408
0.432264 0.014687 -0.181262
0.474484 0.140240 0.173469
0.055982 -0.115077 0.411477
-0.173604 0.351578 -0.312232
-0.207747 -0.134684 -0.062127
0.253428 0.055081 0.311132
-0.064410 0.180848 0.118691
0.131155 0.277360 -0.274741
0.357159 0.289155 0.002069
0.027076 0.123088 0.106106
0.094332 -0.196958 -0.206026
0.371434 -0.169092 0.263462
0.198718 -0.127215 -0.047565
0.357945 -0.235535 0.276948
-0.357162 -0.022444 -0.412602
0.219423 -0.064658 -0.459334
-0.038889 -0.227783 -0.134133
-0.366476 0.105447 -0.025692
0.248377 -0.096737 -0.241661
0.055669 -0.183412 -0.331059
0.240182 0.187248 0.206045
-0.169600 -0.127552 -0.053085
0.225768 0.256722 -0.259632
0.317642 -0.107894 -0.178184
-0.043950 0.098467 -0.461229
-0.358143 -0.042990 -0.308787
-0.063403 0.291164 -0.031211
0.196713 0.124451 0.156825
0.071703 -0.074757 -0.459602
-0.233788 0.253662 -0.475132
0.102722 -0.173115 -0.186086
-0.304898 -0.104247 -0.098174
0.457575 0.310846 0.052341
0.295500 -0.294484 0.331173
0.402584 0.332571 0.062109
0.422722 0.016921 0.205834
0.451527 0.149562 -0.048286
0.462321 0.025402 0.088493
0.063533 0.308894 -0.215372
0.345823 -0.043663 0.037655
-0.392168 0.014031 -0.266028
0.473413 0.115085 0.017235
-0.367180 -0.047884 -0.265183
0.382076 -0.031600 0.002458
-0.218125 -0.028486 -0.483535
0.014877 0.253988 -0.456514
0.247935 0.274955 -0.486189
0.209078 0.298963 -0.165044
0.296681 -0.025344 -0.434994
0.183297 0.290509 -0.166968
-0.227388 0.319384 -0.346395
0.326851 -0.183444 0.241393
-0.329385 -0.046558 -0.023427
0.483145 0.064251 0.052910
0.451321 0.174434 -0.089325
0.312859 -0.046793 0.124472
-0.361688 0.222171 -0.279541
0.328179 0.116636 0.296294
0.166867 -0.110125 -0.218319
-0.277530 -0.119387 -0.089009
0.039871 -0.160016 -0.488909
0.319569 0.103709 -0.320371
0.442472 0.309908 0.153941
0.015109 -0.170153 -0.460790
0.364322 -0.057060 -0.224233
0.333823 -0.007440 -0.287469
0.393591 0.240952 -0.011555
-0.323356 0.257369 -0.087468
-0.292769 0.294927 -0.176041
-0.037457 -0.144096 -0.049708
0.293907 0.185982 -0.300100
0.135231 0.005648 -0.481357
0.176925 0.098111 0.128641
0.237891 0.177331 0.215819
-0.056234 0.190914 0.110499
0.142024 -0.122500 -0.035274
0.348563 0.315126 0.180886
-0.157164 0.195465 -0.463020
-0.001664 0.303420 -0.483904
0.395750 0.220710 -0.199915
-0.016574 -0.131461 0.373208
-0.460329 0.071335 -0.241056
0.266877 0.174676 -0.489096
0.171542 0.251973 0.000577
-0.280549 -0.037915 0.034669
-0.014757 0.336830 -0.353123
-0.338255 -0.091962 -0.127115
0.248058 0.276073 -0.231694
0.108274 -0.168176 -0.492016
-0.211538 -0.115884 -0.034216
-0.244765 -0.122356 -0.409356
0.131960 -0.176656 -0.455386
-0.240393 -0.139904 -0.388688
0.294473 -0.055206 0.235424
0.004812 0.102271 -0.462287
0.379150 0.087185 0.292683
0.041703 0.089034 0.106831
0.306854 -0.326497 0.306845
0.024429 0.305826 -0.360364
0.452847 0.239023 0.218643
-0.174371 0.076951 0.132835
-0.232925 0.332404 -0.257506
0.475707 0.128834 0.159443
-0.326881 -0.099369 -0.121912
0.181628 -0.019564 0.109934
-0.325528 -0.100518 -0.211957
0.216305 -0.042897 -0.369948
-0.372956 -0.051127 -0.143081
-0.217430 0.318198 -0.359340
-0.244074 0.075427 -0.476873
0.483983 0.108562 0.141161
-0.152549 0.259434 -0.484566
0.087700 0.291985 -0.139373
0.186677 0.265960 -0.019276
0.074173 -0.153600 -0.328917
0.013302 0.375188 -0.164826
0.080050 0.191994 0.061389
0.379184 -0.018515 -0.247064
-0.222957 -0.173414 -0.207905
-0.428748 0.203039 -0.315789
-0.172066 -0.115470 -0.002069
0.014410 0.348122 -0.263098
-0.262672 0.169861 0.082938
0.272770 0.001012 -0.408380
0.160253 0.116190 0.112371
-0.093433 0.359582 -0.095222
-0.033027 -0.125351 -0.005450
0.198191 0.044173 0.343328
0.166626 -0.012263 0.109839
-0.270112 0.101920 0.088160
0.268167 0.228005 0.241818
0.116713 0.284823 -0.171947
0.111686 0.272926 -0.399319
-0.067960 0.253289 0.058669
0.475811 0.175480 0.038678
0.103726 -0.076415 0.045171
-0.402769 0.106569 -0.171014
0.090828 0.049127 -0.472515
0.430404 0.090839 -0.211703
0.416915 0.006029 0.005657
0.030280 0.285050 -0.035203
0.326477 -0.055632 0.024775
0.143974 -0.087095 -0.402306
0.409636 -0.043394 -0.135607
0.477027 0.202319 0.040362
0.087214 -0.019293 0.421116
0.395957 -0.024059 -0.010171
