ply
format ascii 1.0
element vertex 1686
property float x
property float y
property float z
end_header
0.211016 0.125889 0.180994
0.457056 0.069205 0.246088
0.015455 -0.076792 0.374932
0.260797 -0.084411 0.029748
0.107312 -0.168662 -0.420748
0.293012 -0.112687 -0.188991
-0.026885 -0.235225 -0.147756
0.323066 0.273914 -0.059103
0.361884 -0.036418 0.199055
-0.313254 -0.025571 -0.423443
0.290559 -0.162400 0.280438
-0.364262 -0.032221 -0.304152
-0.058531 0.281084 -0.482683
0.355611 0.015456 -0.480918
-0.146396 0.349364 -0.366713
0.383195 -0.045088 -0.025725
-0.128415 0.253723 0.055669
0.233383 0.174215 -0.489155
-0.296428 -0.112708 -0.330924
-0.292465 0.296535 -0.186301
0.025868 0.343032 -0.479794
0.327223 -0.048890 0.316308
-0.369816 0.214960 -0.393212
-0.186611 0.355948 -0.159275
0.162516 0.002332 0.113010
0.288449 0.146221 -0.483919
0.192839 -0.124092 -0.179938
-0.436500 0.175955 -0.268887
-0.420008 0.075832 -0.237458
0.306854 0.262175 0.222517
0.293904 0.184485 -0.432860
-0.052173 -0.131589 -0.006535
0.269799 0.155826 -0.489205
-0.147533 0.034398 0.132147
0.303013 0.099470 0.294645
-0.069223 0.311640 -0.062565
-0.336574 -0.036346 -0.361528
-0.213433 -0.165604 -0.368401
-0.320461 0.268479 -0.246459
0.334580 0.278468 -0.175399
-0.178270 0.358531 -0.268709
-0.016285 0.009210 0.109614
-0.267467 -0.065784 0.017835
0.063297 0.187466 0.067506
-0.100587 0.253131 -0.469718
0.371589 -0.164197 0.268049
0.126190 0.257756 -0.366464
0.487782 0.264109 0.084616
0.370462 0.264243 -0.107748
-0.265420 0.108876 -0.482842
0.032698 0.334462 -0.254778
-0.027048 0.345416 -0.087074
0.321062 -0.103164 -0.193815
-0.321853 0.274039 -0.121903
0.174759 0.051334 -0.489603
0.172401 0.237933 -0.486003
-0.227587 -0.099443 -0.016351
0.359849 -0.190617 0.247716
0.173959 -0.080219 -0.296317
0.059884 -0.216562 -0.253365
0.254268 0.239719 0.019548
0.462028 0.248846 0.193181
-0.358534 0.154427 -0.023458
0.222619 -0.011573 0.332372
0.292395 -0.297623 0.358512
0.450401 0.138114 -0.159519
0.273390 0.220637 -0.406057
0.188426 0.180121 0.087277
-0.179171 -0.185417 -0.303630
0.175670 -0.133491 -0.132159
0.380825 0.286171 0.230084
0.019797 -0.071843 -0.458830
0.051078 -0.179023 -0.346250
0.338631 0.144342 0.296508
-0.116105 -0.213579 -0.248964
0.319941 -0.212824 0.381586
-0.112896 0.242504 -0.461656
0.387581 -0.067361 -0.163263
-0.196986 -0.161250 -0.390805
-0.380821 -0.023408 -0.244953
0.216289 -0.111811 -0.209761
-0.064668 0.243905 0.069686
0.227854 -0.127098 -0.057879
-0.174947 0.067327 -0.479952
0.036755 -0.156866 -0.490114
0.179669 -0.126940 -0.460046
-0.040738 0.368226 -0.253431
0.275167 0.286899 -0.196715
0.002052 -0.152781 0.436594
0.290582 0.288828 -0.474104
-0.212018 0.116301 -0.479677
-0.354026 0.012497 -0.451566
-0.013364 -0.159950 -0.472758
0.068348 0.174873 -0.464039
0.363408 0.185911 -0.264251
0.490921 0.124651 0.043220
0.066412 0.227314 -0.459925
-0.299995 0.001994 0.047066
0.284546 0.240849 0.170344
-0.083086 0.266913 -0.479640
0.421236 -0.006596 -0.031331
0.069891 0.115654 0.096253
0.358294 -0.059904 -0.020675
-0.072331 -0.153846 -0.462559
-0.155255 -0.206877 -0.199769
0.281169 -0.026717 0.195361
0.367711 -0.154301 0.291878
-0.233089 0.227784 0.056882
0.255521 0.044915 0.314190
0.013123 -0.194007 -0.096937
0.175957 -0.070389 -0.491484
-0.030937 -0.168933 -0.077650
-0.352450 0.051344 -0.463968
0.201683 0.134636 0.160653
0.092866 -0.187579 -0.170363
-0.097716 0.125954 0.133795
0.416398 0.257763 -0.001784
-0.121289 -0.123234 -0.016763
0.050961 0.271622 -0.339036
-0.215687 0.057425 -0.473590
-0.212752 0.314445 -0.076620
0.157525 0.263247 -0.383393
-0.429025 0.157836 -0.254832
0.280919 0.286866 -0.079811
0.126026 -0.085385 0.039010
0.144866 -0.081325 0.044756
-0.295030 0.289415 -0.230786
0.149135 -0.067089 0.353041
0.222554 0.132037 0.203845
0.379758 -0.068698 -0.076285
0.402181 -0.021526 -0.015709
-0.106464 0.041611 0.134166
0.039630 0.057399 0.105668
-0.378008 0.000598 -0.075644
0.443028 0.037003 -0.035642
0.109818 -0.082749 0.338319
0.332579 0.310968 0.159667
-0.142324 0.239328 0.071438
-0.125424 -0.205994 -0.131163
0.349616 -0.281852 0.277580
0.465474 0.138921 -0.101328
-0.315143 0.271087 -0.254079
-0.248830 0.289050 -0.048784
0.127560 0.018916 0.321346
0.270525 0.027085 0.298594
0.026085 0.346204 -0.242599
0.154521 -0.083796 -0.287767
-0.010206 -0.154675 -0.076761
0.012316 0.348936 -0.456574
0.295152 0.091888 -0.490318
-0.276171 0.175159 -0.469153
-0.076994 -0.217692 -0.271754
0.229357 0.135532 0.244390
0.013470 -0.239993 -0.206290
-0.150011 0.171113 -0.476349
0.171337 -0.079816 -0.491500
0.046078 -0.207445 -0.294053
-0.120156 0.341985 -0.080470
-0.294565 0.269304 -0.347571
-0.257876 0.134581 0.094048
0.210013 -0.077219 0.058786
-0.240948 0.279306 -0.438939
0.461222 0.082187 0.192902
0.050012 0.144650 -0.463839
0.472705 0.184890 0.227382
0.031600 0.114503 -0.463133
0.358591 0.210176 -0.252949
0.453189 0.088890 0.001750
0.260528 -0.110069 -0.036701
-0.046674 -0.198284 -0.375416
0.099071 0.260749 -0.297334
-0.036301 -0.236491 -0.159703
0.143788 -0.123379 -0.184544
0.338945 0.268219 0.246232
-0.154729 0.364166 -0.308419
-0.283849 -0.013763 -0.450934
-0.249017 -0.159110 -0.297872
0.461027 0.043791 0.026796
0.223656 0.011922 0.175712
-0.299888 0.276438 -0.310683
0.332244 -0.040011 -0.262069
0.228314 0.008417 0.340185
0.293949 -0.148770 0.264739
0.194155 -0.126102 -0.043442
0.394195 -0.062799 -0.129020
0.280741 -0.013371 -0.493096
0.031510 0.313807 -0.484263
-0.391447 0.010718 -0.109582
0.087174 -0.108149 0.003807
0.381703 -0.084676 0.327242
-0.382826 -0.021981 -0.194160
0.292391 -0.036696 0.222800
-0.170101 -0.150897 -0.422777
0.046788 0.276998 -0.354226
-0.051350 -0.159821 0.404758
-0.187625 -0.103383 0.018036
0.326706 -0.335222 0.446207
0.098797 -0.067908 -0.459953
0.339140 -0.108092 0.354556
0.095990 -0.075113 0.429881
0.345415 0.275659 -0.162618
0.040921 -0.205888 -0.307305
-0.310181 -0.066581 -0.025063
0.067235 0.287187 -0.484024
-0.119282 0.164849 -0.463139
-0.289324 0.247236 -0.018014
-0.193428 -0.111174 -0.012895
0.197185 0.072345 -0.477908
0.038168 -0.169276 -0.414498
0.414541 0.122779 0.286894
-0.311976 -0.039658 -0.389006
0.456192 0.029946 0.036981
0.167560 0.282765 -0.096229
-0.143662 -0.144425 -0.075038
-0.312034 0.214448 -0.407054
0.304613 -0.137431 0.242093
0.469354 0.199455 0.032369
0.396605 0.222501 -0.038147
0.200205 0.155639 0.148941
0.149532 0.078889 -0.477257
0.052636 -0.059577 0.429648
-0.151656 -0.051377 0.088914
0.162869 -0.125587 -0.430013
0.355293 -0.094001 -0.169835
-0.032889 0.350540 -0.335351
-0.331141 0.259930 -0.278689
-0.455271 0.178094 -0.361672
-0.404110 0.052056 -0.174130
0.372294 0.188828 0.287273
-0.497163 0.106772 -0.318988
0.456360 0.246731 0.205589
-0.035749 -0.198452 -0.093197
0.407818 0.342307 0.142881
-0.037379 0.364122 -0.301966
-0.405389 0.123414 -0.224796
-0.091907 0.373373 -0.135152
0.327275 0.031528 -0.307527
0.441485 0.176533 -0.151062
0.404507 0.049272 -0.247248
0.185659 -0.127894 -0.054634
0.192359 -0.129113 -0.060746
0.102385 -0.015462 0.347870
0.260878 -0.125726 -0.098833
-0.168862 0.353203 -0.118790
0.057338 0.262636 -0.337153
-0.420116 0.183338 -0.398197
-0.364270 -0.027657 -0.076347
-0.153122 -0.135687 -0.480291
0.097253 -0.162568 -0.150583
0.133336 0.288969 -0.149881
0.176836 0.118555 0.124108
0.470732 0.052581 0.146628
-0.142401 -0.198175 -0.118140
0.342234 -0.259638 0.256680
0.465586 0.168104 0.255157
-0.178240 -0.146228 -0.432821
0.077482 0.304922 -0.484012
-0.375729 -0.045593 -0.139571
-0.176009 0.363106 -0.207999
-0.010093 -0.188022 -0.390892
-0.067814 0.321582 -0.448133
-0.045106 0.377116 -0.153447
-0.272775 -0.147711 -0.195789
0.469281 0.091928 0.252203
0.355963 -0.232832 0.294330
0.205787 0.028110 0.153925
0.131217 -0.117456 -0.490555
-0.130295 -0.133948 -0.052361
0.238374 -0.025079 0.113465
-0.013627 -0.095970 0.382976
0.359673 0.353189 0.078877
-0.336424 -0.006949 -0.443866
-0.260456 0.175992 -0.475332
0.027567 0.048778 0.107858
0.014886 -0.062099 0.317309
0.072169 -0.042926 0.411975
-0.348174 0.240445 -0.113926
0.069171 0.088199 -0.468536
0.324091 -0.148893 0.233950
-0.253934 -0.089005 -0.423335
0.359896 0.272638 -0.136562
-0.325173 0.048806 0.035000
-0.231744 0.321258 -0.130113
-0.203163 -0.176908 -0.313495
0.269759 0.040691 -0.332043
0.260247 -0.058807 -0.478194
0.122083 0.018370 0.274014
-0.115017 -0.095526 0.048209
-0.368364 -0.047604 -0.256711
0.292082 0.148817 -0.317333
-0.231958 0.028514 -0.484838
-0.112580 -0.186472 -0.373759
0.028120 0.320815 -0.286191
-0.266324 -0.052415 -0.426465
0.092152 0.259142 -0.291060
0.007678 -0.059134 0.317440
0.303644 0.301916 0.107845
-0.326748 0.210505 -0.397947
0.179917 -0.033197 0.375404
0.033022 0.354793 -0.447270
0.405003 0.309113 0.019633
-0.048128 -0.093597 -0.467087
0.310518 0.073067 0.292565
0.362956 -0.196675 0.308172
0.070474 -0.076906 -0.459486
0.333033 0.316286 0.141288
0.360149 -0.194338 0.248667
0.483502 0.221789 0.112731
0.160424 -0.105315 -0.241169
-0.439624 0.187811 -0.370088
0.386573 0.031742 0.282525
0.455365 0.050196 0.176850
0.222837 0.235290 0.022371
0.186845 0.292163 -0.138343
0.289663 -0.035664 0.173634
0.254309 -0.018292 -0.319086
0.233007 0.214895 -0.301610
0.233250 0.150065 0.257088
-0.217390 -0.086840 -0.480829
0.455341 0.159249 -0.070371
-0.088445 0.372067 -0.290897
0.318069 0.227139 -0.460397
0.357219 -0.017290 -0.260649
0.050871 0.002032 -0.461538
0.309084 0.177270 -0.478911
0.111867 -0.001837 0.334821
0.375249 -0.222650 0.345619
0.362297 -0.212401 0.274043
0.040716 0.265633 -0.000888
-0.013578 -0.154132 -0.481886
0.236911 0.240871 0.061389
0.251186 -0.075492 -0.267509
0.091218 -0.125344 -0.486259
0.293908 0.201640 -0.487121
0.296272 -0.336770 0.328661
0.349665 -0.070553 -0.224146
-0.097704 0.005759 -0.458121
0.053648 -0.163660 -0.381081
0.275882 0.245723 -0.266577
-0.078683 -0.089117 -0.469716
0.160637 0.265854 -0.485426
0.306475 0.293667 -0.118039
0.211630 0.157941 -0.493100
-0.043370 -0.122171 0.361110
-0.031304 0.361580 -0.298571
-0.195110 -0.107127 -0.483954
0.201577 0.006875 0.227310
0.384635 0.327634 0.025488
0.294670 -0.058736 0.264822
0.173698 0.055424 0.268802
0.054430 -0.091516 0.342362
0.386805 0.246093 0.258993
0.458285 0.077314 0.255617
-0.498683 0.077226 -0.315019
0.483842 0.220982 0.110574
0.416506 -0.007614 0.162810
-0.116401 0.176328 0.123226
-0.183196 -0.136504 -0.460276
0.278307 0.076001 0.294866
0.045823 -0.046963 0.354625
0.264244 -0.115060 -0.064012
-0.210276 -0.001481 -0.487388
0.203126 -0.120667 -0.191394
0.297768 -0.065001 -0.264664
0.000808 0.043868 0.114189
-0.373020 0.053282 -0.035825
-0.055021 0.233484 -0.456806
-0.103264 -0.080782 0.058862
-0.007065 -0.041487 -0.458964
-0.024094 -0.199089 -0.372073
0.348977 -0.038580 0.185414
0.187443 0.057520 0.310281
-0.272443 -0.143887 -0.272811
-0.199262 -0.176030 -0.336551
0.327878 -0.103691 -0.180140
-0.288836 -0.074448 -0.014390
-0.055162 0.036360 -0.459922
0.315566 -0.369595 0.396076
0.293488 0.294760 -0.161479
0.420923 0.215059 -0.111490
0.377801 -0.166310 0.374374
0.234855 -0.027092 -0.493051
0.450412 0.155794 -0.150890
-0.010129 0.008092 0.107476
0.289734 -0.221413 0.323274
0.061636 0.105722 -0.467543
0.342612 0.250919 -0.025265
0.294135 -0.212230 0.290469
0.291712 0.267745 -0.029117
0.095428 -0.148349 -0.402622
0.330528 -0.047812 0.113980
0.171545 -0.064283 -0.408503
0.311061 -0.239908 0.379562
-0.375693 0.153668 -0.065030
-0.066645 0.252091 0.060145
0.268402 0.132715 -0.329530
0.435657 0.238431 0.239139
0.388563 0.264499 0.247534
0.447631 0.121727 -0.009677
-0.242264 0.096619 -0.474710
0.097165 -0.016737 0.394909
0.430480 -0.005743 -0.172621
0.494649 0.145325 0.057550
-0.040246 0.319433 -0.412422
0.131473 -0.142920 -0.492146
0.377071 -0.107719 0.265638
-0.079986 -0.230781 -0.163709
0.331827 0.139649 -0.307238
-0.036480 0.213964 -0.458113
-0.354717 -0.073588 -0.130482
0.027783 -0.073010 0.050754
-0.330774 -0.026814 -0.413954
-0.006873 -0.089620 0.336390
0.233618 0.132625 0.265496
-0.118764 0.248412 0.064940
-0.362666 0.078884 -0.461299
-0.120603 -0.206486 -0.271037
0.401545 0.234718 -0.168618
0.249586 0.239096 -0.280268
0.138738 0.178868 -0.486476
-0.180545 0.244792 -0.484579
0.046397 0.336884 -0.220930
0.377199 -0.029565 0.206671
0.094446 0.104612 -0.489177
0.193413 0.286598 -0.074302
0.051508 -0.097091 0.351383
-0.218765 0.002050 -0.486502
0.060573 0.284748 -0.482735
-0.255256 0.259165 -0.012103
0.133055 0.207528 -0.487527
-0.159672 0.196802 -0.464268
0.043506 0.310161 -0.264048
-0.011385 0.339419 -0.432383
-0.384396 0.213622 -0.340672
0.039956 0.289842 -0.317606
0.291916 -0.309684 0.351201
0.387750 -0.021761 0.238519
0.010154 0.238521 0.050218
0.027413 0.112424 0.108125
-0.347812 0.182278 -0.440118
-0.012698 -0.237504 -0.148280
0.469301 0.223931 0.153134
-0.082385 0.316491 -0.439261
0.408623 0.296679 0.008104
0.188941 0.254725 -0.310192
-0.198104 0.009045 -0.487945
0.145462 -0.069706 -0.316241
0.287072 0.205356 -0.417438
-0.279589 0.198261 -0.455841
0.276289 -0.014866 0.210601
0.172073 -0.044461 0.292146
-0.300419 -0.122370 -0.182043
-0.158970 -0.062347 -0.472581
-0.004412 0.173045 0.101461
0.262506 -0.057429 -0.488893
-0.093621 -0.105742 0.029318
0.288570 -0.196276 0.303695
-0.302857 0.164025 -0.464731
-0.263103 0.297542 -0.334062
0.370765 0.122717 -0.280920
0.147810 0.274341 -0.307419
0.353588 -0.012481 0.306490
-0.377001 0.191969 -0.126937
0.003998 0.221587 0.070221
0.198129 0.271676 -0.485211
-0.160441 0.367776 -0.164790
0.196765 -0.078392 -0.464919
0.218421 0.289627 -0.207022
0.487384 0.216809 0.070170
-0.023246 -0.123940 0.420089
0.478180 0.160147 0.227710
-0.326575 -0.093474 -0.292405
0.076484 0.042521 -0.463802
-0.130918 0.371863 -0.208665
-0.376575 -0.034619 -0.237835
0.115063 0.279131 -0.196400
0.287836 -0.361035 0.410653
0.233300 -0.127982 -0.063772
-0.123066 0.034030 -0.485273
0.429976 0.088553 0.279391
0.235161 0.222550 -0.391019
0.457587 0.218539 0.226383
0.118954 0.191832 0.070228
0.478866 0.078070 0.028819
0.069853 0.079570 0.099717
-0.195603 -0.126442 -0.471767
-0.076115 0.384208 -0.242089
-0.038532 -0.230040 -0.139616
0.280507 0.162226 -0.315018
0.248616 0.159160 0.278998
-0.037210 0.362596 -0.267315
-0.271267 0.020053 -0.480150
0.091221 0.112185 0.100499
-0.009363 0.320313 -0.482917
0.060981 -0.053779 0.419819
-0.095670 0.194245 -0.457723
0.421528 0.244940 -0.001118
0.326594 0.041707 0.288966
-0.307197 0.229553 -0.394648
0.467134 0.034610 0.079862
0.418654 0.004385 0.187586
0.205380 -0.048914 -0.395488
0.393332 0.032097 0.280168
0.399395 0.177174 0.284946
-0.194496 -0.050065 0.080990
-0.309394 0.284693 -0.210141
-0.393300 0.079109 -0.090125
-0.397372 0.020583 -0.255641
-0.422756 0.051264 -0.246595
-0.236110 -0.164196 -0.160715
-0.273975 0.204503 0.049710
0.141614 -0.047991 -0.472007
0.009840 -0.089457 0.040242
-0.173882 0.090525 0.134029
-0.020431 0.373888 -0.132431
0.291588 -0.080364 0.268458
-0.335878 -0.086265 -0.212603
-0.350671 0.242330 -0.214090
0.345124 0.204101 -0.265567
-0.238219 0.312848 -0.095550
0.278066 0.044417 -0.401582
-0.117557 0.104467 -0.485337
-0.051972 -0.212737 -0.106562
0.267184 -0.005954 -0.318180
0.001662 0.294337 -0.482782
-0.071755 -0.185956 -0.395337
0.262143 -0.032031 -0.301210
0.055059 -0.021425 -0.461385
0.220781 0.102720 0.251374
0.353947 0.291188 0.223406
-0.089660 0.130391 -0.462444
0.294198 -0.215735 0.292197
0.291894 -0.315288 0.369000
0.385258 0.086257 -0.269960
0.118407 -0.092622 -0.474489
-0.119784 0.097150 -0.486186
0.123621 -0.072197 -0.464888
0.095763 -0.031365 0.078296
-0.314498 -0.032300 -0.401627
-0.088778 0.312108 -0.426352
-0.053358 0.365187 -0.324380
0.122787 -0.172807 -0.435821
0.381455 0.242611 -0.020765
0.231134 0.305388 -0.440005
-0.086451 -0.217728 -0.259641
-0.066790 -0.224992 -0.139013
-0.182110 0.274870 -0.016109
0.201701 0.064212 0.164874
0.300163 0.307217 0.082149
0.049913 0.341517 -0.414307
-0.040226 0.282482 0.000772
0.048135 -0.074396 0.049172
-0.088859 0.383280 -0.240023
-0.418831 0.209418 -0.331324
0.117247 0.159939 0.089994
0.367921 0.010134 0.293367
0.012984 -0.102115 0.028079
-0.020475 0.231520 0.071562
0.224187 0.157555 -0.366982
-0.083950 -0.201992 -0.098712
0.371191 -0.084114 -0.167550
-0.418712 0.183136 -0.278627
0.288681 0.258643 -0.417221
0.482895 0.069846 0.115744
-0.403022 0.128212 -0.186350
0.351753 -0.196378 0.391809
0.437053 0.179719 -0.046971
-0.143097 0.301939 -0.475484
0.126810 -0.103459 -0.249767
-0.078792 0.237064 -0.456068
0.296609 -0.150548 0.258302
-0.170068 0.348282 -0.332477
0.095241 -0.097711 -0.324748
0.008258 0.361328 -0.118773
0.383957 -0.054205 0.275300
0.411704 0.091097 -0.243013
0.126813 0.206862 0.053400
0.384436 0.236641 -0.024439
-0.356550 -0.061080 -0.208752
-0.405309 0.102942 -0.198129
0.108724 -0.129076 -0.490629
-0.252850 0.316051 -0.119693
0.377341 0.058030 -0.275947
0.223591 0.290284 -0.484663
0.137566 -0.015418 0.259313
0.115968 0.001326 0.333115
0.127780 0.056160 -0.491577
0.132243 0.053401 0.114715
0.119338 0.170426 -0.487965
0.388737 -0.310046 0.432732
0.421970 0.307366 0.020850
-0.114160 0.283457 -0.003813
0.110694 -0.129924 -0.401224
0.232981 -0.007146 0.317012
0.003229 -0.057330 0.348241
0.204495 0.022186 0.359065
0.191999 -0.112868 -0.015384
0.474347 0.284010 0.041403
0.208022 -0.019469 0.267999
0.438050 0.126262 0.279175
0.151393 -0.155494 -0.444508
-0.276609 0.143875 0.079290
0.106898 0.154207 0.089504
-0.355507 0.015773 -0.019936
-0.126692 0.354631 -0.353217
-0.397819 0.215705 -0.349491
-0.349951 -0.033636 -0.343837
0.274440 0.221534 -0.487232
0.488964 0.134366 0.038080
0.206578 0.083174 0.190722
-0.395660 0.157573 -0.241715
-0.072437 0.185297 0.116895
0.140778 0.279660 -0.241985
0.466394 0.237650 0.182289
-0.151775 0.282753 -0.484528
0.294058 -0.223322 0.348312
0.385938 -0.145102 0.355404
-0.087166 0.315839 -0.474955
0.173012 0.259811 -0.010262
0.453660 0.151530 -0.146973
0.063781 -0.042818 0.454318
-0.328353 0.269640 -0.161317
-0.093811 -0.136389 -0.042328
-0.382457 0.084363 -0.057678
-0.037513 0.373687 -0.128051
-0.180885 0.361383 -0.210907
0.295267 -0.254612 0.357916
-0.195967 -0.111322 -0.018775
-0.333099 0.263136 -0.157833
-0.259033 -0.152070 -0.285860
0.144215 0.026766 0.369103
0.300721 -0.088834 -0.014239
0.415631 0.092468 -0.235219
0.328363 0.135565 -0.309779
0.108746 -0.126286 -0.035765
-0.400513 0.131979 -0.165125
-0.365863 -0.022191 -0.336136
0.247809 -0.014355 -0.343660
0.161573 0.206624 0.053245
0.040073 0.229272 0.044715
0.108829 0.166062 -0.488212
-0.011342 -0.126263 0.457358
0.091126 -0.062824 0.056541
0.133576 -0.059610 -0.359626
0.269533 0.103582 0.292715
0.122855 0.287442 -0.177662
0.006830 -0.053768 -0.458997
0.144322 0.054440 0.117175
-0.120459 0.314762 -0.065578
-0.262506 0.263660 -0.414781
-0.265831 0.311055 -0.239667
-0.161365 -0.136792 -0.070357
0.205663 -0.031358 0.313119
-0.344573 0.246421 -0.241109
0.288997 -0.342632 0.392049
0.256702 0.059115 -0.343619
-0.345963 0.246792 -0.146247
0.402502 -0.054584 -0.116496
-0.275046 0.263096 -0.377477
-0.099922 -0.125218 -0.489298
-0.123018 0.317731 -0.413222
0.474853 0.092499 0.156457
-0.425987 0.203188 -0.359438
-0.293164 0.156476 -0.470434
0.454511 0.293847 0.150840
0.359764 -0.068649 -0.214860
0.039977 -0.074940 0.321344
0.238020 0.092285 -0.398594
-0.199455 -0.088834 -0.484694
-0.304202 0.259633 -0.353202
-0.236861 0.021985 -0.486482
-0.198802 0.139319 0.121894
0.451529 0.095865 -0.005341
0.439384 0.327342 0.126059
0.210710 0.306042 -0.471178
0.261055 0.075732 0.296300
0.323090 -0.063051 -0.250919
0.066550 0.308410 -0.126965
-0.028184 -0.106258 0.018456
0.071965 -0.124719 -0.486731
0.190289 0.018843 0.368604
0.277198 -0.091865 0.005433
-0.273044 0.077023 0.086230
0.088465 -0.006495 -0.461591
-0.044298 0.275596 -0.476554
-0.283133 -0.139638 -0.258046
-0.074419 -0.099198 0.033647
-0.037930 0.239520 -0.456540
0.128012 -0.089614 -0.478692
0.378297 0.257566 -0.157851
0.350341 0.178921 -0.275454
-0.227570 0.345704 -0.211523
0.167752 0.272494 -0.038434
0.042984 -0.137448 -0.032612
-0.357253 0.229395 -0.250586
0.101811 -0.083482 -0.319826
0.121740 -0.099722 0.020588
-0.038889 0.379803 -0.171017
0.479098 0.073517 0.031810
-0.367081 0.064270 -0.458738
-0.037259 0.050104 0.123828
0.267385 0.244099 0.009532
0.040389 0.290180 -0.311186
0.146302 0.203274 0.059564
-0.435421 0.050341 -0.414694
-0.250836 -0.073124 -0.435029
0.219902 -0.113135 -0.021797
0.082065 -0.182672 -0.459773
0.170565 0.061109 0.124541
0.438801 0.163031 -0.167649
-0.037197 -0.030825 0.098923
0.291942 -0.177876 0.279252
0.061522 0.288013 -0.246153
-0.223860 0.288856 -0.033556
0.030743 0.245331 0.032278
-0.378297 0.196330 -0.245296
-0.041902 0.050119 -0.460569
-0.021157 -0.042832 -0.458521
0.031121 0.309235 -0.386363
-0.319189 0.146693 0.038601
0.115496 -0.102738 -0.479363
0.212836 -0.066452 -0.463936
-0.206003 0.237901 0.055398
0.009963 0.230332 0.061390
0.459137 0.282187 0.155160
0.205795 0.061781 0.180053
0.296540 -0.377047 0.361405
-0.101032 0.383068 -0.233772
0.312644 0.258892 0.244187
0.211942 0.301220 -0.144225
0.003213 -0.065706 0.321372
0.293824 -0.102428 -0.221943
-0.139034 0.268752 0.028349
-0.290087 -0.051928 0.014286
-0.461881 0.018386 -0.279391
0.089798 0.324987 -0.481750
-0.251173 -0.156528 -0.165635
0.312592 0.229485 -0.481083
-0.023538 0.064222 0.122324
0.443979 0.040283 -0.034978
-0.025382 0.131522 0.121310
-0.280866 -0.133851 -0.138318
0.223151 -0.122515 -0.190736
0.264031 0.296808 -0.141905
-0.379042 -0.034380 -0.174833
-0.223702 -0.122026 -0.044501
-0.257284 0.038207 -0.486203
0.018781 -0.240368 -0.213378
0.370256 -0.017753 0.302199
0.366603 -0.070335 -0.199963
-0.207777 0.167932 0.110393
0.418258 0.218188 -0.108370
0.274413 0.049852 -0.400295
-0.031157 0.319186 -0.402416
-0.022944 0.375186 -0.146658
0.255922 0.210274 0.236197
0.405839 -0.024393 0.124625
-0.286784 -0.113131 -0.379403
0.271150 0.231615 0.258236
-0.138470 0.207422 0.103962
0.441038 0.223941 0.007864
0.320942 -0.369927 0.451153
0.252068 0.240863 0.137358
0.292045 -0.231896 0.344204
0.176916 -0.079387 0.059383
-0.007123 -0.220380 -0.115985
0.090923 -0.110078 -0.324659
-0.443050 0.064449 -0.240574
-0.389545 0.105019 -0.081806
0.361098 0.003968 -0.269954
-0.088231 -0.213916 -0.285518
0.007166 0.359238 -0.247547
-0.147569 0.210537 -0.455400
0.478449 0.120453 0.197472
0.313286 -0.047213 0.099169
-0.134916 0.359433 -0.332143
0.143670 -0.063432 0.385003
-0.360788 -0.029874 -0.395271
0.392578 0.203624 0.278308
-0.344198 0.209733 -0.052848
0.433186 0.233873 0.244663
0.055461 -0.135765 -0.490902
0.110749 -0.059565 -0.366528
0.450743 0.067769 0.212242
0.058924 0.337008 -0.414101
0.281486 0.287446 -0.081374
-0.015770 0.367044 -0.238076
-0.077785 -0.145794 -0.064148
0.189340 0.168967 0.112276
-0.274825 0.263604 -0.038559
0.409261 0.010856 0.246796
0.291510 -0.254180 0.341668
0.063161 0.292662 -0.384243
0.226433 -0.016460 0.280491
0.454086 0.095850 0.001469
0.184676 0.264783 -0.016270
0.164401 0.277318 -0.482444
0.038945 -0.112714 0.374982
0.344122 -0.297877 0.341067
-0.073289 -0.062881 0.078239
-0.027888 -0.181302 -0.083184
0.061297 -0.162677 -0.491175
0.415220 -0.005776 -0.204148
0.291765 -0.195248 0.287335
-0.165297 -0.145663 -0.434646
0.460055 0.078397 0.253839
-0.183356 -0.090413 0.044372
0.164989 -0.047102 0.379311
0.063203 0.284839 -0.246335
0.054848 -0.231069 -0.191900
0.159135 -0.080852 0.050234
-0.310438 0.020699 0.046637
-0.030989 0.379409 -0.196876
-0.041789 0.297684 -0.484287
0.273313 0.069832 0.296507
0.345384 -0.311067 0.374908
0.440192 -0.008611 0.093853
-0.078024 0.255929 -0.466266
0.219932 -0.049931 -0.492783
0.442673 0.004811 -0.131645
0.306898 0.268704 0.166627
-0.318896 -0.053842 -0.017032
0.308122 0.209783 -0.439415
0.115450 0.276646 -0.404950
0.219735 0.099512 0.236538
0.309230 -0.205316 0.261191
0.434491 0.196611 -0.078194
-0.313868 0.166428 0.039529
0.452743 0.232084 0.010289
-0.349215 0.021840 -0.005616
0.226503 0.217968 -0.304773
-0.196362 -0.185473 -0.284533
-0.381014 0.187656 -0.265171
0.008647 -0.017619 -0.460151
0.142173 0.023406 0.375360
0.438269 0.186399 0.010038
0.190824 0.287989 -0.189672
0.241921 -0.001886 0.245488
0.290120 -0.353380 0.350852
-0.201237 0.026458 -0.484480
0.445305 -0.004203 0.091750
0.314514 0.093985 -0.447919
-0.200253 0.209864 0.090188
-0.343114 -0.065028 -0.096148
-0.012066 0.046226 -0.461211
0.141034 0.286634 -0.110804
-0.077897 0.377419 -0.166258
0.069350 0.000838 0.088405
0.157654 -0.140336 -0.492248
-0.002252 0.366215 -0.229538
0.360042 -0.043346 0.084672
0.365930 0.350653 0.060640
0.404201 -0.025168 0.125041
0.295676 0.275301 0.039559
0.274787 0.285837 -0.200937
-0.321039 0.195761 0.007911
0.067908 0.237493 0.020788
0.161791 0.279984 -0.079051
0.450077 0.137957 -0.036181
0.142412 -0.147700 -0.492285
0.161377 -0.133383 -0.090860
-0.137425 -0.043551 -0.457845
0.199310 0.273476 -0.485028
-0.226739 -0.169980 -0.172003
-0.088303 0.044052 -0.461217
0.263470 0.106128 0.291077
0.099118 -0.180795 -0.178468
0.071738 0.279571 -0.232932
-0.296433 0.229479 -0.412491
-0.245091 -0.159694 -0.163779
0.160156 0.101799 0.117851
-0.355026 -0.062940 -0.220679
-0.021002 0.317922 -0.483062
0.052546 -0.208264 -0.124051
0.241206 0.164111 0.268869
0.232021 0.035813 0.334360
0.231328 0.160967 0.204272
0.253537 0.222638 -0.486912
-0.008507 0.283146 -0.478098
0.274037 -0.121008 -0.139384
0.343924 0.349722 0.059764
-0.156073 -0.186793 -0.344561
0.411491 0.220593 -0.172650
-0.059392 -0.087022 0.049561
-0.359921 0.048820 -0.460422
-0.021339 -0.136798 -0.490617
-0.097739 0.385002 -0.221050
0.395228 0.305248 0.205914
0.289330 -0.110550 0.284055
0.388672 -0.114210 0.301954
-0.270127 -0.066416 0.013144
0.334257 0.250269 0.261621
0.341352 0.037477 -0.440982
-0.026823 0.359311 -0.269971
-0.344139 -0.060487 -0.321877
0.422484 0.286238 0.005909
-0.064829 0.332283 -0.392549
-0.451760 0.080746 -0.236834
0.223330 0.264138 -0.250891
0.459049 0.027015 0.137165
0.091627 -0.119848 -0.017640
0.334664 -0.047840 0.118556
0.460732 0.116469 -0.144288
-0.461770 0.129582 -0.242781
-0.397063 0.118480 -0.122598
0.458123 0.045524 0.022027
-0.051257 -0.213436 -0.321256
0.190999 -0.130809 -0.132569
-0.192704 -0.145212 -0.431398
0.294615 -0.023619 0.256545
-0.304565 -0.114714 -0.280020
0.158834 0.283513 -0.479658
-0.148217 0.040497 -0.487054
0.236152 0.085615 -0.384277
0.208988 0.118085 -0.490993
0.388379 0.346571 0.086943
-0.054282 0.274104 -0.477891
0.198231 0.060440 0.232092
-0.104956 0.309008 -0.433120
-0.296774 -0.066922 -0.393796
0.061061 0.292739 -0.088828
0.130735 -0.138437 -0.411888
-0.268926 -0.050710 0.032832
-0.117739 0.244910 -0.465855
0.148115 -0.066884 -0.323864
-0.410202 0.189934 -0.287811
0.302105 0.167438 -0.482402
-0.395425 0.002562 -0.199702
0.137621 0.176032 0.084503
-0.281923 0.243251 -0.417826
-0.122236 0.377071 -0.173461
0.326262 -0.300870 0.420908
0.074154 -0.039235 0.413832
-0.163014 0.246754 0.058169
-0.299921 0.247979 -0.378043
0.074626 -0.046512 0.068585
0.276920 0.250247 0.148380
0.296793 0.063187 -0.491590
0.284194 0.060002 -0.328848
0.120229 -0.136768 -0.491978
0.290206 0.200384 -0.421363
0.221963 0.293509 -0.425570
0.371206 -0.049069 0.317505
0.226243 0.184326 -0.365317
-0.116578 -0.193021 -0.097129
0.439121 0.325947 0.099281
-0.216727 0.132779 -0.482646
0.279235 0.146635 -0.453481
0.173427 0.059810 0.126290
-0.078193 -0.201354 -0.349999
0.360660 -0.084727 -0.089982
0.393852 -0.008011 0.251755
0.432217 0.199240 -0.129096
-0.250837 -0.160922 -0.280653
0.142996 0.265090 -0.397801
-0.340382 0.234377 -0.331226
0.132307 -0.035952 0.091976
-0.233996 0.203989 -0.481230
-0.329408 -0.082704 -0.102417
0.298733 -0.230608 0.288687
-0.263514 0.112813 0.092482
0.137260 0.252737 -0.013363
0.413705 0.211557 -0.182334
0.338907 -0.121124 0.225097
-0.138054 0.309671 -0.062368
-0.018125 0.244191 -0.456427
0.372800 -0.036298 0.047486
-0.241855 -0.038318 0.065257
-0.316517 0.277579 -0.120588
0.499153 0.143221 0.085432
0.281095 -0.030237 0.185549
-0.281236 -0.103637 -0.396004
-0.054939 0.160168 -0.460357
-0.131400 -0.051466 0.089847
-0.268849 0.317366 -0.170884
0.254924 -0.043963 0.081634
-0.095028 0.292009 -0.033037
0.303210 0.259851 -0.484439
-0.072058 -0.230411 -0.158762
-0.332292 -0.104162 -0.182075
0.346936 0.277537 -0.153455
0.275227 -0.093649 0.002802
0.044462 -0.227814 -0.147516
-0.036995 -0.217152 -0.320686
-0.284912 0.101261 0.076324
0.337323 -0.297900 0.427612
-0.497740 0.109029 -0.307552
0.149424 0.280851 -0.481036
-0.427229 0.064410 -0.241275
0.172033 -0.052454 0.346375
0.368970 -0.140293 0.285612
0.272873 0.231313 -0.280908
0.349225 -0.340884 0.422365
0.393390 -0.046453 -0.048009
0.215462 -0.129587 -0.159383
0.453792 0.291203 0.157313
-0.348830 0.024753 -0.003712
0.306548 -0.198338 0.363692
0.468155 0.227375 0.169072
0.372047 -0.288835 0.390457
-0.259460 0.063220 0.094032
0.351298 0.064391 -0.471536
-0.248048 -0.096821 -0.023526
-0.326712 0.244851 -0.343234
-0.145416 0.125576 -0.487692
-0.389519 0.030674 -0.086292
0.351493 -0.263116 0.416478
0.412560 -0.037610 -0.085490
0.214161 0.222905 -0.336991
-0.220730 0.241254 0.041656
0.304322 0.121692 0.295382
0.018895 -0.119296 0.002021
-0.002510 0.355321 -0.278379
0.155654 -0.090147 0.034132
0.461293 0.030643 0.045280
0.208384 -0.116893 -0.198556
-0.398799 0.087721 -0.114283
0.228552 0.291753 -0.098079
0.110614 0.122781 0.103231
0.031093 0.336522 -0.403732
-0.372162 0.201889 -0.272558
0.475187 0.113006 0.195225
-0.181031 0.170653 -0.485212
0.125354 -0.091999 -0.270783
0.083698 0.254840 -0.005597
0.293214 0.266257 0.138339
0.012600 -0.135868 -0.491541
0.333782 0.343817 0.093275
0.212212 -0.020439 0.337084
-0.372578 -0.025397 -0.098655
-0.030749 0.179142 -0.460114
0.074300 0.191105 0.062918
0.358860 0.252508 -0.202665
0.019455 -0.021838 0.088357
-0.221191 -0.161610 -0.129192
-0.128907 0.373206 -0.198811
-0.241166 -0.120955 -0.417548
-0.423735 0.192246 -0.383087
0.257574 0.212927 0.233214
0.046224 0.102235 0.104173
0.337242 0.007628 -0.293902
-0.100112 0.371017 -0.306990
0.325499 0.264855 0.005516
-0.091992 -0.101590 0.033729
0.015119 -0.140030 0.464023
0.294691 0.247739 0.175007
0.124262 0.264347 -0.332153
-0.189555 0.347997 -0.294678
0.397436 -0.030209 -0.022251
0.310995 0.224743 -0.482861
-0.207505 0.283778 -0.025221
-0.054626 0.076788 0.129431
-0.311802 0.153200 0.046257
0.221510 -0.016327 0.272557
-0.075244 -0.223099 -0.245316
0.319783 -0.362973 0.389382
0.285003 -0.360669 0.374451
-0.392645 -0.009989 -0.410488
-0.073649 0.369475 -0.110795
0.139642 0.214057 0.046237
0.289861 0.143107 -0.474673
0.067420 0.201740 -0.461929
0.261941 0.182910 -0.488535
-0.238763 -0.164487 -0.188584
-0.043345 0.170493 0.117384
0.309409 0.256404 0.011490
-0.460515 0.017851 -0.366289
-0.262504 0.148576 -0.481701
0.210795 0.043110 0.199339
-0.280936 0.246349 -0.415121
-0.119326 0.366919 -0.323729
-0.181919 -0.192860 -0.190754
-0.150355 0.117006 0.136125
0.014443 0.111225 0.112925
0.048667 0.042029 0.100846
-0.011722 -0.111790 -0.483041
0.305658 0.248123 -0.250273
0.021305 0.278049 -0.017588
-0.071968 -0.090652 0.043864
0.466616 0.239170 0.180049
0.421928 0.132441 0.284598
0.026341 0.188099 -0.461070
0.277575 0.263136 0.047407
0.095695 0.166408 0.079083
-0.045611 0.341368 -0.079949
0.119610 0.226855 -0.484547
0.056467 0.340633 -0.195165
-0.277247 0.305749 -0.227271
0.376859 -0.035347 0.145795
0.062242 -0.044903 0.360869
-0.292301 0.191934 0.045577
-0.239392 -0.125708 -0.057350
0.303106 -0.288901 0.305213
0.105410 -0.154054 -0.409808
0.389121 0.168626 -0.247337
-0.190243 0.279972 -0.481469
0.442809 0.323136 0.099597
0.028279 0.365505 -0.199823
0.000102 0.358229 -0.263858
0.297098 -0.385502 0.409293
-0.394122 0.008995 -0.232440
0.192286 0.077379 -0.475651
-0.047740 -0.018318 -0.458493
0.017282 -0.017506 -0.460410
-0.484788 0.124788 -0.260421
0.064453 0.352455 -0.440820
-0.294417 -0.097099 -0.378214
-0.192157 -0.121533 -0.478819
-0.292007 0.264156 -0.054147
0.285079 -0.359742 0.378923
0.071896 -0.080325 0.042711
0.292089 -0.312312 0.372126
-0.239052 -0.119949 -0.049168
-0.260738 0.223524 0.040970
-0.376767 0.027883 -0.050994
0.315749 -0.066234 0.314778
-0.394791 0.012476 -0.174864
0.360050 -0.115806 0.359629
-0.289675 0.195658 0.045059
-0.142293 -0.025221 0.109310
-0.386007 0.213390 -0.338317
-0.063487 0.350523 -0.085092
0.186191 -0.096044 -0.490951
0.065733 -0.210984 -0.253747
0.363272 -0.219186 0.261333
0.017958 -0.051114 0.312672
-0.087519 0.223594 -0.456559
0.243804 0.153110 0.276296
0.092821 0.278645 -0.183848
0.308021 0.233886 -0.265321
-0.210925 0.323535 -0.346280
0.093982 0.260287 -0.288592
0.407601 0.032267 -0.239214
-0.234123 0.218947 0.066315
-0.278517 0.292137 -0.288631
0.009175 0.284156 -0.477046
0.403345 0.181043 -0.222643
0.312879 0.068988 -0.490664
-0.174925 0.297563 -0.469515
-0.058188 -0.095026 0.037452
0.360159 -0.201096 0.249920
-0.120268 0.307687 -0.465456
-0.203853 0.079037 -0.475949
-0.335678 0.197702 -0.019724
0.226657 -0.011597 0.144720
0.230612 0.192834 0.170107
0.241584 0.235433 0.027850
0.304055 -0.043504 0.283045
0.371082 0.074081 0.292612
-0.289404 0.297036 -0.155622
0.171790 -0.104614 -0.239144
0.404430 -0.002036 0.230827
0.434559 -0.000232 -0.061728
0.108784 0.319855 -0.436008
-0.225911 -0.140267 -0.397960
-0.389093 0.125913 -0.089545
0.206285 0.294887 -0.181139
0.297499 -0.240569 0.359878
0.374623 0.103965 -0.278461
0.239201 0.297826 -0.129880
-0.327330 0.135790 0.030811
0.229162 0.183057 -0.332709
0.324232 0.013332 -0.429034
0.051907 -0.232358 -0.187942
-0.158320 -0.173085 -0.095706
-0.277694 0.255356 -0.021295
0.311490 0.105942 -0.459352
-0.404770 0.109921 -0.438591
0.123972 -0.109630 -0.235037
-0.216944 0.197745 0.088342
-0.305579 0.229082 -0.011598
0.025964 0.366400 -0.200325
0.272814 0.234481 0.240915
0.171739 -0.140883 -0.457518
-0.035187 -0.233325 -0.243293
0.174781 -0.012846 0.388815
0.385569 -0.190286 0.379330
0.173540 0.155580 0.093568
0.316260 0.196191 -0.477583
-0.186105 0.358991 -0.235125
-0.296309 -0.128218 -0.197568
-0.257126 -0.038390 -0.445906
-0.067142 0.376883 -0.153353
0.049702 -0.215232 -0.128240
-0.154616 0.250583 -0.483377
0.075001 0.292703 -0.081650
-0.287755 -0.032626 0.035006
0.069279 -0.037976 0.429624
-0.100711 0.008225 0.125004
0.086839 -0.139758 -0.076072
-0.287758 0.193316 -0.454803
0.290086 0.249782 -0.000122
0.225474 0.219926 0.129997
0.226622 0.225672 0.121952
0.235073 0.161508 0.239345
-0.243497 0.274195 -0.406702
-0.058545 -0.194706 -0.379285
0.223339 -0.130223 -0.146595
0.476734 0.134245 0.187103
-0.272978 -0.119291 -0.082106
0.204927 -0.018190 0.111664
0.261838 -0.053049 -0.461346
-0.189189 0.352993 -0.171673
-0.029016 -0.234981 -0.242834
0.279015 0.202461 -0.414179
-0.314812 -0.102895 -0.111097
-0.286778 -0.026135 0.041616
0.031057 -0.074965 0.322370
-0.487207 0.137227 -0.339120
0.183972 0.028810 0.229441
0.209066 0.111452 0.186158
0.288389 -0.161436 0.291905
0.019146 -0.069445 -0.458883
0.333897 -0.101541 -0.179469
0.132451 0.145519 -0.481695
-0.008782 -0.080776 0.367451
0.070392 0.247421 -0.358149
-0.248142 0.266467 -0.021137
-0.377245 -0.011825 -0.090601
-0.290728 0.277560 -0.076432
0.302315 0.291091 0.038536
0.379502 -0.066663 0.261000
0.381353 -0.017342 0.289292
0.115876 0.164951 -0.487472
0.001340 0.179778 0.095798
-0.027945 -0.106637 -0.480807
0.210434 -0.002829 0.234503
-0.350617 0.239897 -0.234692
0.016440 0.296258 -0.483138
0.280115 -0.039506 0.121208
0.078450 -0.168162 -0.299488
0.348072 -0.024920 0.312317
0.046165 -0.129913 -0.017991
0.088857 0.064634 0.101232
0.381323 0.016104 0.284840
0.223426 0.265799 -0.027709
0.262831 0.297786 -0.431034
0.049929 -0.224319 -0.143235
0.417491 0.044411 0.271855
0.156937 0.268187 -0.334623
0.299451 0.224478 0.275543
0.466845 0.109901 -0.088855
0.469799 0.089175 0.245168
-0.297260 0.007266 -0.466347
0.174029 0.053424 0.257781
0.233941 -0.112287 -0.025514
-0.327030 0.262543 -0.282373
0.032064 0.332095 -0.105559
0.429332 0.032745 0.224873
0.284750 0.180143 -0.305964
0.232104 0.301713 -0.480129
-0.405549 0.046090 -0.231167
0.307108 0.293851 0.125274
-0.276451 0.294127 -0.297132
0.393368 -0.212600 0.353356
0.309018 0.270240 0.187141
0.012679 -0.185648 -0.093093
0.041035 -0.121024 -0.002667
-0.385382 -0.001341 -0.289632
-0.390139 0.166004 -0.135925
0.129863 0.282631 -0.424343
0.216822 -0.113877 -0.024176
-0.286854 -0.138796 -0.231315
0.046157 0.104898 0.103620
-0.085914 0.292319 -0.031711
-0.206547 0.344908 -0.272841
-0.315909 0.279342 -0.168648
-0.049210 0.301007 -0.058056
0.316308 0.189754 0.289091
0.035978 0.000787 -0.461439
0.407162 0.213765 -0.009904
-0.417842 -0.011957 -0.308004
-0.062595 -0.213089 -0.320983
0.183022 0.251225 0.002084
-0.361895 -0.057946 -0.258795
0.138236 0.255789 -0.019602
0.357550 0.166465 0.294509
-0.145326 0.285174 -0.035806
0.269529 0.212185 -0.405570
0.023465 -0.234584 -0.255949
0.097118 -0.135187 -0.059768
0.361281 0.338178 0.031219
-0.274189 0.309615 -0.224839
0.095073 0.274057 -0.039380
0.224067 0.004587 0.165178
0.213366 0.259638 -0.258638
0.403552 0.311015 0.021608
0.443556 0.054582 0.253208
-0.066017 -0.201855 -0.357931
0.032352 -0.174802 -0.445923
-0.261272 0.269343 -0.034414
0.238822 0.293707 -0.104987
0.033564 -0.097211 -0.461953
0.466245 0.222180 0.191959
0.417978 0.146679 0.284898
-0.068743 -0.103455 0.027862
0.283270 0.236175 0.193011
-0.189635 -0.181851 -0.307689
0.301330 0.100610 -0.441884
0.222490 0.266483 -0.029510
0.240499 0.299484 -0.169160
-0.034532 0.331291 -0.438158
-0.258555 -0.145437 -0.360818
0.263709 0.300692 -0.436111
0.246309 0.059872 -0.492403
0.232565 0.292072 -0.100896
0.296155 -0.052362 0.051992
0.037082 -0.175595 -0.454238
-0.026125 -0.122484 0.413228
0.101397 0.253430 -0.378005
0.276432 0.106251 0.293683
-0.144273 0.305674 -0.058353
-0.060607 0.083982 -0.460817
0.363678 0.316289 0.191281
-0.106023 0.166803 -0.458783
0.337936 -0.233352 0.250483
0.052201 0.341306 -0.415444
0.406615 0.295927 0.007012
0.431086 0.030021 -0.199926
0.150554 0.266535 -0.485568
-0.332071 0.264664 -0.177997
0.303052 0.282754 -0.196168
0.221315 0.016346 0.207032
0.166496 0.230043 -0.486192
0.359714 -0.043399 0.083664
0.194295 0.265342 -0.021539
0.211640 0.060541 0.320341
0.201639 0.233858 0.021227
0.181982 0.287433 -0.115928
-0.048846 -0.233838 -0.208908
0.313741 -0.049920 0.053030
0.376729 -0.160470 0.311835
0.182111 0.051337 -0.489759
-0.275515 -0.048375 0.027987
-0.192794 -0.184917 -0.292708
0.429408 0.108466 0.282580
0.036556 0.296570 -0.307251
0.198049 -0.073274 -0.302860
0.439110 0.273685 0.205002
0.452100 0.060033 -0.040816
0.459801 0.077536 0.181426
-0.126887 -0.206255 -0.287271
0.313476 0.036925 -0.315430
0.155538 0.013222 0.246068
0.314144 0.292907 -0.128875
0.291336 0.050912 -0.492259
-0.357941 0.214223 -0.369928
0.115964 0.127598 0.103453
-0.181086 0.240938 0.061541
0.180026 0.003248 0.382461
0.462359 0.074872 0.237711
-0.112904 -0.218449 -0.226196
0.150895 0.069851 -0.481944
0.295216 -0.321972 0.330000
-0.132842 0.375721 -0.154203
0.249316 0.200348 0.234055
0.245898 0.086740 -0.400732
0.304635 -0.051255 0.051851
0.379606 -0.272748 0.383038
0.151436 -0.140949 -0.492197
0.039048 -0.011697 0.325129
0.249066 -0.001997 0.274668
-0.209974 0.290400 -0.405294
-0.134730 -0.180340 -0.381418
0.056253 0.265500 -0.322576
-0.087042 0.290234 -0.017912
-0.373711 0.019008 -0.046953
-0.338690 -0.036965 -0.357999
-0.306981 -0.112978 -0.278041
-0.353373 0.238237 -0.169237
-0.003087 0.256129 0.031443
-0.254531 0.205552 -0.470602
0.001674 -0.130730 -0.020443
0.185538 0.229755 -0.485926
-0.357451 0.095089 -0.463002
0.270819 0.161876 -0.432473
0.422736 -0.014132 0.131243
0.138150 -0.110672 -0.216325
0.344416 -0.108388 0.223115
0.267995 -0.115392 -0.201423
0.117493 -0.143018 -0.165464
-0.291454 0.196225 -0.450646
-0.409947 0.033859 -0.255953
0.043552 0.292804 -0.064266
0.303305 -0.112381 -0.167604
0.068939 0.126452 0.094427
0.394459 0.294134 0.219013
0.197369 0.290411 -0.090088
0.294481 -0.040427 -0.458823
-0.006942 0.375256 -0.198425
-0.442920 -0.002287 -0.300543
0.445444 0.040752 0.192646
0.494185 0.104728 0.060716
0.103715 -0.040426 0.283289
-0.132930 -0.059814 0.082647
0.172190 -0.101896 0.009721
-0.352613 0.185048 -0.033990
0.312973 0.279155 -0.073772
0.367679 0.351696 0.070468
-0.383687 -0.003136 -0.419762
0.321957 -0.047040 0.101113
0.122076 0.277970 -0.220625
0.059615 0.305540 -0.227717
0.298687 0.201270 -0.428051
0.021954 0.360227 -0.217221
-0.239271 -0.135747 -0.394737
0.076113 0.222470 -0.461512
-0.047433 -0.133314 0.382566
0.161729 -0.161615 -0.489740
0.330388 -0.047145 0.075528
0.379501 -0.056542 0.261841
-0.385164 0.181966 -0.144661
0.168465 0.066048 -0.478694
-0.074862 0.273627 0.025311
0.337123 -0.065927 -0.008856
0.445845 0.047187 0.006982
0.254432 0.193254 -0.307869
0.170046 0.288184 -0.447477
0.302238 0.275628 -0.211186
0.312660 0.006924 -0.307817
0.286030 -0.114570 -0.182471
-0.095641 0.371165 -0.304506
0.231285 0.161902 0.203055
0.219610 0.161418 0.173749
0.466829 0.106932 -0.123804
0.370860 0.244645 -0.026148
0.373024 0.080238 0.292925
0.202071 -0.020539 0.264795
-0.006844 -0.124894 0.474302
0.223146 0.231246 0.087186
0.192541 0.121733 0.150537
0.233436 -0.049397 -0.308046
0.053377 0.268661 -0.326012
0.325711 0.290458 -0.149608
0.392867 -0.231010 0.391665
0.292893 -0.001476 0.261375
0.299093 0.156513 -0.473451
-0.454887 0.107690 -0.403436
0.369602 0.308329 0.007958
0.135770 0.288685 -0.108674
0.323649 0.051181 -0.315071
0.273883 0.034797 -0.400953
0.005154 0.156945 0.104756
0.371970 -0.156412 0.269479
0.329517 -0.130704 0.360152
-0.281910 0.095568 0.078822
-0.214951 0.335550 -0.286063
0.468777 0.196424 0.218400
0.431553 0.102220 -0.210593
-0.356313 0.125876 -0.010136
-0.020183 -0.069262 0.338961
0.275713 -0.032725 0.159354
0.291866 -0.197405 0.288243
-0.368974 0.082174 -0.028260
-0.244177 -0.105779 -0.035811
-0.101285 -0.110963 -0.488833
-0.175614 -0.080005 0.061208
0.201370 0.291292 -0.086931
-0.383408 -0.030250 -0.157285
0.393183 -0.275582 0.415221
0.155390 -0.113304 -0.491618
0.217941 -0.040202 0.094589
-0.295583 0.276330 -0.327022
0.373168 0.065944 -0.281214
-0.029483 -0.119903 0.403589
0.213019 -0.057739 -0.432394
-0.000802 0.288264 -0.045048
-0.398403 0.142555 -0.157016
0.225214 0.148095 -0.350281
0.247465 0.261110 -0.013244
-0.354882 0.232513 -0.275537
-0.255967 -0.050494 -0.439143
-0.296559 0.140303 0.062885
-0.186283 0.065876 -0.477000
-0.204079 0.053521 0.121829
-0.297213 0.261766 -0.356877
0.307488 0.038079 -0.412935
0.111699 0.270898 -0.280596
-0.340693 0.204909 -0.039344
0.139174 0.086837 -0.477542
0.325313 -0.118034 0.352223
0.083408 -0.149106 -0.103657
-0.131524 -0.112793 -0.488929
0.092897 0.029458 0.098661
0.029321 0.302929 -0.348548
0.043215 0.023959 0.099356
0.105657 0.275165 -0.046592
0.069918 0.262814 -0.278057
0.015768 -0.230035 -0.276907
0.044708 -0.205518 -0.302054
0.111010 -0.113182 -0.397008
0.328104 0.066694 -0.489699
-0.024191 0.355669 -0.097392
0.451309 0.277887 0.181813
-0.447906 0.102580 -0.409843
-0.247013 0.272092 -0.448732
-0.404449 0.074353 -0.166528
-0.206204 0.177660 0.108209
-0.017337 -0.162027 0.418429
-0.019478 -0.140472 -0.043729
0.291508 0.242549 -0.263555
0.445565 -0.004084 0.104502
-0.107233 0.305572 -0.480956
0.356802 -0.343202 0.451965
0.299355 -0.114942 0.322908
0.408582 -0.013431 0.164253
0.126537 -0.076702 -0.393268
0.302741 -0.088330 -0.240231
0.017811 0.358667 -0.226162
-0.104203 0.063243 -0.478709
0.282243 0.014969 0.275931
0.121363 -0.135220 -0.188860
0.393327 -0.064934 -0.111052
-0.115833 0.032438 0.132705
0.180544 -0.069175 -0.324444
0.431339 -0.020421 -0.135985
0.406704 -0.042180 -0.167442
-0.065913 -0.096993 0.035379
-0.142114 0.150268 0.131566
-0.398124 0.087136 -0.110743
-0.440785 0.102274 -0.235154
-0.347407 0.143393 -0.000540
0.185430 -0.130058 -0.071035
0.389493 0.254681 -0.009382
-0.328260 0.151513 -0.462286
0.416356 0.032528 0.266441
0.045552 0.350504 -0.144799
0.431963 -0.012748 0.077033
0.241734 0.309597 -0.469828
0.428253 0.180563 0.273728
-0.356967 0.044051 -0.009772
0.386804 -0.037539 -0.221465
0.327275 -0.347625 0.359287
-0.358556 -0.032778 -0.065419
0.345391 -0.009638 -0.274699
0.292897 -0.124909 0.314502
-0.128538 0.154811 -0.474451
0.449883 0.141863 0.273020
-0.191675 0.343701 -0.115771
0.446099 0.013597 -0.137692
0.100510 0.291591 -0.484720
0.225602 0.207870 0.147934
0.091916 0.144310 -0.484723
0.222473 -0.030264 0.101388
-0.358430 0.137588 -0.017925
-0.376305 0.202795 -0.161434
-0.034717 0.361808 -0.311000
0.290221 -0.136965 0.275839
-0.125065 0.211069 0.102054
0.371380 0.339973 0.148480
-0.393645 0.025364 -0.104846
-0.422119 0.153799 -0.417431
0.384485 -0.044044 0.291707
0.121090 0.256809 -0.359568
0.497230 0.124121 0.063181
-0.156916 0.035271 0.131603
-0.270497 0.132202 0.086054
0.162670 -0.154264 -0.456940
-0.131248 -0.205054 -0.265067
0.285141 0.139627 -0.467209
0.477333 0.129391 0.189669
-0.035690 0.336921 -0.078553
-0.053426 0.341007 -0.078388
0.072828 0.318391 -0.400788
-0.388667 0.199441 -0.310320
0.046806 0.159868 -0.462876
-0.036245 -0.222933 -0.301044
-0.290380 0.189232 -0.455671
0.003469 0.260145 -0.457284
0.049470 0.264658 -0.003618
0.228594 0.210650 -0.310918
-0.085942 -0.108546 0.023595
0.089942 -0.067959 -0.459957
-0.233177 0.280454 -0.398789
-0.304221 0.278369 -0.098272
0.294871 -0.270215 0.322686
0.390420 -0.099125 0.307452
0.224526 0.052620 -0.492416
-0.313664 0.083055 -0.480775
0.460037 0.297915 0.033443
0.460785 0.102624 -0.145050
-0.033364 -0.112130 0.013132
0.253074 0.151043 -0.327837
0.361140 0.074521 -0.293825
0.047523 -0.091475 0.469895
-0.399289 0.201509 -0.397326
0.143399 -0.075744 -0.397950
-0.263155 0.158004 0.086566
0.408454 -0.019336 -0.203142
-0.449544 0.194565 -0.332987
-0.067499 -0.116113 0.017199
-0.182292 0.323471 -0.385671
0.181458 0.298311 -0.471106
0.292496 -0.135410 0.267285
0.264357 -0.001563 0.237018
0.255226 0.281028 -0.223677
0.331539 0.325828 0.122090
-0.013339 -0.161515 -0.469751
-0.078216 -0.218563 -0.265696
-0.236315 0.322558 -0.135743
-0.331773 0.262265 -0.117325
0.297301 -0.031094 -0.492596
0.262919 0.164440 -0.318875
-0.381438 0.067887 -0.053609
0.056359 0.285651 -0.267027
-0.304048 -0.115014 -0.282560
0.389805 -0.068040 -0.136408
-0.229397 0.135689 -0.480878
-0.347480 0.071628 0.005548
0.061072 0.289321 -0.382702
0.210119 0.211031 -0.486594
-0.483257 0.061424 -0.259922
-0.102468 0.156973 0.128850
0.141711 0.276753 -0.482902
0.369279 -0.010688 0.299619
0.222983 0.188802 0.162388
-0.434043 0.004556 -0.285139
0.127178 0.278461 -0.233037
0.194054 -0.130688 -0.106810
-0.071193 -0.228183 -0.221903
0.094313 -0.191992 -0.184900
0.120435 0.111182 0.107834
0.262589 0.304755 -0.441842
-0.133967 -0.197963 -0.315106
-0.422934 0.038734 -0.252127
-0.495899 0.102919 -0.274967
0.315712 -0.007874 -0.492537
0.326858 0.197693 -0.279723
0.001670 -0.051596 0.342767
-0.372232 0.117800 -0.453655
0.226378 0.096721 0.268905
0.447686 0.161230 0.009439
-0.254993 -0.092323 -0.419907
-0.230412 0.110800 0.111419
0.061191 0.182472 -0.462915
0.235623 -0.077873 -0.267013
-0.238197 -0.164896 -0.192224
0.069851 0.319139 -0.166763
-0.016613 0.360989 -0.260080
0.411881 -0.011849 0.159283
0.088953 0.262800 -0.266264
0.384675 -0.059623 -0.063330
-0.370551 -0.034095 -0.374587
-0.347515 0.207253 -0.056230
0.201939 0.240022 -0.350781
-0.232911 0.318308 -0.344711
0.222155 0.268886 -0.485901
-0.276204 0.203207 0.048901
0.088905 0.323985 -0.482107
0.370513 -0.218276 0.337734
0.137220 -0.064611 -0.327494
0.138993 -0.113271 -0.406522
0.135720 -0.072600 -0.309846
0.324136 -0.027712 -0.488233
-0.036385 0.363203 -0.264794
-0.393619 0.099398 -0.094420
-0.008976 -0.200294 -0.366548
0.271344 0.021936 -0.399873
0.116970 0.004985 0.398944
0.407428 0.118273 -0.246898
-0.230686 0.285349 -0.438721
-0.010815 0.143169 0.115023
-0.044844 0.235079 0.075917
-0.263214 0.097075 0.092872
-0.053706 -0.211513 -0.326147
-0.005281 -0.182629 -0.398608
-0.492478 0.125945 -0.277123
0.165129 -0.049641 0.090912
-0.334796 -0.065398 -0.066763
0.100236 -0.136638 -0.069241
0.195572 -0.108422 -0.214466
0.194823 0.176736 0.120668
0.378042 -0.065110 0.319585
-0.493297 0.112443 -0.270497
0.302428 -0.166006 0.254801
-0.338722 0.179534 -0.002920
0.232826 0.141137 0.260883
-0.484991 0.080053 -0.359890
0.214039 -0.025508 0.305699
0.053894 -0.063730 -0.459798
0.007489 0.233288 -0.457796
-0.255172 0.075852 0.097838
0.254624 0.060449 -0.382896
0.199705 0.099686 0.166209
-0.473194 0.125708 -0.246921
0.217944 0.009294 0.161450
