ply
format ascii 1.0
element vertex 1684
property float x
property float y
property float z
end_header
0.447180 0.167503 -0.052026
0.231580 -0.002939 -0.493652
0.341120 0.256308 -0.216988
-0.279830 -0.142330 -0.193498
0.459503 0.038734 0.170191
-0.288281 0.162150 0.065588
0.131079 0.063136 0.118157
0.231610 -0.078492 -0.492828
-0.380911 -0.004214 -0.088687
0.188543 0.096091 0.253276
-0.270196 0.148047 -0.482376
0.289587 -0.333440 0.340093
0.456096 0.043081 0.195468
-0.050489 0.321040 -0.480036
-0.069741 0.368063 -0.106476
-0.250130 -0.065568 -0.473084
0.266952 0.246492 0.173581
0.306830 -0.334047 0.307646
0.048613 -0.172687 -0.377905
0.035848 0.278199 -0.008009
-0.007084 0.149637 -0.489953
0.286164 -0.158669 0.293680
0.089102 0.169525 -0.491090
0.419445 0.218997 -0.132602
0.350378 0.274660 0.241914
0.179621 0.277309 -0.296470
-0.034366 -0.166859 -0.046301
0.154920 -0.077151 -0.328135
0.457483 0.038735 -0.133660
0.207947 -0.114914 -0.025442
0.163875 -0.107760 -0.243899
0.258454 0.058910 -0.371931
0.358626 -0.111730 0.356813
0.062089 0.325325 -0.239124
0.183887 0.029754 0.194779
0.206602 0.080297 0.338249
-0.300984 0.264514 -0.387811
0.166197 0.239114 0.052145
0.339065 -0.255257 0.419247
0.382949 -0.180062 0.379309
0.133314 0.178889 -0.490895
-0.128393 0.015714 -0.491131
-0.117419 -0.051237 -0.488499
-0.162453 0.034713 0.129954
0.373135 0.258867 -0.062416
-0.362944 0.152739 -0.449801
0.212857 0.278644 -0.485150
0.152830 -0.045838 0.091029
-0.277637 0.312076 -0.179384
-0.032168 -0.103802 0.387986
0.372173 -0.295782 0.440410
0.433815 -0.014399 -0.106578
0.139353 -0.085958 -0.374056
-0.378473 -0.060867 -0.340757
0.221206 -0.130692 -0.067273
-0.044333 -0.206883 -0.098994
0.351471 0.085576 -0.470862
0.097848 -0.125373 -0.336384
-0.444795 0.004709 -0.372840
0.353488 -0.149935 0.375413
-0.028438 -0.191876 -0.075729
-0.286701 0.291910 -0.316548
-0.072323 0.037656 0.133144
-0.249020 0.318126 -0.294016
-0.365000 -0.061886 -0.370985
0.255029 0.223047 0.231466
0.048728 0.266767 0.002705
0.477027 0.199461 0.197810
0.244375 0.183536 -0.489796
0.336346 0.047153 -0.429981
0.086938 -0.109009 -0.492472
0.395745 0.246550 -0.122047
-0.123560 0.338916 -0.068121
-0.096914 0.368451 -0.323857
-0.012260 -0.118474 0.466519
0.419403 0.344021 0.110561
-0.252155 0.271877 -0.454069
-0.180010 -0.192555 -0.148186
0.094328 0.305327 -0.223739
0.268870 -0.003019 -0.493196
0.297244 -0.287306 0.304121
0.283652 -0.022556 0.247438
-0.122801 -0.206247 -0.116536
-0.384696 0.183334 -0.147367
0.287947 0.003873 0.286868
-0.439622 -0.008128 -0.274697
0.355373 -0.084048 -0.195596
-0.347244 -0.078381 -0.222060
-0.211560 -0.162949 -0.376261
-0.136203 0.328418 -0.058231
0.425372 0.203824 -0.012872
0.084727 -0.033391 0.444107
-0.147618 0.319910 -0.442085
0.216023 -0.133357 -0.068194
-0.225798 0.311832 -0.369992
0.286114 -0.279170 0.327579
-0.169533 0.362755 -0.259973
0.441623 0.026406 0.226082
0.179712 0.048019 0.235370
-0.270515 0.035238 0.081214
0.344554 0.090922 -0.308246
0.184787 0.274532 -0.029353
-0.206670 0.092982 0.123782
0.320618 -0.091483 -0.047550
-0.079596 -0.065906 -0.490070
0.402787 0.199974 -0.216858
0.325281 0.177553 -0.441799
0.244100 -0.118798 -0.044412
0.142386 0.289776 -0.198717
-0.458155 0.043623 -0.391326
0.389584 -0.087440 0.310700
0.246511 0.055917 0.326873
0.006401 0.365941 -0.128082
0.141608 0.287369 -0.386291
0.099133 0.242598 -0.489439
-0.108995 0.352014 -0.379439
0.170702 0.290880 -0.226342
-0.005348 0.234775 -0.488689
0.289564 -0.382357 0.374852
-0.419724 0.214202 -0.319729
0.316651 -0.230944 0.261340
0.354621 0.111725 0.301001
0.136129 0.216069 0.049364
-0.038599 0.278279 -0.486667
-0.422519 -0.029563 -0.301488
0.297473 0.245226 -0.485465
0.237192 -0.088288 -0.277788
-0.437563 0.069645 -0.235807
0.176708 -0.084520 -0.493753
0.432762 0.138477 -0.202949
0.037881 0.353237 -0.132730
-0.093895 0.322610 -0.469105
0.338642 0.232466 0.272061
0.221510 0.264544 0.059773
0.298639 0.096591 0.301313
0.284640 -0.354870 0.353782
0.445808 0.319514 0.130333
0.238686 0.213381 0.195849
0.248134 0.300112 -0.125223
0.364218 -0.116529 0.238646
0.286794 -0.023931 0.247806
0.363502 -0.074959 -0.066792
0.448940 0.171899 -0.063744
0.369371 -0.035662 0.317601
-0.028793 -0.225465 -0.296237
0.152032 0.277580 -0.292065
-0.160076 0.364144 -0.310274
-0.009451 0.046328 0.126051
0.245264 0.014217 0.327377
-0.130943 -0.087317 -0.488410
-0.350925 0.242917 -0.178185
0.408328 -0.038496 -0.169608
0.332500 -0.201369 0.393731
0.305273 -0.042182 -0.460908
0.094364 -0.184463 -0.131043
-0.091036 0.368174 -0.319383
0.310242 0.165183 -0.322314
0.367941 0.046943 -0.283479
-0.475469 0.162634 -0.341271
0.325712 0.054299 -0.321284
-0.472734 0.104603 -0.383147
0.145786 -0.032490 0.100337
-0.324121 0.270794 -0.245506
-0.342300 0.033131 0.012396
0.216001 0.140904 0.263620
-0.333123 0.200824 -0.017176
0.313433 0.210810 -0.434073
-0.361951 -0.074265 -0.174370
0.167120 0.012985 0.384677
0.009703 -0.093323 -0.492202
0.257391 0.180955 -0.490135
-0.076358 0.383962 -0.225102
0.088619 -0.120404 -0.370012
0.357708 0.129927 0.300803
0.370285 0.207831 0.280899
-0.249184 0.085123 -0.486710
-0.092838 0.179683 0.120597
-0.326673 0.095707 0.035863
-0.352778 0.239218 -0.138905
-0.251331 0.271321 -0.452512
0.319289 -0.091233 0.219364
0.406652 0.281572 0.000586
0.080263 -0.102247 0.397469
-0.170480 -0.075234 0.069060
0.376151 0.210271 -0.238658
0.385117 -0.164508 0.298494
-0.348931 -0.059541 -0.085684
0.270867 -0.106904 -0.226811
0.384883 -0.145513 0.288246
0.411573 0.263310 -0.003100
-0.307171 -0.017061 0.032200
-0.159734 -0.079412 -0.488685
0.318429 -0.081070 -0.002110
0.227199 -0.024200 -0.492472
0.462495 0.215664 0.011173
0.472655 0.212646 0.198832
-0.392513 -0.028812 -0.391042
-0.294812 -0.030904 0.031109
-0.294794 0.115646 -0.482814
0.284577 0.143522 -0.342458
0.082048 -0.012360 0.404856
0.375111 -0.072828 -0.082120
0.463212 0.275017 0.020990
-0.221566 0.255241 -0.480036
-0.049188 0.298750 -0.485444
-0.425739 0.173603 -0.402076
0.395589 0.121058 0.294860
0.216337 0.204176 0.148080
0.020069 -0.109009 0.491215
-0.176588 0.356498 -0.130615
0.355769 -0.333704 0.375149
-0.154715 -0.063630 -0.488468
0.349254 -0.183459 0.239631
0.167447 -0.052844 0.365276
-0.125382 -0.141589 -0.014725
0.133479 -0.070617 0.381550
0.318817 0.254668 -0.242802
0.043790 0.351059 -0.420429
0.276927 0.006643 -0.393702
0.069629 -0.221789 -0.183834
-0.329385 -0.001041 0.017328
0.014234 0.289254 -0.016180
0.192945 0.319558 -0.434800
-0.336776 0.259724 -0.218769
-0.479142 0.027371 -0.298114
0.377260 -0.108017 0.249589
0.421221 -0.013926 0.133508
0.463236 0.026826 0.058363
0.098242 0.312516 -0.105224
0.232291 0.189791 0.225421
-0.188283 -0.143595 -0.438482
-0.457388 0.004497 -0.301356
0.290625 -0.144531 0.320526
-0.233440 0.234160 0.049511
0.074958 0.192437 0.084968
0.181770 0.235048 0.069581
0.441252 0.279434 0.198374
-0.200770 -0.061904 -0.487439
-0.289724 0.298059 -0.281972
-0.182522 0.305572 -0.447695
-0.399934 0.017384 -0.172559
0.214076 0.174004 0.194497
-0.270811 0.310905 -0.130119
0.179491 0.275366 -0.305308
0.449939 0.243920 0.220147
0.472170 0.039918 0.079421
-0.280303 0.126715 -0.482540
0.371140 -0.047399 0.210882
-0.396320 0.066973 -0.443741
-0.211694 0.012150 -0.487668
0.357742 -0.319091 0.353991
0.302171 0.161142 0.292473
0.109208 0.301650 -0.092513
0.272403 0.036751 -0.492171
0.239060 -0.074353 0.061211
0.107631 -0.027948 -0.491961
0.092399 0.171157 -0.490056
0.116590 -0.037947 0.429954
0.030343 0.314167 -0.359123
-0.235542 0.120649 -0.486705
-0.020399 -0.144552 -0.490796
-0.491956 0.071667 -0.265313
0.235532 -0.084072 -0.440780
0.302515 -0.321102 0.424278
-0.126638 0.227418 0.088621
-0.083219 0.185454 -0.488710
0.435708 0.208359 0.260526
0.369408 0.260816 -0.055122
0.260749 0.056301 0.314115
0.257378 0.051664 0.315403
0.375482 0.267771 0.249479
-0.140700 0.350286 -0.093242
0.020086 -0.089514 -0.491238
-0.357801 -0.010620 -0.437506
0.001167 -0.147658 0.479539
-0.002985 0.169598 -0.490643
0.285636 0.258121 0.164365
0.258941 -0.119263 -0.052187
0.030994 0.365067 -0.204547
-0.025298 0.132211 0.123845
-0.313460 -0.113774 -0.316737
-0.357153 0.160956 -0.024588
0.437386 0.057845 0.277827
0.307524 -0.169871 0.363223
-0.147198 0.313124 -0.455239
0.147709 -0.059213 0.389320
0.175509 -0.118098 -0.209383
-0.147765 0.361630 -0.119617
0.228722 -0.101840 -0.251162
-0.225989 0.278587 -0.467104
-0.129974 -0.177129 -0.074098
-0.244693 0.293576 -0.398068
0.448131 0.017627 -0.109566
-0.439347 0.046888 -0.409005
0.450752 0.035729 -0.061897
0.062060 -0.222009 -0.237547
-0.248554 -0.126513 -0.409425
0.050362 -0.172655 -0.376527
-0.173782 -0.013559 0.110274
0.053269 0.055645 0.119297
0.325748 0.298069 0.190978
0.035044 0.019973 0.117485
0.288146 -0.273281 0.342579
0.069640 0.320284 -0.091874
-0.219606 -0.088514 -0.476758
0.056699 0.346692 -0.203477
0.373756 0.046411 0.308027
0.378080 -0.225680 0.406244
0.109361 -0.150670 -0.230486
-0.404851 0.040433 -0.433305
0.116124 0.300944 -0.109965
-0.357622 0.234604 -0.168676
0.242148 0.281596 -0.260684
0.214104 0.048359 -0.494416
-0.344596 0.001986 -0.454065
-0.064051 0.209728 -0.486753
0.087762 0.307421 -0.383776
0.185158 0.300017 -0.159344
0.322623 -0.250219 0.408344
-0.316684 -0.037092 -0.448632
-0.011000 0.102395 -0.490803
0.027250 -0.238750 -0.240223
0.295956 -0.278269 0.306898
0.096943 0.337160 -0.427128
0.301794 -0.355534 0.326725
-0.131054 0.208675 0.105149
0.421140 0.303468 0.191263
0.215401 -0.058690 -0.389081
0.346930 0.007055 -0.462936
0.332593 0.336044 0.109686
-0.112032 0.366247 -0.341613
0.387167 0.230264 0.266654
-0.004947 0.035278 -0.492204
-0.054268 0.280669 -0.485965
0.098839 0.330288 -0.483594
0.377381 -0.285064 0.355813
-0.337723 0.075869 0.017688
0.385691 0.255621 -0.148794
-0.005297 0.348971 -0.312095
0.249169 -0.057287 -0.420560
0.115522 -0.071116 0.415261
0.107743 -0.182882 -0.452711
-0.035038 -0.215747 -0.108238
0.332701 0.285002 -0.103535
0.375084 -0.037243 0.314748
0.114743 -0.111136 -0.309303
-0.209187 0.212406 -0.484240
-0.265891 -0.054734 0.035994
0.203882 0.135170 0.228273
-0.212472 -0.177264 -0.154895
0.133883 -0.117239 -0.218381
0.444536 0.021618 0.192685
-0.033809 -0.007903 -0.490002
-0.378596 0.185121 -0.427344
0.126189 -0.132238 -0.492293
0.106344 0.187017 -0.491935
0.359345 -0.083947 0.205697
-0.146344 0.274229 0.024636
0.340912 -0.061094 0.080831
0.365323 -0.024043 0.321422
-0.295053 -0.108595 -0.380587
-0.024772 -0.076505 0.338925
0.069722 0.302393 -0.058024
0.475394 0.057996 0.040548
0.076646 -0.030101 0.285979
0.424394 -0.030127 -0.122709
0.279996 0.036943 0.297137
0.422887 0.067171 -0.227548
-0.078938 0.027433 -0.491251
-0.108244 0.385053 -0.226430
-0.144242 0.262759 -0.486128
0.222889 -0.124065 -0.044035
-0.152014 0.204350 -0.487306
0.128053 -0.141592 -0.098260
-0.362935 0.100686 -0.020694
0.177231 0.089771 0.136079
0.270803 0.146140 -0.391191
-0.118841 0.213243 -0.486343
-0.068552 0.110007 0.132181
0.004797 0.137560 0.123056
0.193593 0.292841 -0.083289
-0.247002 -0.165458 -0.266684
0.324457 0.090509 -0.323996
-0.199198 0.112221 0.123409
-0.045024 -0.200026 -0.377086
-0.312695 0.051072 -0.477692
0.049841 -0.209933 -0.286772
0.162376 0.090751 0.129353
-0.417014 -0.012128 -0.246496
0.436990 0.043115 -0.196978
0.215386 0.269468 0.020486
0.173401 0.252217 0.039104
-0.319265 0.006925 0.032461
0.288628 0.171511 -0.406707
-0.007152 -0.227240 -0.301885
0.265468 0.170292 0.298584
0.360770 0.267168 0.247757
0.231763 -0.106732 -0.236030
0.310487 0.107500 -0.330636
-0.315467 0.188928 0.024268
-0.004449 -0.203693 -0.093908
0.441652 0.166202 -0.168626
-0.221466 0.004072 -0.488769
-0.326208 0.016429 0.026989
0.111444 0.301183 -0.190871
-0.420337 0.213349 -0.291711
-0.325294 0.109591 0.036335
0.463706 0.127966 -0.144363
0.335874 0.263417 0.250676
0.166777 0.082452 0.129726
0.161697 0.082949 0.125953
0.270439 0.013209 -0.493349
0.032084 0.108798 0.121263
-0.280000 0.310538 -0.207113
0.441213 0.004748 -0.088763
-0.193850 0.286413 -0.477276
0.012496 -0.133497 -0.493742
0.250091 -0.093959 -0.478668
-0.009757 -0.066404 0.069685
0.348916 -0.074110 -0.045717
0.450092 0.125764 0.276079
0.048677 -0.119544 0.437052
0.211752 -0.117799 -0.028249
-0.442164 0.079254 -0.413177
0.425190 0.135409 0.284983
0.191605 0.276560 -0.299186
-0.297687 0.089223 -0.483788
-0.208343 -0.178402 -0.163237
0.049544 -0.152653 -0.037265
-0.338727 -0.049188 -0.422748
0.384469 0.148227 -0.261742
0.189611 -0.068393 -0.341958
-0.049246 0.002043 -0.490937
-0.309103 -0.028134 0.019513
-0.228677 -0.172164 -0.228656
0.046477 -0.234080 -0.192875
0.121418 0.032856 -0.491471
-0.224155 -0.175572 -0.316331
0.359262 0.262046 -0.042207
-0.290686 0.297586 -0.278686
0.191943 -0.116236 -0.216796
0.299385 -0.378280 0.365325
0.287009 -0.268583 0.372952
-0.303233 0.145298 0.054985
-0.079577 -0.161502 -0.461211
0.308866 -0.326801 0.301770
0.202075 -0.132608 -0.074104
-0.144325 -0.193016 -0.335266
0.203258 -0.115896 -0.220491
0.368239 -0.050332 -0.000548
0.379970 -0.084874 0.243397
0.480950 0.057900 0.103073
0.106921 0.139274 0.104855
0.235348 0.287544 -0.239028
-0.311243 0.019771 0.044970
0.449095 0.023283 0.018960
-0.391821 0.134752 -0.440963
-0.150220 -0.036353 0.103647
0.213251 0.272912 -0.299927
-0.193927 0.265310 -0.483772
-0.392450 0.068339 -0.087001
0.165759 0.232474 0.060023
0.309876 -0.105752 -0.097530
-0.408772 0.052720 -0.231229
-0.089227 0.375066 -0.290598
0.308141 0.319452 0.033744
0.285206 0.291375 0.076420
0.442073 0.072524 -0.198209
-0.048521 -0.092749 0.051060
-0.046835 0.096074 -0.492019
-0.049243 0.159068 0.123326
0.274491 0.121735 -0.351698
-0.178303 -0.120782 -0.007967
-0.014239 0.254563 -0.488622
-0.223585 0.285656 -0.025505
-0.195407 0.158587 -0.487730
0.326312 -0.096790 -0.068101
0.134076 -0.090090 -0.492692
0.343264 -0.065122 -0.007501
-0.292082 -0.122479 -0.353925
-0.231631 -0.118387 -0.037447
0.341682 0.122064 -0.480482
-0.002230 0.129663 -0.491639
0.258814 -0.078397 0.046188
0.178453 0.281940 -0.061333
-0.045119 0.280343 -0.485996
-0.142591 0.039765 -0.489741
0.356486 0.210169 0.281768
0.448685 0.018110 0.166646
0.103696 0.293253 -0.279807
0.039815 -0.090374 0.330457
-0.289524 -0.022864 0.040674
0.329984 0.297854 0.191366
0.396727 -0.027440 0.143465
0.144965 0.038524 0.328470
0.213486 -0.025058 -0.493285
-0.014093 -0.115520 -0.492567
-0.029214 0.378553 -0.221643
-0.365107 0.168321 -0.043645
0.111635 -0.109063 -0.325562
-0.221643 0.020436 0.111684
0.124224 0.222326 0.032862
0.362460 -0.088299 -0.173087
0.018875 0.345415 -0.477042
0.070958 -0.218042 -0.229856
0.351109 -0.075944 -0.214313
0.300702 0.123662 -0.411584
0.125937 -0.066932 -0.357294
0.195141 0.158874 0.147871
0.321744 0.221076 -0.465053
-0.311411 0.252426 -0.414840
0.198638 -0.104244 -0.246218
0.322570 0.238859 0.269343
0.009690 -0.198996 -0.358791
0.440459 -0.003167 -0.142025
0.427760 0.017734 -0.200177
0.247105 0.253208 0.111879
0.298685 0.201328 -0.415436
-0.101050 -0.106894 0.034335
0.439434 -0.003123 -0.087584
0.312874 0.033580 0.307308
-0.321684 0.017251 -0.468199
-0.195748 -0.121592 -0.018936
0.017939 -0.051114 0.393215
0.144165 -0.141879 -0.127502
0.337270 0.298280 0.206608
0.296840 0.283362 -0.469706
0.199601 0.265064 -0.336915
0.292586 -0.302618 0.323513
0.425898 0.210790 -0.111494
-0.405468 0.041684 -0.213541
-0.288747 0.061001 0.073773
0.302181 -0.095692 0.228885
-0.120911 0.224267 -0.486109
0.109078 0.078795 0.116879
-0.291482 -0.102279 -0.067947
0.070804 -0.154515 -0.040872
0.124480 -0.073856 0.322449
0.479668 0.122124 0.249282
0.218493 -0.112936 -0.219303
-0.032845 -0.179780 -0.440396
0.476771 0.057345 0.113769
0.036346 -0.125796 0.451315
-0.003273 0.353429 -0.099182
0.172909 -0.035028 0.382045
-0.161257 -0.175102 -0.391925
-0.250824 0.025170 0.093915
0.240975 -0.020042 -0.493076
-0.332560 0.268995 -0.151516
0.121069 -0.152755 -0.144603
0.047391 -0.191840 -0.443656
0.309290 0.146397 0.298370
0.332740 0.270440 -0.009993
0.447500 0.181896 -0.088038
0.300033 -0.289002 0.297728
-0.350462 0.256346 -0.319116
0.116734 -0.073117 0.411114
0.385469 -0.251739 0.413322
-0.023632 -0.204573 -0.360264
-0.269164 -0.140177 -0.133990
0.350434 -0.096369 -0.158363
0.163396 0.137211 -0.492190
-0.225653 -0.117547 -0.453305
0.357347 -0.026092 0.321796
0.366381 0.340489 0.034721
-0.298040 0.242287 -0.020808
0.060346 0.231641 0.045398
-0.252519 -0.155847 -0.354746
0.255338 0.078983 -0.493671
0.446302 0.000059 0.118820
-0.393495 0.206722 -0.239103
-0.025190 0.159111 0.119651
0.228309 0.220807 -0.366128
-0.205683 0.346047 -0.134953
-0.290318 0.041692 -0.482718
0.303821 -0.266848 0.295821
0.062169 -0.101862 0.359112
0.047586 -0.233252 -0.197904
0.296635 -0.042344 0.264540
0.249098 0.120118 0.319323
0.266129 -0.012745 -0.493982
-0.363674 0.240181 -0.356317
0.224130 0.236062 -0.360765
-0.036507 0.160986 -0.490586
0.237203 -0.131330 -0.139405
-0.196329 -0.187323 -0.192914
-0.205435 0.330670 -0.094582
-0.402702 0.149087 -0.216737
-0.316068 -0.092824 -0.082037
-0.275732 0.168369 0.075141
0.277213 -0.025100 -0.337962
0.127813 0.339224 -0.445829
0.217413 -0.073128 -0.492472
-0.497424 0.080273 -0.328120
0.063704 -0.091944 0.334909
-0.164350 -0.040679 -0.489629
-0.163007 0.332571 -0.070437
0.019367 -0.241117 -0.197692
0.186649 0.217715 0.099212
-0.015002 -0.149276 -0.025108
-0.354691 0.160206 -0.015746
-0.038176 0.285427 -0.486885
0.169817 0.161258 0.123692
0.017256 -0.210349 -0.324034
-0.261506 0.324992 -0.212904
0.072208 -0.102678 0.421832
0.330672 0.346442 0.062297
0.445220 0.134462 0.276513
0.042364 -0.012468 0.338347
0.157870 -0.143937 -0.436001
0.063005 0.253728 0.017084
0.041026 -0.127537 0.404430
0.227939 -0.041236 0.244673
0.349394 0.292500 0.222685
0.393770 0.017580 -0.252970
0.026685 0.235927 -0.487523
0.116802 -0.095198 -0.319456
0.234162 0.239443 -0.350742
0.060197 -0.219894 -0.247367
0.360844 0.331446 0.025470
0.170503 -0.047372 0.368304
0.317470 -0.081713 0.327986
0.291291 -0.088701 0.289704
-0.298190 -0.038822 -0.459552
0.303627 -0.260531 0.289726
0.040154 0.353241 -0.474234
-0.320042 -0.109888 -0.220913
0.379151 0.175702 -0.253384
0.190392 -0.124744 -0.189951
0.138781 0.029026 0.117423
0.196921 -0.135198 -0.088151
-0.360449 0.188687 -0.056175
-0.053063 -0.114740 0.019781
-0.381778 0.033545 -0.053865
0.416348 0.222309 0.262722
-0.007620 -0.049578 0.087439
0.368744 0.338329 0.030520
-0.054147 -0.174110 -0.437886
0.327081 0.023017 -0.427075
0.021595 0.093310 0.124446
-0.155346 0.058309 0.137323
-0.346351 0.214885 -0.066548
0.297472 -0.286678 0.304807
-0.031066 -0.090642 0.367163
-0.482335 0.082461 -0.362993
0.146588 0.190115 -0.491281
0.294014 0.253993 -0.484579
-0.401362 -0.047574 -0.309679
0.294002 -0.075998 0.286042
0.231216 0.190661 0.224092
0.280972 -0.060866 0.085635
0.378457 -0.312333 0.393354
-0.342295 0.262015 -0.255242
0.021891 0.177662 -0.490613
-0.105743 -0.203916 -0.328478
-0.383042 -0.028786 -0.179113
-0.069870 -0.102305 -0.490035
0.362109 -0.247231 0.417675
0.409712 0.212111 -0.193265
0.054078 -0.046340 0.453018
0.232185 0.139537 0.312873
0.382474 0.035263 -0.266442
0.140106 -0.073343 -0.371977
-0.261762 -0.154381 -0.217913
0.361850 0.162068 -0.276325
0.076645 -0.132362 -0.493889
-0.041094 0.281522 0.013028
-0.484491 0.033526 -0.321786
-0.173898 -0.181882 -0.358891
0.309010 0.072088 -0.491238
0.250339 -0.056783 0.097729
-0.438249 0.064668 -0.235659
0.177777 0.125847 -0.493246
0.453486 0.117986 -0.031848
0.102731 -0.036825 0.436451
0.219492 -0.002196 0.347073
-0.167120 0.218871 0.093558
-0.177130 0.179290 -0.487739
0.234558 -0.117555 -0.038152
0.030192 -0.140519 -0.020677
0.396042 0.203752 -0.218987
0.433446 0.039855 -0.200597
0.057891 -0.212157 -0.272000
0.248832 0.267353 -0.287988
0.121563 0.257955 -0.488669
-0.375890 0.030563 -0.049048
-0.029810 -0.217994 -0.114247
-0.453501 0.153545 -0.387576
-0.073791 -0.042453 0.100395
-0.115123 -0.003323 0.121064
-0.318916 0.050980 -0.475879
0.014743 0.240190 0.054181
0.115838 0.273711 -0.338451
0.049370 0.348697 -0.136608
0.308454 -0.039356 -0.462550
-0.166762 -0.164583 -0.402566
-0.065811 0.357135 -0.355745
0.435024 -0.008077 -0.152956
0.273582 0.145071 -0.348482
0.014078 0.355285 -0.458439
-0.047971 -0.058703 0.086211
0.358917 -0.246127 0.269447
-0.470858 0.059186 -0.379692
0.161992 -0.081870 0.051719
0.406569 -0.028579 0.053054
0.057378 -0.188318 -0.413220
0.135880 -0.025076 0.267808
-0.185874 0.049459 -0.488306
0.074097 -0.204857 -0.254370
0.138699 0.298059 -0.387692
-0.151328 -0.191262 -0.336253
0.375695 0.144609 -0.272518
0.195047 -0.135299 -0.088410
0.065400 -0.051231 0.295559
0.171071 0.170771 0.121367
0.294476 0.275425 0.137547
-0.148256 0.322472 -0.433930
-0.111733 0.362012 -0.354315
0.112923 0.072657 -0.491191
-0.062189 0.214964 -0.487255
-0.035456 -0.165539 -0.469565
-0.076286 0.032940 -0.490002
0.450499 0.069822 0.268350
-0.167918 0.109820 -0.488764
0.206241 -0.104185 0.010951
-0.260356 0.216973 0.051404
0.332426 -0.024855 0.320219
0.339630 -0.067692 0.036891
0.188378 -0.100044 -0.409425
0.428793 -0.019046 0.094367
0.379812 -0.213328 0.303354
0.388904 0.349078 0.135176
-0.272021 0.145279 -0.483813
-0.239136 -0.138786 -0.397787
-0.397741 0.122458 -0.122240
0.113617 0.275726 -0.336304
-0.184313 -0.162968 -0.398872
0.417302 0.001465 0.273339
-0.383958 0.187627 -0.181731
-0.344000 0.249022 -0.141495
0.286612 0.284161 0.000946
0.191630 0.298993 -0.172045
-0.198018 0.125731 -0.489333
0.130921 -0.122158 -0.020113
-0.377833 -0.026319 -0.105675
0.387746 -0.176686 0.370819
0.301816 -0.250031 0.284721
0.098270 -0.092308 0.032200
-0.174198 0.358376 -0.292579
0.304858 0.168272 0.293163
0.403399 0.021653 -0.239902
-0.047004 -0.214614 -0.109957
-0.293707 -0.116460 -0.113360
0.281901 0.197325 0.284420
-0.009125 -0.152322 0.393344
-0.016722 -0.064959 0.353001
0.123893 -0.123840 -0.218598
-0.176866 0.364445 -0.222679
0.104221 -0.118674 -0.493711
0.176817 0.217791 -0.490946
-0.203832 0.139624 0.121887
0.166823 -0.055860 0.306999
-0.410022 0.013009 -0.417116
0.255685 -0.031216 -0.394434
-0.184240 0.349654 -0.311453
0.364095 -0.030399 0.320374
0.394334 -0.245223 0.395731
-0.073115 0.093510 -0.491950
0.362047 0.348619 0.047626
-0.025801 -0.120823 0.008274
-0.396624 0.135147 -0.437092
0.063090 0.307013 -0.485814
-0.060140 0.007068 -0.491866
-0.167495 0.356792 -0.325541
-0.160092 -0.011569 0.113279
0.147170 -0.118176 -0.396797
-0.032679 -0.231161 -0.140157
-0.417398 0.028128 -0.420538
0.109320 -0.166624 -0.187994
0.052257 -0.171398 -0.362006
-0.213884 0.078820 -0.487523
0.408981 -0.047871 -0.105204
0.009876 -0.033266 0.329774
0.124449 0.342056 -0.465418
-0.225098 -0.050827 0.063241
-0.194055 -0.151701 -0.416062
0.331521 0.072835 0.308813
0.337657 -0.098268 0.347530
-0.161949 -0.008106 -0.489822
0.074280 -0.040875 -0.491967
-0.321227 -0.110319 -0.205379
-0.484310 0.054401 -0.266469
0.008577 0.303843 -0.485911
-0.272886 0.053154 0.085309
0.002467 0.095104 -0.492241
-0.217900 -0.173782 -0.151966
-0.123760 -0.056879 0.088697
0.288669 -0.322668 0.339479
0.129217 0.207770 -0.491405
0.358314 0.321550 0.184229
0.399175 0.215446 -0.200921
0.394658 0.246215 -0.117327
-0.280854 -0.052205 0.023982
-0.022022 -0.038211 -0.491540
0.202168 0.283326 -0.265425
-0.205825 0.292444 -0.463351
0.179379 0.185334 -0.492010
-0.305581 0.264062 -0.379172
-0.180952 0.155845 -0.488661
0.026593 -0.125318 -0.492472
0.268364 0.003208 -0.363448
-0.469888 0.068930 -0.386671
0.016979 0.108374 0.123216
0.049112 -0.192630 -0.421928
0.317101 0.305682 0.140324
0.263898 -0.125904 -0.116548
0.078705 0.055239 0.118613
-0.359375 0.217501 -0.102409
0.343973 -0.356148 0.442547
-0.114228 -0.110183 0.034487
-0.402377 0.029209 -0.430307
-0.005352 -0.155948 -0.033786
0.478180 0.295184 0.073378
-0.422606 0.048080 -0.424847
0.393067 -0.233009 0.394374
0.414429 -0.025003 0.081782
0.242480 -0.132875 -0.155465
0.242951 0.141638 -0.374729
0.250961 -0.128580 -0.159623
-0.355339 0.121119 -0.459950
0.295365 -0.012150 -0.329356
0.304903 -0.080894 0.307748
0.420102 0.109387 -0.232948
-0.147706 -0.135575 -0.481351
0.141919 -0.016969 0.409509
0.283636 0.015780 -0.492014
-0.067033 -0.224774 -0.258630
0.095105 0.210656 -0.489307
0.181382 -0.120573 -0.033190
0.169309 -0.132562 -0.431436
0.252586 0.108844 0.318075
0.242901 0.207211 0.229635
0.031374 -0.055782 0.441825
-0.152616 0.279555 0.008571
0.141071 0.153596 0.108177
-0.180488 0.258768 -0.486906
-0.098345 -0.049849 0.092485
0.239808 0.144981 -0.494790
0.176915 0.185953 0.117437
0.377148 0.157092 0.292485
0.314853 -0.039905 -0.482142
0.352321 0.214334 0.279285
0.296572 -0.323108 0.420062
0.256809 0.058517 -0.492789
-0.012853 -0.055603 0.082424
0.308453 -0.104842 -0.201133
-0.462682 0.120068 -0.392683
-0.300050 0.046456 -0.482256
-0.119571 0.032736 0.131024
0.377987 0.316821 0.014160
0.058518 0.266416 -0.004962
0.231913 0.093856 0.332671
-0.461194 0.093796 -0.236109
-0.348916 0.082362 0.004665
0.406872 -0.010768 0.290550
-0.099556 -0.013243 -0.489212
-0.132061 -0.174413 -0.401758
-0.396258 -0.029947 -0.247819
0.054511 0.285676 -0.487533
0.123247 -0.182034 -0.460826
0.322251 0.341329 0.060900
0.391973 0.293778 0.000051
-0.071873 -0.188290 -0.075191
0.220412 -0.034374 0.215373
0.316971 0.208441 -0.294229
-0.265408 0.042403 0.086330
0.183964 -0.062371 -0.362349
-0.259951 -0.155862 -0.222468
0.024323 0.316232 -0.373292
0.202342 0.008852 -0.493707
0.097676 0.159155 -0.492074
0.424490 0.209423 -0.074008
0.429417 0.202327 -0.070297
-0.227390 0.169746 -0.487280
-0.042763 -0.125301 -0.492688
0.128093 0.275578 -0.283762
-0.121738 -0.178185 -0.073902
-0.394200 0.224196 -0.342424
-0.135532 0.337892 -0.069993
0.482859 0.130302 0.027229
-0.283847 0.298374 -0.293968
0.134844 0.254337 -0.009589
-0.051180 0.112515 -0.490322
0.105573 -0.113254 -0.334069
0.111512 -0.055140 0.073400
0.480206 0.111694 0.195700
0.395134 0.344157 0.066622
-0.253113 -0.163136 -0.269786
-0.063218 -0.216916 -0.309845
0.327353 -0.075513 0.188679
0.444913 0.186991 -0.110818
0.312770 -0.179410 0.248224
0.394696 -0.275023 0.391761
0.237646 0.115625 -0.495504
0.433012 -0.011277 0.063819
0.460442 0.053449 0.013758
-0.116108 0.326432 -0.047588
-0.242641 0.073537 0.104572
0.130763 0.213834 0.048716
-0.318579 0.279873 -0.135124
-0.257665 0.180528 0.082026
0.312288 0.274594 0.224640
-0.370331 0.148738 -0.446724
0.181532 -0.091069 -0.492472
-0.317110 0.281278 -0.189998
0.266342 -0.022569 -0.492472
0.370802 0.213039 0.278769
0.017603 -0.134997 0.472308
-0.103907 0.054295 -0.489436
0.444734 0.131348 0.276993
-0.354948 0.004630 -0.023185
-0.364125 -0.053521 -0.387020
0.338267 -0.314181 0.286495
-0.031493 -0.105971 0.348817
-0.177535 -0.187653 -0.314831
-0.120566 0.105661 0.136748
0.288642 -0.299193 0.388764
0.031465 -0.062095 0.453225
0.383929 -0.236725 0.330696
-0.313232 -0.075365 -0.042904
-0.086862 0.178027 0.123024
0.157288 0.279994 -0.384682
0.445889 0.184355 0.263459
-0.484294 0.103264 -0.360868
0.116311 -0.073494 0.326075
0.168340 0.268184 -0.341552
0.045215 -0.109536 0.018148
0.151732 0.284763 -0.259381
-0.420687 0.198764 -0.260205
0.295448 -0.193966 0.278001
-0.031650 0.241467 0.065852
0.293972 -0.174553 0.271639
0.040452 0.220300 0.066519
0.249495 0.295398 -0.198919
0.411286 0.251502 0.245710
-0.133397 0.362588 -0.114939
0.311331 0.103171 -0.490370
0.071834 0.246227 0.021198
0.257387 0.178391 0.291756
-0.133866 0.049312 0.135320
-0.017593 -0.074751 0.368330
-0.365862 0.222282 -0.197271
0.493318 0.147428 0.122791
0.176030 -0.116234 -0.016918
0.134059 -0.080089 -0.317857
0.127137 0.035829 0.286277
-0.183338 0.013050 0.120044
-0.031925 -0.162981 -0.042063
-0.394279 0.156956 -0.145894
-0.198781 0.011628 0.115588
0.361765 -0.263518 0.281892
-0.065886 0.309520 -0.483657
0.014228 -0.135208 -0.010608
0.291941 -0.122641 0.316681
-0.003843 -0.234400 -0.146666
0.259297 0.253224 0.124900
0.037607 0.217628 0.072890
0.484312 0.097832 0.030609
-0.092084 0.015119 -0.489137
-0.143515 0.214219 -0.487333
0.332548 0.164724 -0.475993
-0.313167 0.274111 -0.341007
0.039119 0.365546 -0.185119
-0.396778 0.151043 -0.142267
-0.367057 -0.004415 -0.434085
0.484804 0.251825 0.040706
0.214041 0.232425 0.112454
-0.320354 -0.101072 -0.353045
0.291958 0.293848 -0.174453
0.234865 -0.026525 0.291318
0.379309 0.038510 -0.270373
-0.191569 -0.019002 0.099698
-0.414235 -0.013826 -0.390181
0.110549 0.049348 0.112507
0.350791 -0.147494 0.376678
0.247610 0.200584 0.254194
0.151027 0.269192 -0.346808
-0.319516 0.204552 0.000526
0.319419 -0.153043 0.364897
0.444266 0.283424 0.011716
0.481766 0.102851 0.180430
0.231846 -0.032332 0.205461
-0.404786 -0.010860 -0.240985
0.056981 -0.118135 0.395282
-0.139098 0.375822 -0.157689
-0.325339 0.087647 0.036223
0.353298 0.348995 0.105257
-0.243329 -0.155124 -0.366765
0.445767 0.117763 -0.192318
0.104812 0.287082 -0.305182
0.047334 -0.055686 0.463250
-0.478837 0.041789 -0.349526
0.074624 -0.070207 0.316107
0.112213 0.302615 -0.386467
0.247874 0.247667 -0.388579
0.161205 0.192485 -0.492628
0.092177 0.314789 -0.202673
-0.371075 0.074651 -0.457111
0.404394 -0.011764 0.286653
0.014369 -0.195008 -0.385439
0.462861 0.154135 -0.108738
-0.324414 0.140852 0.036017
0.193145 0.063398 -0.494207
0.483558 0.169632 0.144746
-0.153275 0.236598 -0.486193
-0.066085 0.321332 -0.478144
-0.120821 -0.213003 -0.256794
-0.007663 -0.030749 -0.491238
-0.077734 0.246632 0.069473
-0.196786 -0.136998 -0.447795
0.122649 0.300491 -0.484024
-0.370480 0.215589 -0.235818
-0.011064 -0.162785 0.467573
-0.081294 -0.228943 -0.209883
-0.426953 0.010514 -0.243108
0.274648 0.300265 -0.155366
0.110273 -0.013001 -0.493140
0.392320 0.347645 0.141925
0.303348 0.306690 0.114010
-0.138579 -0.146465 -0.028422
0.350237 0.353157 0.076033
0.059388 -0.049375 0.458589
-0.097502 0.365777 -0.340176
0.243662 -0.040305 -0.492820
0.013970 -0.239223 -0.255199
-0.277339 -0.055932 0.022644
0.024761 -0.097252 0.491418
-0.010033 0.330882 -0.370159
0.442239 0.169668 -0.165054
-0.367188 0.077701 -0.027310
-0.096301 0.295601 -0.483789
-0.115361 -0.183204 -0.393865
-0.307673 0.128290 -0.477506
-0.117472 -0.032441 -0.488450
-0.044791 0.380633 -0.172711
0.236400 -0.031230 -0.492307
-0.347660 0.039195 -0.462694
0.160569 -0.102677 -0.491923
0.342432 -0.298035 0.282381
-0.374803 -0.043122 -0.204985
-0.347685 0.195257 -0.035480
0.306484 -0.196067 0.371155
0.158499 0.024972 -0.494676
-0.040535 0.170343 0.117472
-0.178180 -0.042247 -0.488600
-0.079486 -0.038911 -0.491238
0.286613 -0.224551 0.332896
0.460353 0.053798 -0.113083
-0.004219 0.162508 -0.489114
0.237584 0.217987 0.181045
0.228635 -0.071437 -0.493704
-0.042728 0.375034 -0.239104
-0.158136 -0.041101 -0.487553
0.151309 0.313040 -0.410224
0.197300 -0.001689 0.183407
0.378777 0.289753 0.228673
0.388046 -0.256786 0.354044
0.035898 -0.110305 0.471669
0.394647 -0.036194 0.251333
-0.020666 -0.067464 0.346107
0.034687 -0.058191 0.077325
-0.318765 -0.113062 -0.191788
-0.397275 0.010907 -0.206743
0.197038 -0.059896 0.091649
-0.382771 0.077351 -0.057583
0.345316 -0.274130 0.430050
0.111448 -0.145767 -0.233063
0.003975 -0.195378 -0.406949
0.234959 0.301579 -0.114066
0.186483 0.098125 0.219719
-0.092673 -0.165682 -0.440477
-0.303241 0.176377 -0.467444
-0.131432 0.378748 -0.200580
-0.048257 -0.130106 0.003265
-0.217043 -0.153910 -0.395852
0.137356 -0.001889 -0.493678
0.393771 -0.008050 -0.238740
0.348724 -0.312167 0.315642
-0.016531 -0.163921 0.471543
0.326887 -0.249362 0.254496
0.001916 0.357291 -0.448188
0.363299 0.236631 -0.226187
-0.040626 0.215815 0.088780
0.270248 -0.070169 -0.291921
0.314365 0.198445 0.288031
-0.305266 0.220916 0.004585
0.064556 -0.005855 0.294853
-0.353315 0.233335 -0.122011
0.302318 -0.066427 0.194610
0.295699 -0.014414 -0.492472
-0.422786 -0.030987 -0.303957
0.095715 -0.192458 -0.183519
-0.165943 -0.174016 -0.385987
0.452883 0.172982 -0.089274
0.284806 -0.285495 0.365220
0.283518 0.214562 -0.487876
-0.120788 0.324082 -0.043493
0.322825 -0.113015 0.223787
-0.021756 0.133182 0.126929
0.239759 -0.104577 -0.242962
0.320941 -0.273697 0.270190
0.287278 -0.310401 0.338601
-0.351841 -0.083183 -0.252539
0.425533 -0.011566 0.132729
-0.025587 -0.200094 -0.090097
0.318378 -0.300897 0.430707
0.079894 -0.190223 -0.434311
0.117595 -0.006729 0.101175
-0.292453 0.297652 -0.245144
0.400085 -0.026569 0.129045
-0.473990 0.107281 -0.379645
0.205274 -0.019483 0.350618
-0.356317 0.105729 -0.009340
0.291884 -0.213499 0.298261
0.103231 0.086594 0.119166
0.334977 0.165691 -0.298363
-0.242919 -0.005559 0.083133
-0.344563 0.235280 -0.406644
0.172909 -0.074387 0.072093
-0.338937 0.019607 0.008836
0.187690 0.327190 -0.465100
-0.035833 -0.078593 -0.491259
0.361354 -0.188379 0.247272
0.268252 0.242556 0.206316
0.071718 -0.182021 -0.405719
-0.022022 0.105732 -0.491540
0.081171 0.095535 -0.491924
-0.088076 -0.148622 -0.480889
-0.390534 -0.012160 -0.411491
0.082372 0.244034 0.022391
0.032654 0.139916 -0.489509
0.445501 0.067514 -0.187997
0.299509 -0.223778 0.378184
0.223021 0.010952 0.350039
0.322959 -0.358343 0.350805
0.475428 0.087029 0.198507
-0.233416 0.099157 0.110225
-0.008348 -0.200686 -0.091371
0.359654 0.099799 0.304680
0.217735 -0.132723 -0.150551
0.076135 0.231944 0.038578
0.250622 -0.127092 -0.097365
-0.418216 0.117194 -0.233692
0.109881 0.305987 -0.150075
-0.304295 -0.013738 0.036737
0.090119 0.228819 0.037446
0.399098 -0.219303 0.379014
-0.469778 0.063774 -0.384690
-0.272791 -0.117273 -0.076888
0.356214 -0.255217 0.264507
-0.452940 0.059427 -0.241263
0.020420 -0.021915 -0.491462
-0.220434 -0.174583 -0.174618
-0.126987 0.165170 -0.488624
0.476351 0.093277 0.207037
-0.095905 -0.074132 0.071099
0.423646 -0.006992 -0.037437
-0.081161 0.242059 0.074119
0.441517 0.054775 -0.195076
0.371689 0.070549 -0.281447
-0.183581 0.322321 -0.406646
0.388334 -0.067971 -0.152179
0.202870 0.324007 -0.463493
0.116829 -0.186782 -0.486682
0.163788 0.267904 -0.486870
0.417850 0.327913 0.041344
-0.049794 -0.230452 -0.238796
-0.243325 0.266823 -0.464557
-0.251099 0.124244 0.098530
-0.025353 0.300155 -0.485806
0.260358 -0.058753 0.087455
0.230131 -0.039128 -0.493367
0.479614 0.061509 0.109252
0.025661 0.106632 -0.490829
0.148175 -0.040923 0.405128
0.107838 -0.095308 -0.361024
-0.303382 -0.068455 -0.015719
-0.232718 0.225996 0.060916
0.121156 0.034596 -0.493601
0.357315 -0.043612 0.158836
-0.112491 0.344466 -0.405030
-0.016935 0.055271 -0.492020
0.287492 -0.146566 0.291892
0.150062 0.037940 0.263985
0.319192 0.132467 0.299744
-0.003997 0.337013 -0.075121
-0.023004 -0.124523 -0.491089
-0.103654 0.078526 -0.491038
0.280173 -0.020017 -0.404416
-0.073111 0.041519 0.132568
0.385915 0.344662 0.051098
0.003499 0.329304 -0.358759
-0.057618 -0.228188 -0.139796
0.080618 0.328400 -0.162493
0.440260 0.012203 0.020974
0.119198 0.073092 -0.492257
-0.157221 -0.193225 -0.122747
-0.245172 -0.041515 0.061436
-0.149413 0.143971 0.133871
-0.344311 0.091456 -0.468659
-0.245415 -0.165063 -0.198642
0.207340 -0.056616 -0.359480
0.055507 -0.230817 -0.205652
0.091457 0.180007 0.087719
-0.251820 0.204649 0.071156
-0.400597 0.109524 -0.132974
0.137496 0.082269 -0.493878
0.008147 -0.222583 -0.122793
0.307565 0.265425 -0.463912
0.010270 -0.099352 0.479964
-0.130762 -0.098012 0.048104
0.425142 0.046330 -0.222525
-0.146800 0.224459 -0.486986
0.378117 0.145715 -0.267652
0.159600 0.295692 -0.175172
0.183300 0.162285 0.130950
-0.240416 0.234243 0.044746
0.200486 -0.000691 -0.494312
-0.084114 -0.226336 -0.217368
0.293352 -0.066085 0.241737
0.226129 -0.044242 -0.383205
-0.058843 0.330971 -0.054506
-0.233287 0.333629 -0.140847
0.466513 0.265261 0.152548
0.444304 0.013019 0.153175
0.148790 0.290005 -0.198874
0.268032 0.264965 0.120026
-0.385896 0.158793 -0.435939
0.035377 -0.234147 -0.156746
-0.250092 0.173904 -0.483584
0.050239 0.253267 0.018792
0.018518 -0.190689 -0.365697
-0.327045 -0.058351 -0.423331
0.059474 0.165030 0.102283
0.365109 -0.242706 0.278498
-0.050147 -0.014438 -0.490002
-0.198869 -0.014886 -0.489876
0.393897 0.351883 0.105630
-0.136240 -0.147248 -0.461630
0.164139 -0.129556 -0.180268
-0.085758 -0.227163 -0.206465
0.362548 -0.231888 0.264955
-0.223327 -0.171977 -0.324319
-0.182887 0.216491 0.091061
-0.021900 -0.238380 -0.157874
0.493919 0.103879 0.091995
-0.389698 -0.048316 -0.353966
0.041197 0.023311 0.118878
-0.064486 -0.224142 -0.131962
-0.015398 0.362513 -0.266974
-0.368791 0.242529 -0.259226
-0.126999 -0.165473 -0.426702
0.436455 0.094464 0.281374
-0.353997 0.032196 -0.008797
-0.143707 0.376927 -0.175299
-0.366184 0.243149 -0.341531
-0.387247 0.156816 -0.101125
0.089207 -0.122003 -0.001011
0.253224 0.295469 -0.419793
-0.409260 0.121471 -0.197403
-0.364737 -0.074668 -0.303421
0.038995 -0.044370 0.421189
-0.370347 -0.041048 -0.109008
-0.370215 -0.053894 -0.171347
-0.121625 -0.147425 -0.021027
0.256815 0.112702 0.317142
0.203116 0.074563 0.340441
0.057766 -0.033827 0.425438
0.131709 -0.061069 0.405145
0.373520 -0.048512 0.006954
0.461476 0.171627 0.005339
-0.428401 0.006746 -0.245995
-0.164354 0.346900 -0.098995
0.341301 0.257053 -0.212164
0.152083 0.016877 -0.494695
0.151829 -0.095433 0.032926
0.293397 0.123528 -0.404277
-0.131643 0.016423 0.129554
0.369341 -0.030672 0.318703
0.147270 -0.096767 -0.372952
-0.016145 -0.240042 -0.159767
0.116149 -0.077156 -0.366684
0.322073 -0.033771 -0.288104
-0.037951 -0.188472 -0.410509
-0.275903 0.200940 0.054719
-0.090912 0.359181 -0.368712
0.095134 -0.081527 0.047856
-0.160101 -0.142281 -0.468682
-0.072203 0.356025 -0.385543
0.163711 -0.121161 -0.203591
-0.215571 0.045170 0.113971
0.278537 0.109037 0.298974
0.010575 0.327766 -0.482434
0.189107 -0.072470 -0.492137
0.373890 -0.298686 0.441007
-0.369962 -0.043487 -0.233470
0.440800 0.015509 0.194468
0.309433 0.286234 -0.189354
0.114558 -0.156929 -0.200723
-0.387722 0.167611 -0.118617
-0.402276 0.092865 -0.442194
0.296298 -0.276447 0.304182
0.062866 -0.077186 -0.492353
-0.315676 0.065589 0.048860
0.400967 0.228446 -0.184500
0.111629 0.282517 -0.052246
0.211526 -0.061859 -0.347520
0.442813 0.034186 -0.005944
0.185903 0.041638 0.161966
-0.115501 0.258414 -0.486776
0.327019 0.162775 -0.484405
0.274064 -0.043530 0.118740
0.464025 0.066358 -0.091732
0.187400 0.132417 0.151968
-0.019283 -0.089860 0.394006
0.482251 0.259205 0.105347
0.484758 0.106431 0.152196
-0.293511 -0.017348 -0.469754
-0.255306 -0.098629 -0.023098
0.192600 -0.019462 0.124220
0.100327 0.033267 -0.491772
0.010659 -0.102995 0.488144
0.151305 0.292972 -0.165268
-0.452230 0.085882 -0.405277
0.498019 0.121623 0.093366
0.315443 0.085328 0.306327
0.296517 -0.138381 0.255708
-0.147046 0.320277 -0.436906
0.115935 0.180725 -0.492673
0.065308 0.058673 0.119937
-0.088016 0.091266 0.135085
-0.215868 0.298633 -0.039021
-0.484900 0.154697 -0.303223
-0.172700 -0.184503 -0.336253
-0.329891 -0.104202 -0.196763
0.400186 0.214458 0.271337
-0.260194 0.074303 -0.487051
-0.312936 -0.118023 -0.191048
-0.345073 0.221581 -0.069579
0.128039 0.061457 -0.493458
0.483635 0.095734 0.153251
-0.190024 0.174714 -0.486453
0.365517 0.132860 -0.284252
-0.031330 0.348465 -0.446269
-0.252614 0.306084 -0.083147
0.119522 0.184687 0.081880
0.317364 0.130387 -0.321402
0.335736 0.082179 -0.436483
0.028734 -0.211069 -0.108156
0.249602 -0.070510 -0.492628
-0.413567 0.157733 -0.421320
-0.189801 0.086218 -0.489891
-0.184205 -0.135827 -0.460743
-0.237162 -0.159831 -0.130797
0.027419 -0.051278 0.422030
0.135142 0.283532 -0.066627
-0.167595 0.369078 -0.213222
0.005836 0.222561 -0.488230
-0.264286 0.289743 -0.372577
0.125306 0.034622 0.314184
0.167471 0.271269 -0.380698
0.102514 -0.173263 -0.117421
-0.431337 0.174576 -0.244121
0.053228 -0.098338 0.343455
0.249567 -0.003206 0.304059
-0.353345 -0.078490 -0.343257
0.341328 0.136665 -0.471720
0.293589 -0.088030 0.293110
0.035129 -0.238876 -0.194215
0.422259 -0.025877 -0.165532
0.392026 -0.194446 0.329708
-0.100964 0.242473 -0.487523
0.163893 -0.103039 -0.255220
0.062810 -0.042569 0.295759
-0.338558 -0.052657 -0.421110
0.348775 0.125596 -0.303590
-0.005513 -0.236572 -0.257801
0.035807 0.239206 -0.489179
-0.132171 0.278715 -0.486281
0.100452 -0.164910 -0.081206
0.378108 0.061472 -0.276663
0.208643 0.256450 0.071577
-0.099635 0.378889 -0.165106
0.264619 -0.067436 -0.301335
-0.200463 -0.012238 -0.488124
0.307318 -0.178993 0.363338
-0.206092 0.291544 -0.026386
0.372126 -0.045198 -0.233394
-0.206846 -0.072211 0.056851
-0.347658 0.014901 -0.006911
0.378213 -0.277093 0.428862
0.444914 0.134184 -0.014374
-0.179015 -0.014697 -0.488606
-0.211164 -0.107689 -0.006206
-0.038941 -0.175785 -0.058715
0.104716 -0.175546 -0.141777
0.349831 -0.094821 -0.141315
-0.190904 0.048073 -0.489301
0.038033 -0.129651 -0.492501
-0.149550 -0.199515 -0.291741
0.355576 -0.002530 0.320728
0.212799 0.264903 -0.002665
0.323144 -0.325950 0.292650
0.192284 -0.011659 0.216924
-0.201628 0.349040 -0.145385
0.101244 -0.039334 -0.494115
0.270343 0.208307 -0.399242
0.191878 0.032219 0.366669
-0.468257 0.019355 -0.288894
-0.346765 0.145965 -0.001549
-0.221165 0.341638 -0.150006
0.025153 -0.220321 -0.123691
-0.286489 -0.135304 -0.283058
0.238906 0.210269 0.211623
-0.043007 -0.226702 -0.277541
0.267853 0.270960 0.039162
-0.350681 -0.081955 -0.143846
0.324527 0.295883 0.196526
-0.401534 0.025640 -0.233418
-0.020704 -0.099433 0.414106
-0.099160 -0.229827 -0.173804
0.057300 0.099136 -0.493675
0.140965 0.266251 -0.025629
-0.261086 -0.010623 -0.481969
0.020964 -0.062606 -0.490649
0.132262 0.184457 -0.490082
0.313302 -0.166432 0.242039
0.243808 0.089408 0.328607
-0.312068 -0.025988 0.021076
-0.025843 0.316363 -0.039608
0.194038 -0.044540 0.331129
0.358678 0.268862 -0.162842
0.021710 -0.090405 0.330103
0.454552 0.197322 0.001061
-0.256177 0.163119 0.088882
-0.246452 0.172249 -0.485503
0.272229 0.274599 -0.485400
-0.150952 0.280410 0.012439
0.172186 -0.028119 0.266439
-0.250741 0.056861 -0.487880
-0.195191 0.297121 -0.458877
-0.228517 -0.019284 -0.484919
0.009057 0.350298 -0.098503
0.180089 0.216638 -0.490955
-0.222067 0.080457 -0.487523
0.332359 -0.087619 -0.219452
0.494815 0.159274 0.057575
-0.043762 0.382204 -0.196740
0.174243 0.276394 -0.039907
0.245375 -0.130415 -0.091794
-0.041480 -0.152891 0.383327
-0.269640 -0.146073 -0.167648
0.318129 -0.059241 0.098509
0.079155 -0.195931 -0.120212
0.408180 0.182724 0.282058
-0.209586 0.338170 -0.314064
0.373417 -0.047154 0.021149
-0.220983 -0.073881 0.047033
0.285371 -0.367142 0.400819
-0.197514 0.315046 -0.057358
0.206408 -0.056829 -0.355925
0.352863 -0.060107 0.013902
0.011505 0.193806 -0.488950
0.171199 0.329211 -0.443755
0.038035 -0.091147 0.038965
-0.473524 0.165437 -0.341695
0.387264 -0.112622 0.285765
0.409933 0.227409 -0.075659
0.390738 -0.018455 -0.236661
-0.098954 0.135531 -0.488026
-0.059158 0.001140 0.120109
0.001803 -0.145510 -0.491603
0.101821 0.179443 0.087689
0.317331 0.192975 0.289067
-0.331018 0.273135 -0.276343
-0.269456 0.087545 0.087806
0.276313 0.276099 0.000195
0.063359 0.295337 -0.364994
0.327129 0.001989 -0.436481
0.065359 0.322492 -0.261062
-0.090062 -0.020709 -0.490978
0.039231 0.218516 -0.490059
-0.058614 -0.152450 -0.482540
0.103116 0.331195 -0.416613
-0.405225 0.193763 -0.400947
0.413851 -0.011576 0.251883
-0.390400 0.166239 -0.147325
-0.196299 0.322124 -0.395620
0.112056 -0.085621 0.348181
-0.000673 -0.009848 0.112097
0.238616 -0.001367 -0.492472
-0.237784 -0.071603 -0.476623
0.471406 0.171564 0.245161
-0.498209 0.080455 -0.297520
0.353221 -0.145107 0.374165
-0.134234 -0.112392 0.029230
0.437377 0.301435 0.172811
-0.182160 0.069740 0.133769
-0.217624 -0.029256 0.087024
-0.056114 -0.112410 -0.489468
-0.062456 0.266071 -0.487031
0.295640 0.293288 -0.097600
-0.271104 -0.032733 0.052672
0.037537 -0.132151 0.421579
0.310581 -0.294189 0.421214
0.230896 0.211856 -0.378060
0.296665 0.093387 0.299183
0.357626 -0.058697 0.037974
0.043530 0.084509 -0.492305
0.091094 -0.085675 0.420954
0.101733 0.061573 -0.494083
0.295079 -0.148385 0.330401
0.350957 -0.078132 -0.057238
0.199535 0.087631 0.321266
0.043437 0.044257 -0.491695
0.094925 0.015942 -0.493671
-0.380212 0.180013 -0.113943
0.322641 -0.161792 0.237582
-0.177900 0.343139 -0.357134
-0.066525 0.387818 -0.228115
0.054840 0.144444 0.113167
0.212262 -0.113792 -0.452264
-0.247745 0.321297 -0.284870
-0.018437 -0.176691 -0.452939
-0.235168 0.247704 0.027943
-0.120116 -0.008540 -0.490980
0.354272 -0.066592 -0.029140
-0.003878 -0.161468 -0.039750
0.039063 -0.038022 0.408924
-0.118584 -0.185149 -0.387473
0.330423 0.287430 -0.136954
0.440886 0.154255 0.275174
-0.307438 0.194086 0.026674
-0.308959 0.254544 -0.055003
0.320372 -0.173235 0.374239
0.383930 0.334307 0.168803
0.432091 0.329642 0.064215
0.191506 0.300992 -0.151844
0.331775 0.312216 0.147145
0.414127 -0.040549 -0.119507
0.028491 0.292931 -0.486945
0.091656 -0.001605 0.107051
0.156213 0.212209 0.078803
0.111100 0.108879 0.111246
-0.386690 0.139453 -0.089066
0.293136 -0.216888 0.293343
-0.403112 -0.045479 -0.301476
-0.026672 -0.171427 -0.458105
-0.168716 -0.201352 -0.229636
0.005220 -0.153156 0.450802
0.299142 0.313142 0.047023
0.423100 0.274368 -0.000491
-0.406968 0.138412 -0.234302
-0.134005 0.082182 -0.490644
0.243508 -0.037248 -0.492472
0.009326 -0.137122 0.380217
0.117080 0.249238 -0.001901
0.320593 0.308614 0.012004
-0.283238 -0.052235 -0.459446
-0.000242 -0.125942 0.359230
0.322841 -0.247875 0.409125
-0.068025 -0.219126 -0.304831
0.279124 0.054383 0.298647
0.218581 0.292054 -0.076366
0.314006 -0.377993 0.405292
0.366864 0.083646 -0.291229
0.133949 -0.003287 0.408564
0.204438 -0.092940 0.029455
0.356680 0.195211 -0.267295
-0.141442 0.132285 0.133362
0.146035 0.218618 0.056778
-0.179140 0.284876 -0.004442
-0.315711 0.277091 -0.316404
0.291486 -0.061712 -0.478897
0.093622 0.199581 -0.490002
0.062717 -0.184537 -0.314507
0.303098 -0.088717 -0.012641
0.307903 0.147428 -0.488764
0.113598 -0.084481 0.042993
0.228394 -0.099564 -0.253969
-0.380053 -0.035386 -0.121661
0.448878 0.149280 -0.165479
0.293611 0.289281 0.121113
-0.309739 -0.119256 -0.253236
-0.221277 0.334689 -0.295138
-0.024028 0.378259 -0.155447
0.311685 0.136612 -0.325471
0.465952 0.281428 0.026862
0.188424 0.125241 0.198717
-0.350764 -0.084937 -0.257802
-0.315984 0.225385 -0.022274
0.191157 0.115672 0.217513
-0.247725 0.293103 -0.392618
-0.157221 0.145149 0.130618
0.448939 0.091769 0.273969
0.073368 0.208012 -0.489845
-0.116021 0.321629 -0.040453
-0.123943 0.371854 -0.132923
0.098310 -0.141252 -0.032606
-0.437817 0.052196 -0.237588
0.121753 0.192755 0.069838
0.324405 0.289246 -0.112756
0.173730 0.293163 -0.396512
-0.275625 -0.027834 -0.472471
0.320413 0.197083 0.287320
-0.034664 0.143100 -0.488423
-0.184249 0.003330 -0.488144
0.465005 0.082377 -0.136871
0.380374 -0.121347 0.266070
0.290678 -0.344641 0.344838
0.352188 -0.308049 0.443071
-0.070097 -0.186103 -0.071262
0.485429 0.202924 0.036900
-0.333742 0.140294 -0.463180
0.486098 0.195937 0.034102
0.293028 0.063452 0.300327
-0.331336 0.122057 0.028923
0.053210 -0.103469 0.345435
0.042335 0.067296 0.120172
-0.357855 0.053464 -0.462289
-0.302415 -0.106384 -0.374075
-0.133265 0.251739 0.061809
0.210141 0.141388 0.250794
-0.120167 0.263979 0.045812
-0.336752 -0.069605 -0.396771
0.363256 0.263912 -0.057593
0.005038 0.055047 -0.491805
0.277467 0.286783 0.090584
0.315924 0.021745 0.312788
0.253032 -0.023366 -0.361716
0.396352 0.040171 0.300851
0.001210 -0.132528 -0.007289
0.420142 0.281418 0.002136
0.163056 0.027583 0.373495
0.391814 -0.029882 0.133425
0.258227 0.286945 -0.215746
-0.231088 0.271957 -0.469768
0.354528 0.009142 -0.284429
0.254469 0.106370 0.318249
-0.024617 -0.184758 -0.070074
0.208654 0.115754 -0.493809
0.005618 0.112983 -0.489596
0.012328 -0.205188 -0.342598
-0.156359 -0.033965 -0.491005
-0.216416 -0.121336 -0.454515
0.315401 0.290301 -0.109178
0.439185 -0.006498 -0.102332
-0.111941 -0.028747 -0.490608
-0.060668 0.262132 -0.487438
0.489641 0.168595 0.127037
-0.450816 0.043717 -0.399287
-0.184692 -0.185900 -0.319833
0.156074 0.000416 0.395238
0.386843 -0.043686 -0.024978
0.416243 -0.033693 -0.081978
-0.209235 -0.166697 -0.120050
0.287350 -0.346791 0.410315
-0.127183 0.038019 -0.491600
0.311523 -0.080852 0.319215
0.135134 -0.089466 -0.492606
-0.351299 0.201595 -0.053890
0.093623 -0.069546 0.060064
0.055406 -0.030942 0.415541
0.451303 0.037641 -0.160888
-0.317388 0.051760 0.044077
-0.246410 0.232824 0.042755
0.046360 0.126355 -0.492756
0.015469 -0.055264 0.400998
0.220566 -0.002108 -0.493961
0.265399 -0.105736 -0.227745
0.071548 -0.111734 0.009535
0.341042 0.133155 0.299498
0.190175 0.264869 0.006079
-0.196481 -0.103208 0.011950
