ply
format ascii 1.0
element vertex 1686
property float x
property float y
property float z
end_header
-0.255703 0.063775 -0.487141
-0.119618 0.044789 -0.490342
-0.010971 0.297628 -0.485933
-0.098937 0.028174 -0.490599
0.016351 -0.043446 0.370036
0.330732 0.195090 -0.467406
0.268502 -0.185822 0.284202
-0.351226 0.132892 -0.459534
-0.117415 -0.217311 -0.234365
0.493299 0.169287 0.051375
0.072982 -0.223088 -0.183673
-0.108555 0.363505 -0.104776
-0.267518 0.081011 0.090110
0.414157 0.238750 -0.190133
-0.352106 0.149003 -0.010322
-0.196054 0.077559 -0.488742
0.054019 0.367310 -0.300523
0.467691 0.034565 0.032775
-0.440389 0.044004 -0.173441
0.387281 0.210147 0.277576
0.347245 -0.064290 -0.309037
0.337668 0.306784 -0.291395
-0.027106 -0.111133 0.345239
0.069927 -0.211094 -0.378492
0.486574 0.181364 0.014454
0.098648 -0.192289 -0.089019
-0.371876 0.024009 -0.447860
-0.421674 0.023514 -0.149883
0.442753 0.282220 -0.058785
0.415220 -0.123730 0.227540
-0.093494 -0.079585 0.071465
0.229555 -0.123665 -0.443172
-0.300735 0.053041 0.060474
0.298307 0.348217 -0.096681
-0.071318 0.381897 -0.266807
0.391213 0.256629 -0.242389
0.223818 0.016194 -0.493601
-0.151544 0.207474 0.106100
-0.040822 0.370964 -0.101268
0.322258 0.355354 0.026682
0.156765 -0.049653 0.389156
-0.023626 -0.079217 0.363961
0.169344 -0.163527 -0.479092
0.186895 0.320100 -0.478354
-0.235665 0.292714 -0.420750
0.125719 0.063156 0.342203
0.019852 -0.068985 0.440889
-0.271583 -0.148872 -0.260533
-0.241576 0.325031 -0.126700
0.009468 -0.206330 -0.383624
0.064965 0.019110 0.319119
0.436456 -0.014278 -0.114715
0.032722 0.369481 -0.306001
0.091471 0.060300 0.262597
-0.016158 0.145183 -0.490498
0.185168 -0.106273 0.050524
0.379959 0.333129 0.166764
-0.341050 -0.027070 -0.024505
0.149880 0.276673 -0.486921
0.299357 0.072705 -0.492387
0.198378 0.174325 -0.492491
-0.426274 0.138652 -0.420300
0.355605 0.069206 -0.477517
0.387583 0.070130 0.321890
0.335632 -0.329385 0.309163
0.422991 0.309580 -0.047623
0.494287 0.107751 0.100390
0.457223 0.081071 0.282861
-0.027656 -0.102301 0.396915
0.174024 0.059367 0.138620
0.031072 0.357201 -0.031225
0.460756 0.236004 -0.054665
0.470952 0.209930 0.209275
-0.189040 -0.095952 0.032301
-0.409708 0.020744 -0.124199
0.425863 0.120949 -0.249075
-0.459608 0.159600 -0.238589
0.442135 0.116309 -0.205636
-0.468430 0.166043 -0.353402
0.332858 -0.062938 0.368967
0.017776 0.143075 0.138361
-0.465713 0.058359 -0.218932
-0.239270 0.327338 -0.282600
0.315368 0.305010 0.138637
0.123266 0.338653 -0.472654
0.041282 -0.029889 -0.492297
-0.491110 0.138846 -0.304777
0.220136 0.209865 -0.490518
0.366132 -0.058995 0.047073
0.392994 -0.134166 0.383234
0.315555 0.351936 0.094210
-0.040701 -0.188554 -0.414752
-0.395445 0.222814 -0.199072
-0.355212 -0.081338 -0.152385
-0.250687 0.048466 -0.487196
-0.037631 -0.111430 -0.491195
0.379185 0.141174 0.301816
0.066262 0.361971 -0.366011
0.307356 -0.114350 -0.219959
0.259027 -0.056264 0.223551
-0.455885 0.069795 -0.399977
-0.281115 -0.123015 -0.104209
0.242573 0.337040 -0.287620
0.412263 0.186938 0.278257
-0.426123 -0.000890 -0.192259
0.283189 -0.367170 0.392406
0.129407 -0.193687 -0.283146
-0.169876 0.332991 -0.390545
0.198796 0.343400 0.066051
-0.113544 -0.153653 -0.028596
0.446214 -0.070329 0.267901
0.411903 -0.194227 0.316491
0.458443 0.310610 0.102992
0.045689 -0.234125 -0.228312
0.067205 0.365098 -0.311699
-0.071157 -0.213547 -0.110938
0.272500 -0.243705 0.294308
-0.163567 0.227180 -0.486422
0.366631 0.158067 -0.390723
-0.438468 0.186830 -0.235540
0.350400 0.130880 -0.453108
0.332638 -0.346402 0.338119
-0.196366 -0.134608 -0.041100
-0.242087 -0.145627 -0.387479
-0.177693 0.354841 -0.126787
-0.245174 0.068733 0.103419
0.224667 0.215424 0.138640
-0.447160 0.043059 -0.189582
-0.289081 0.296430 -0.120900
-0.248438 -0.073497 -0.471089
0.425803 0.314593 -0.016720
0.310515 0.113877 0.312843
0.264130 -0.013997 -0.493398
0.287244 -0.103325 -0.347207
-0.091977 0.309365 -0.481352
0.167858 0.111694 0.312513
-0.331618 0.133653 0.025089
-0.035888 -0.145261 0.371576
0.256847 -0.124044 -0.053142
-0.421527 0.176942 -0.178474
0.478682 0.149368 0.242110
0.261265 -0.126118 -0.075845
-0.082257 0.356240 -0.077015
-0.014993 0.113760 0.138322
-0.318649 -0.113938 -0.162873
0.148275 -0.187232 -0.226239
0.018378 0.334859 -0.482376
0.210817 -0.130730 0.001164
-0.086588 -0.207228 -0.333031
-0.151627 0.271491 0.028119
0.058036 0.356566 -0.464135
0.116449 0.068662 0.138529
-0.080016 0.314049 -0.005847
0.169355 -0.150967 -0.490723
-0.068863 0.297308 0.024155
0.170513 -0.170304 -0.398277
0.361869 -0.177368 0.404439
-0.272261 0.306626 -0.116477
0.258712 -0.059829 0.184311
0.171198 0.072284 0.138620
-0.338974 -0.101048 -0.187995
0.487769 0.165507 0.017141
0.004290 0.191864 0.136179
0.156247 0.361753 0.000474
-0.096780 0.270320 0.052979
0.104417 0.369709 -0.161107
-0.318369 0.274447 -0.319923
0.461560 0.016800 0.156040
0.155215 0.368381 -0.083423
0.336861 0.023023 0.341998
0.479457 0.077973 0.158300
-0.256545 0.306778 -0.090481
0.061390 -0.108069 0.447002
-0.192023 0.336868 -0.355172
-0.179785 -0.065722 0.073277
0.257357 0.247126 0.138641
0.469349 0.039987 0.145724
0.231807 -0.118142 -0.455729
0.490303 0.254126 0.057377
0.262830 -0.106469 0.256265
0.067851 0.194596 -0.490491
0.109466 -0.102533 0.053224
-0.286631 0.207968 0.037063
0.285714 -0.187718 0.390449
-0.048778 0.148044 0.138225
0.456686 0.275357 0.173637
0.308003 -0.115705 -0.177560
0.422657 -0.021101 0.100298
-0.119907 0.322951 -0.449850
0.270461 -0.206231 0.326522
0.280428 -0.084703 0.077398
0.436324 -0.117596 0.294447
0.137675 0.362152 -0.222460
0.025660 0.375536 -0.118409
0.058376 0.182957 0.138371
-0.054132 -0.038860 -0.491184
0.470710 0.041847 0.016747
-0.178696 0.362410 -0.167338
0.346329 -0.080560 -0.255585
-0.359423 -0.077770 -0.156525
-0.384818 0.049803 -0.447779
0.222978 0.361766 0.014566
0.052700 0.261111 -0.487873
0.162237 -0.172497 -0.439621
0.082217 0.318913 -0.484101
-0.135797 0.362109 -0.337096
-0.135452 -0.196612 -0.109559
-0.168854 0.366817 -0.174713
0.294157 -0.383304 0.379396
0.046564 -0.214002 -0.367429
0.478011 0.182568 0.197430
-0.154258 -0.103777 -0.488582
0.383054 0.334653 -0.031210
-0.177672 0.326025 -0.401519
0.437019 0.303308 -0.027902
0.154453 -0.080219 0.245442
0.367472 -0.099486 0.171265
-0.262710 -0.135151 -0.108231
0.180709 -0.148866 -0.027213
0.268358 0.231017 0.249760
0.166179 0.351837 -0.310033
0.030900 -0.227854 -0.300711
0.319555 0.040417 -0.492405
0.028804 -0.148454 -0.492182
0.120633 -0.196204 -0.322056
-0.140289 0.065831 -0.490050
0.162784 -0.177441 -0.306308
0.265267 -0.131638 -0.125263
0.488297 0.186319 0.026187
0.431954 -0.008235 0.127758
0.281627 0.359659 0.021239
-0.104640 0.379923 -0.174674
0.368671 -0.222247 0.244794
-0.347229 -0.060394 -0.398129
0.291577 -0.103461 -0.334266
0.297426 -0.118375 -0.233798
0.290182 0.285152 -0.479863
0.053566 0.006040 0.326998
0.346489 0.312372 0.184614
0.223560 0.363963 -0.008829
0.317711 -0.106160 -0.104581
0.272064 0.354578 -0.083165
0.284774 -0.233588 0.399039
0.272811 -0.238285 0.341899
-0.136113 0.100334 -0.489819
-0.341920 -0.094924 -0.270570
0.268547 0.105120 0.307400
-0.321627 0.110849 0.039880
0.426947 -0.028100 -0.053733
0.133167 0.218727 -0.490119
0.352101 0.035806 -0.484377
0.094363 0.339641 0.027202
-0.332662 0.094178 -0.474284
0.397042 -0.061529 -0.124741
0.398070 0.053938 -0.349268
-0.212107 0.148638 -0.486837
-0.286970 0.241529 -0.004020
0.093133 -0.080670 0.436975
-0.123330 -0.143786 -0.476862
0.346077 0.171490 0.295179
0.405938 0.339405 0.053397
0.411582 0.008083 -0.268374
0.123961 0.325810 0.062503
0.264911 -0.142531 0.233576
0.394355 -0.048957 0.150637
0.364724 0.120614 -0.419667
-0.127643 0.051307 -0.490232
0.343809 0.271924 0.243471
-0.089990 -0.225527 -0.216425
0.103006 0.301263 -0.485545
-0.424353 0.051457 -0.424441
-0.095069 -0.211047 -0.113219
0.079774 -0.103389 0.284526
0.213293 0.176524 0.239453
-0.354319 0.127079 -0.007111
-0.381642 0.194708 -0.114880
-0.422836 0.176809 -0.181276
0.136871 -0.090051 0.270000
-0.287022 0.305664 -0.240743
-0.281836 0.296845 -0.104450
0.146756 -0.055916 0.211237
0.388183 0.158084 -0.330651
-0.254508 -0.113805 -0.047527
0.173988 0.346305 -0.339753
0.252699 -0.129974 -0.076853
-0.195823 -0.174405 -0.115923
-0.422935 0.025056 -0.416029
0.158951 0.115687 0.138601
0.132879 0.108295 -0.493253
0.001142 -0.054842 -0.491847
0.072735 0.368493 -0.243849
-0.448083 0.184780 -0.255689
-0.216605 -0.127822 -0.447899
0.119884 0.094587 0.221194
0.290592 0.152764 0.298807
-0.012656 -0.082447 0.074488
0.294401 0.156113 0.298164
0.206277 -0.157787 -0.124970
-0.370420 -0.068177 -0.334767
0.398798 0.322053 -0.053586
-0.209660 -0.059292 0.067438
-0.040754 -0.070127 0.085628
0.011229 0.369325 -0.350166
-0.008717 -0.208789 -0.098193
0.356815 -0.100166 0.169554
-0.340367 -0.090994 -0.334567
0.017567 -0.228746 -0.300064
0.490415 0.205270 0.107400
-0.460981 0.034932 -0.383790
0.128967 0.357320 -0.320680
0.350451 0.354575 0.071346
-0.204854 -0.147147 -0.422076
0.413632 0.037886 -0.295519
-0.278409 0.306319 -0.270843
0.084674 -0.057881 0.107541
0.002960 -0.234495 -0.273765
-0.264270 0.319391 -0.161150
0.389238 -0.021819 -0.290213
0.130596 -0.188187 -0.111665
0.180709 0.358096 -0.205844
-0.019913 -0.108924 0.427467
-0.149134 0.347000 -0.091296
0.216698 -0.146714 -0.084275
-0.152643 -0.087725 -0.488923
-0.174807 0.293621 -0.014920
-0.136645 0.280370 -0.485385
0.038760 -0.025111 0.373246
0.347840 -0.354181 0.440220
0.211918 -0.055538 -0.493150
0.136870 -0.074030 0.232231
-0.189430 0.129042 0.127165
0.446874 0.280941 0.186652
0.363653 -0.015097 -0.398923
-0.267925 0.191850 -0.477766
-0.002758 0.088813 -0.491677
0.112121 -0.084923 0.402258
-0.425220 -0.016947 -0.368459
-0.008925 0.381097 -0.166285
0.457182 0.015193 0.020979
0.044811 0.220439 -0.489403
0.299765 -0.304224 0.427696
0.440139 -0.090635 0.301040
0.258892 -0.037326 0.302466
-0.460258 0.076289 -0.397210
0.370923 -0.065439 -0.004420
0.188911 0.270372 -0.487227
0.018649 0.079441 0.138371
-0.389980 0.226819 -0.351787
0.370191 0.256154 -0.305001
0.330183 -0.107276 0.171382
0.422666 0.063628 -0.271491
0.243663 0.133426 0.302810
0.079803 -0.082187 0.265086
-0.036931 0.373415 -0.335696
0.102393 0.278070 0.119095
-0.289595 0.302367 -0.158419
-0.318608 -0.075735 -0.049399
-0.003221 0.376390 -0.259957
0.130184 0.020462 0.402686
-0.090689 -0.118367 0.024649
-0.008058 -0.201746 -0.390680
0.274759 -0.110969 0.364587
-0.329053 0.238677 -0.065697
0.211516 -0.159207 -0.199405
-0.198821 0.161213 -0.486961
0.407018 -0.034036 0.146227
0.162279 -0.077885 -0.493022
0.253261 0.153799 0.290317
0.050855 0.003292 0.327955
-0.144488 0.318742 -0.041012
-0.280806 0.035177 0.073764
-0.140863 -0.083543 -0.489193
0.359576 0.274523 0.243527
0.298480 0.038057 -0.493237
0.023633 0.147498 -0.491021
-0.250791 -0.162334 -0.224439
-0.023612 0.262482 0.094849
-0.346897 -0.053847 -0.409146
-0.174539 0.186631 0.113931
-0.194576 0.145074 -0.487425
-0.004973 0.170728 -0.490057
0.234610 0.319581 -0.440889
0.352911 -0.092764 -0.125481
-0.495418 0.114459 -0.278919
-0.407910 0.154421 -0.425866
0.240580 -0.048775 -0.493185
0.122008 -0.110495 -0.492827
0.287450 0.110595 0.310798
-0.214700 0.349228 -0.181709
-0.184981 0.156665 -0.487461
0.330762 0.071837 0.326787
0.476333 0.065575 0.171570
-0.073310 -0.176879 -0.428064
0.109963 0.076490 0.264071
-0.364971 0.238973 -0.151769
-0.150236 0.106258 -0.489474
0.414273 0.316468 -0.039198
0.365098 -0.230410 0.248037
-0.199155 -0.143931 -0.433248
0.165961 0.359296 -0.214733
-0.001138 0.180968 -0.489870
-0.274336 -0.046001 0.036120
-0.001935 -0.237175 -0.254642
-0.044369 -0.129081 0.011299
-0.116451 -0.195971 -0.352061
-0.403086 0.199717 -0.396401
-0.236036 -0.172570 -0.266925
0.259492 -0.133770 -0.286208
0.157464 -0.044325 -0.493236
-0.404955 0.134292 -0.105303
0.333955 0.335739 -0.130451
0.491456 0.096382 0.044399
0.395925 -0.036009 0.352563
0.217520 -0.153137 -0.284313
0.050479 0.376318 -0.156343
-0.322127 -0.106754 -0.311766
-0.021686 0.114133 -0.491152
-0.078631 0.380051 -0.275768
0.336226 -0.055131 0.366490
-0.018448 0.354192 -0.441823
0.409651 -0.009345 -0.246453
-0.367627 0.196147 -0.084901
0.199872 0.285779 -0.486371
0.274167 -0.130161 -0.205730
0.411487 0.016936 -0.282154
0.115887 -0.196651 -0.366250
-0.208626 0.316768 -0.390138
-0.042543 0.065192 0.137956
0.433520 0.196674 -0.169618
0.159995 -0.045041 0.124732
0.001451 0.193781 -0.489605
-0.482741 0.116391 -0.247929
0.163380 0.119054 0.282770
0.060747 0.357592 -0.448800
0.281604 -0.349376 0.385381
-0.353256 -0.085132 -0.161925
0.476080 0.091951 0.225452
-0.002098 0.359363 -0.434375
0.109436 0.367531 -0.187771
0.258285 -0.037802 0.257629
-0.466187 0.097737 -0.213992
0.335537 -0.352215 0.365981
0.356569 -0.022521 -0.406392
0.406580 0.081122 -0.322125
-0.378063 0.087006 -0.453584
-0.392387 0.008927 -0.095677
0.365882 -0.086128 -0.119624
-0.293492 0.251027 -0.027312
-0.236784 0.028292 0.102576
0.332318 -0.283696 0.437737
0.008099 -0.069559 0.415452
0.464231 0.274904 -0.006416
-0.054828 0.384498 -0.209536
-0.021052 -0.148222 -0.490631
-0.000511 -0.234215 -0.275539
0.447464 -0.056506 0.220240
0.191689 0.327334 -0.457985
0.456688 0.075693 0.284447
-0.327744 0.275761 -0.162847
0.451748 0.288988 -0.018946
-0.434332 -0.000205 -0.384134
0.178896 0.120623 0.314354
-0.491848 0.116634 -0.339234
-0.163216 -0.130609 -0.482310
0.100093 0.246830 -0.488610
-0.060620 0.117479 0.138248
0.218578 0.042909 0.344640
0.146216 -0.068646 -0.493085
-0.020088 0.344518 -0.464998
0.154311 0.245619 0.138106
0.073940 0.366362 -0.045618
0.400028 0.296741 -0.149256
-0.398175 -0.050668 -0.286942
-0.030297 -0.139489 0.443825
-0.244563 0.269081 -0.012336
-0.028192 -0.124454 0.018255
0.422474 -0.173689 0.351091
0.158764 -0.079332 -0.493014
0.260600 -0.123286 -0.355098
-0.210693 -0.183327 -0.271279
0.102305 0.359260 -0.340584
-0.030778 0.226922 0.121506
0.349956 0.334922 -0.107608
0.228844 0.351161 0.065143
-0.232487 0.151476 0.104427
0.146200 -0.003586 -0.493456
0.461923 0.106576 -0.145295
-0.258768 -0.099274 -0.442140
-0.282350 -0.142348 -0.208390
0.267258 -0.173026 0.256407
-0.232435 0.000020 0.093273
-0.183787 0.344373 -0.343976
-0.179129 0.082507 -0.489198
-0.242235 0.244935 0.026575
-0.245574 -0.016866 0.076781
0.288237 -0.104869 -0.339027
0.483803 0.141148 0.188891
-0.343806 0.086671 0.010569
0.324051 -0.055741 -0.405288
-0.381747 0.239746 -0.226081
0.404261 0.018219 -0.310209
-0.300618 0.247601 -0.032835
0.367341 -0.054124 0.071636
0.443010 0.311017 0.013203
0.372972 -0.166187 0.211122
0.066315 -0.051993 0.258595
0.293572 -0.355982 0.429528
-0.029102 -0.099878 0.389162
-0.145519 0.307802 -0.023992
0.277900 0.331331 -0.268213
0.468204 0.113256 0.264158
0.434101 -0.105415 0.343263
0.463672 0.191712 -0.084749
-0.217821 -0.080259 0.038739
0.118696 -0.192974 -0.423981
0.138767 -0.192256 -0.209469
-0.047362 0.243473 0.106319
0.327429 0.352283 -0.005278
0.025706 -0.068502 -0.492147
0.437441 0.239987 0.236517
-0.035839 0.276135 0.069900
-0.150579 0.307507 -0.465797
-0.176625 -0.157034 -0.419650
-0.416901 0.216975 -0.312647
0.366552 0.318150 0.188936
-0.263754 0.314685 -0.130202
0.401908 -0.035588 0.078126
0.403787 0.341806 0.059904
0.305913 0.333228 0.127977
-0.212727 0.307438 -0.411699
0.257650 -0.136351 -0.137783
0.208315 0.270999 0.138136
0.462424 0.031331 0.138027
-0.047208 -0.131713 0.391487
-0.382135 0.123397 -0.058663
0.137156 0.362858 -0.010397
0.228924 0.093951 0.324011
-0.005516 -0.076891 0.401050
0.098483 0.368597 -0.191436
0.043229 -0.176369 -0.480621
-0.373486 -0.071480 -0.249926
-0.439051 0.152961 -0.404191
-0.462331 0.021932 -0.368259
0.460073 0.214482 -0.075497
0.039739 -0.071445 0.475354
-0.342825 0.058567 0.011571
0.496444 0.158239 0.105949
0.113353 -0.071884 0.420758
0.438525 -0.014864 -0.034061
0.180301 0.365087 -0.016595
0.049642 0.003976 0.135820
-0.258976 0.308315 -0.099640
-0.117900 0.028229 0.132651
0.225582 0.194830 0.214508
0.359016 -0.053462 0.094995
0.111907 -0.193613 -0.459219
0.200705 -0.022894 0.356733
-0.174349 0.299550 -0.468780
0.481865 0.147709 -0.023298
0.427309 0.004887 -0.206705
0.406494 0.302653 -0.115682
-0.177237 0.253256 0.044754
0.397274 -0.054172 -0.019549
0.188896 -0.119893 -0.492600
0.318739 0.136352 0.306722
0.342118 -0.101455 0.168362
-0.308136 0.289196 -0.152028
0.216691 -0.155833 -0.150103
0.012343 -0.146286 0.362343
0.446919 -0.003742 0.062863
0.094292 0.066109 0.248633
0.139049 0.168099 0.138544
0.260803 -0.069045 0.288612
-0.337542 0.267020 -0.150599
0.159238 0.092146 0.343027
0.322621 -0.075091 0.061187
0.436999 -0.116573 0.286514
0.390687 0.074893 0.319508
0.256262 0.355810 -0.095527
0.094567 -0.213425 -0.182901
-0.250309 0.314737 -0.318431
0.027315 -0.147352 0.402217
0.250372 0.308927 -0.471949
-0.247844 0.328795 -0.244463
0.156866 0.086595 -0.493553
0.344754 -0.056092 -0.343493
-0.031031 0.370688 -0.355742
0.456930 0.093988 0.280921
0.327199 0.244933 -0.442005
0.472973 0.132027 -0.081064
-0.442470 0.059258 -0.169583
0.175419 0.118269 0.138627
-0.165643 0.349968 -0.108121
0.399949 -0.237659 0.344910
-0.446368 0.072008 -0.408971
-0.334280 -0.074580 -0.390551
-0.323465 -0.078341 -0.064041
0.266716 -0.128611 -0.104904
0.114978 -0.008113 0.210082
0.290773 -0.264918 0.272338
0.284448 -0.129624 0.189163
-0.222335 0.328106 -0.329519
0.186589 -0.150000 -0.476079
-0.035587 -0.178696 0.440250
-0.179642 -0.115268 0.004770
-0.119824 -0.207891 -0.299348
-0.175593 -0.128184 -0.480223
0.380033 -0.056551 -0.223667
0.264407 -0.132085 0.247494
0.282307 -0.312225 0.322080
0.469736 0.061195 -0.079462
0.344885 -0.330828 0.336637
0.013294 0.191848 0.136651
0.174510 0.216996 -0.490172
0.023544 0.139932 -0.491198
-0.233487 0.040121 -0.487599
0.481046 0.166747 0.181968
-0.039142 0.373898 -0.331670
0.355533 -0.278145 0.282828
0.381020 -0.215124 0.263264
0.205947 0.340889 -0.324187
0.429367 0.057394 -0.248640
0.293203 -0.083062 -0.399906
-0.377627 0.033715 -0.047783
-0.074063 0.195821 0.127964
0.361470 -0.218712 0.417433
0.175688 -0.074542 -0.493040
0.015235 -0.052534 0.390440
0.210704 0.363177 -0.061561
-0.014258 -0.119694 0.025323
-0.295613 -0.022988 -0.467451
0.357956 -0.071279 -0.252825
0.106891 0.349160 0.016649
0.356583 0.310634 -0.222343
0.408597 -0.033507 0.346370
0.119805 -0.040386 0.427098
0.325235 -0.061023 0.368311
0.486157 0.070166 0.095454
-0.369075 0.176864 -0.060319
0.131575 0.362831 -0.223068
0.242771 0.332243 -0.325362
0.377584 -0.228090 0.272101
-0.422017 0.147607 -0.419806
0.319556 -0.083982 0.020188
0.474225 0.225687 -0.023833
-0.112341 -0.168713 -0.428632
0.096911 0.365180 -0.251872
0.172033 -0.173328 -0.302773
0.106313 0.179322 -0.491424
0.165988 0.335251 0.065538
0.389437 0.110862 -0.356951
-0.077572 0.064966 0.137684
-0.229349 0.335169 -0.270892
0.230817 0.169851 -0.492422
0.451225 0.214998 0.239746
0.275085 -0.271204 0.347954
0.233739 0.332624 -0.338890
-0.311829 0.286823 -0.155328
0.147208 0.341203 0.047432
-0.102467 -0.206793 -0.323628
0.233221 -0.149434 -0.159249
0.197995 0.359394 -0.150050
0.170131 -0.018927 0.392672
-0.396410 0.059520 -0.442870
0.442353 0.231288 -0.113233
-0.172118 0.149650 0.127778
0.168603 0.347313 -0.341616
0.288965 0.117028 0.309225
0.099111 -0.120862 -0.492763
-0.346451 0.210928 -0.059635
-0.262394 0.011895 -0.484534
-0.231263 0.291430 -0.036855
0.304111 -0.067301 0.106943
0.005911 0.252679 0.113222
0.478113 0.131553 -0.050368
0.366033 -0.292420 0.330705
-0.343248 -0.058559 -0.406328
0.473326 0.049762 0.127258
0.154811 0.161095 -0.492568
0.422536 -0.172988 0.351701
0.463131 0.032233 -0.036186
0.363820 -0.044891 -0.315169
-0.167134 -0.184393 -0.356866
0.482828 0.280165 0.090535
0.071980 0.368874 -0.238934
0.356669 -0.094314 0.378456
0.234568 -0.145132 -0.124041
-0.340517 -0.096287 -0.264599
0.109032 0.082163 0.230406
0.354988 -0.016392 -0.427268
0.330907 -0.140634 0.393308
-0.250036 -0.163129 -0.230337
-0.477078 0.163723 -0.291395
-0.383705 -0.058252 -0.333031
-0.305633 -0.101186 -0.381900
0.486809 0.181371 0.128234
0.126586 0.055616 0.363288
0.482084 0.061444 0.101486
-0.007088 0.331473 -0.002960
0.003550 -0.096416 0.463251
0.124428 -0.087108 0.251303
0.114603 0.103416 -0.493042
0.362381 -0.046490 0.122223
0.082407 -0.118647 0.334070
-0.075022 -0.223668 -0.136957
0.258987 -0.057290 0.215971
-0.125925 -0.095323 0.052076
0.391586 -0.189910 0.256419
0.470276 0.106134 -0.104553
-0.281104 -0.014338 0.053851
-0.265992 -0.132590 -0.379125
0.337850 0.286493 -0.351374
0.349787 -0.339978 0.375554
-0.207332 -0.186097 -0.243275
0.106015 0.102157 0.138519
0.235785 -0.145295 -0.270106
0.154366 -0.178569 -0.376654
0.479992 0.073483 -0.012536
-0.164692 -0.155710 -0.430671
-0.136996 -0.200279 -0.118420
-0.361927 -0.002704 -0.040739
0.435816 -0.103662 0.254575
0.209652 0.207114 -0.490679
-0.118828 0.186264 -0.488038
0.307142 0.008449 0.345026
-0.300690 0.288472 -0.119243
0.467691 0.099006 -0.121470
0.068456 -0.176602 -0.050964
-0.036966 -0.173675 0.416084
0.211312 -0.021143 -0.493368
-0.201283 -0.137656 -0.049949
-0.035551 -0.080316 0.075053
-0.382431 0.221895 -0.381911
-0.244677 -0.147194 -0.381510
0.022935 0.276264 0.094238
0.340397 0.346069 -0.036595
0.444037 0.006100 0.311751
0.388979 -0.036650 0.112142
0.268722 -0.181173 0.321333
0.041851 0.332690 -0.482734
0.312943 -0.069328 0.097121
0.342574 -0.164294 0.202284
-0.103510 0.307176 -0.480725
0.190604 -0.167165 -0.241853
0.032969 -0.223318 -0.324394
0.261531 -0.097831 0.055064
-0.275821 0.272632 -0.412180
-0.009004 0.343015 -0.023153
0.429176 -0.094938 0.224756
-0.167107 0.278794 0.010619
0.435965 -0.017399 -0.016798
0.426662 -0.109372 0.238084
0.029057 0.314856 -0.484655
0.112664 -0.200295 -0.311064
-0.358438 0.014196 -0.451303
0.395504 0.036770 0.330050
-0.443902 -0.003956 -0.253310
0.315539 0.357126 0.043299
0.314795 -0.291168 0.273830
0.345260 -0.164965 0.202994
0.481079 0.214529 -0.008517
0.126676 0.344801 -0.438426
-0.367376 -0.043926 -0.102462
0.202297 0.037925 0.358546
-0.242909 -0.066519 0.039354
-0.202852 0.318680 -0.392967
-0.300278 0.263293 -0.398598
-0.203450 -0.088471 -0.485419
0.197845 0.110674 0.336933
0.449161 0.077275 -0.187725
0.110537 0.365363 -0.221988
-0.137335 -0.073454 -0.489324
-0.189548 -0.193457 -0.218827
0.099835 -0.210854 -0.191457
-0.296036 0.262612 -0.052097
0.209362 0.354124 -0.207717
0.126938 0.100277 0.210933
0.223326 0.195739 0.204423
-0.429176 -0.018742 -0.246164
0.025406 -0.189187 -0.443488
0.182632 -0.172825 -0.190673
-0.036813 -0.224221 -0.301738
-0.246572 0.328941 -0.158029
-0.415343 -0.030361 -0.227842
-0.175127 0.293579 -0.476635
0.413656 -0.167673 0.284326
-0.353189 0.108771 -0.003735
-0.137573 -0.048996 -0.489457
0.028303 0.368881 -0.324762
0.362518 -0.150349 0.395939
0.270946 -0.016764 0.339283
-0.203761 -0.010901 -0.488120
-0.259555 -0.097950 -0.025021
0.077167 0.279367 -0.486846
-0.066601 0.378361 -0.155281
-0.360350 -0.040459 -0.078850
0.202551 0.203294 -0.490896
0.181948 0.158576 0.204335
0.477525 0.062271 -0.008470
0.380577 0.213319 0.277594
-0.053121 -0.235776 -0.169866
-0.126026 0.051745 -0.490261
0.083176 -0.141351 -0.001537
-0.335219 0.188239 -0.450754
-0.411101 0.037152 -0.115603
-0.169575 0.365422 -0.246449
0.119028 0.363211 -0.017210
-0.436988 0.101691 -0.418869
0.029378 0.007343 -0.492125
0.428070 -0.016453 0.110987
-0.310177 -0.058055 -0.012864
-0.103635 -0.205462 -0.327812
-0.195804 0.246950 0.046325
0.434059 -0.020448 -0.067996
0.175389 0.068069 0.363410
-0.234795 -0.115523 -0.034362
0.483585 0.117045 0.172119
-0.143533 0.068580 -0.489997
-0.324927 -0.047945 -0.018788
0.451773 0.305140 0.018639
0.224541 0.131547 -0.494309
-0.255777 0.015858 0.086373
-0.422485 0.124577 -0.135597
-0.147231 0.216794 0.100948
-0.020915 0.038440 0.137662
-0.152134 0.369176 -0.269395
0.352315 -0.060378 0.072936
0.308449 -0.246765 0.249816
0.160199 0.367960 -0.040440
-0.039109 -0.171066 -0.046819
-0.394684 0.220943 -0.363830
0.135547 -0.051636 0.117233
0.134369 -0.189550 -0.330765
-0.151169 0.137288 -0.488727
-0.241333 0.186165 0.086727
0.165158 -0.074163 0.229845
-0.186252 -0.046765 -0.488400
0.077328 0.360022 -0.376946
-0.361723 0.054420 -0.016055
-0.420278 0.078558 -0.125799
0.275580 -0.097420 -0.401144
-0.423916 -0.030869 -0.284746
-0.030834 -0.093265 0.373462
0.245067 -0.139309 -0.314223
0.466080 0.045465 -0.071535
-0.095075 -0.097477 -0.490072
-0.229314 0.304929 -0.059786
0.159774 0.356697 -0.270507
0.297465 -0.150874 0.388004
-0.016504 0.342778 -0.471415
0.067262 -0.223699 -0.244322
0.335770 0.354064 0.031805
0.035818 -0.085923 0.073858
0.381734 -0.077280 -0.149977
0.353856 0.312307 -0.221848
-0.050494 0.213940 0.124546
0.050140 -0.104319 0.048790
0.104155 -0.100536 0.275736
-0.251906 -0.027977 -0.481781
-0.182580 -0.194655 -0.185969
-0.317719 0.135090 -0.471713
0.351801 0.344505 -0.028110
0.221642 0.119938 0.321557
-0.258655 -0.143665 -0.124794
-0.341995 0.158321 -0.456831
0.023550 -0.099003 0.490535
0.493399 0.129263 0.041120
-0.272817 0.025222 -0.484080
0.388629 0.172897 -0.320062
0.281427 0.344935 -0.153698
-0.224652 -0.143879 -0.078794
-0.489599 0.051255 -0.330382
-0.067760 -0.078207 0.074891
0.190245 0.197097 0.138605
0.118150 0.359891 -0.298822
0.285070 0.310088 -0.412468
0.414407 0.336275 0.059886
-0.490119 0.075734 -0.261018
-0.389013 -0.030750 -0.395180
-0.150639 0.371395 -0.251110
0.255671 0.134798 0.292869
0.309232 0.293783 0.147405
0.244389 0.349567 -0.184796
0.032616 -0.043404 0.406072
-0.156912 0.121948 -0.489007
-0.104991 -0.215652 -0.266772
0.257988 -0.045002 0.203189
-0.016939 0.366567 -0.388145
-0.333462 -0.077741 -0.083786
0.206045 -0.099736 0.060288
0.429692 -0.080564 0.344072
0.274400 -0.114588 -0.345354
0.467286 0.206969 0.220102
0.372974 0.100618 -0.409292
-0.376440 -0.004004 -0.071744
-0.110571 0.023197 0.132025
0.172251 0.142913 -0.493284
0.157195 -0.181967 -0.147480
-0.000672 0.045027 0.137930
0.434314 0.302594 0.175878
-0.050541 -0.030354 -0.491219
0.266116 -0.158240 0.245074
0.394458 -0.098662 0.371966
-0.382288 -0.055885 -0.175905
0.460369 0.021071 0.024508
-0.020411 0.021286 -0.491528
0.435228 -0.104348 0.333041
0.346496 0.172866 -0.437498
-0.205847 -0.127422 -0.035056
-0.028029 0.382530 -0.196203
-0.086438 0.241341 0.096924
-0.149058 0.071624 0.137119
0.103325 0.371832 -0.127625
0.201689 0.015222 0.364612
0.414025 0.099526 -0.295582
0.273339 -0.129623 -0.229303
0.184090 0.352016 -0.275338
0.398517 0.181848 0.283799
-0.309656 -0.114836 -0.134546
-0.187988 0.360632 -0.182102
-0.121237 0.286497 -0.485370
0.127863 -0.194552 -0.279161
-0.044955 0.123143 0.138271
0.482930 0.124348 0.191230
-0.128690 0.054001 -0.490226
0.073137 -0.065362 0.458086
-0.126287 -0.198854 -0.107938
0.329540 0.309327 -0.301237
0.042622 0.087918 -0.492210
-0.094267 0.153141 -0.489178
-0.285275 0.258272 -0.030644
-0.151220 -0.044853 0.095784
0.484958 0.066819 0.058486
-0.013747 0.330405 -0.481242
0.009983 0.375942 -0.242080
-0.285967 -0.033983 0.036034
0.436600 -0.072958 0.334556
0.390420 -0.298546 0.428983
0.323225 -0.067237 0.096161
0.426978 -0.159842 0.324185
-0.037261 -0.173932 0.455226
-0.201260 -0.184850 -0.292028
0.368555 0.032796 -0.441938
-0.366005 -0.031061 -0.080367
0.322934 -0.034305 -0.480455
-0.014259 -0.158308 -0.028288
0.361784 -0.048825 -0.309904
0.109316 0.213880 0.138410
-0.374153 0.208656 -0.119796
0.382548 0.233043 -0.288640
0.006488 0.087825 -0.491786
0.469872 0.202684 -0.056787
0.440774 -0.074767 0.324085
-0.310600 -0.060718 -0.436601
-0.196196 0.054976 -0.488630
0.207574 -0.019053 0.350494
0.315845 0.056373 -0.492049
0.406114 -0.143852 0.231211
0.482223 0.131951 0.210749
0.299922 0.283017 0.155258
0.087852 -0.124478 -0.492713
0.157316 0.356331 -0.280402
-0.332463 0.258161 -0.106714
-0.007846 0.254268 0.108235
-0.298871 -0.111761 -0.372560
-0.402462 0.221701 -0.218356
-0.287899 0.285105 -0.354882
0.026264 0.363825 -0.413110
-0.062737 0.057368 -0.490999
0.356817 0.034820 -0.479516
0.001019 0.096565 -0.491714
0.122625 -0.124673 -0.492737
0.006480 -0.233327 -0.141708
-0.142627 0.342055 -0.390299
0.023695 0.219102 0.132525
0.085823 -0.212073 -0.323242
0.151105 -0.185735 -0.231246
0.173287 0.359716 -0.193256
0.108982 -0.071261 0.095714
-0.302307 0.138727 -0.476146
0.294274 0.230928 0.270442
0.036762 -0.099863 0.054536
0.088644 0.053066 0.278720
0.124046 -0.073145 0.403721
0.372339 0.269470 -0.281981
0.427844 -0.043747 0.163860
0.270162 0.032930 -0.493625
0.000466 -0.196870 -0.409193
-0.293145 -0.040298 0.025125
-0.230399 0.086618 0.111868
0.310548 0.356267 0.018958
-0.259724 0.052296 0.092124
-0.021980 -0.124133 -0.491451
-0.182740 -0.157570 -0.414174
0.399456 -0.023461 -0.248642
0.026419 -0.055810 0.423822
0.486905 0.124963 0.137884
0.435489 0.296769 0.182518
0.041339 -0.230610 -0.154200
-0.197408 0.340157 -0.330658
-0.117295 -0.170355 -0.056081
0.311855 -0.091776 -0.316167
-0.277933 -0.143160 -0.180581
-0.313375 -0.011291 -0.463435
0.386556 0.344226 0.034199
0.406312 0.122503 -0.302579
0.227150 -0.058771 0.117858
0.441521 -0.094702 0.276751
0.324928 -0.263776 0.255016
-0.201368 0.241027 0.052834
0.097608 -0.198018 -0.440030
0.131863 0.349616 -0.390674
-0.098877 0.217640 0.111719
0.080250 -0.128891 -0.492670
0.091667 0.365983 -0.248702
0.330514 -0.105287 0.382247
-0.113750 0.304477 -0.005530
-0.020759 0.274094 0.079320
0.375090 -0.212251 0.413817
0.237319 0.212744 0.189209
-0.021788 0.375143 -0.316433
0.488769 0.090895 0.030522
0.413036 0.073379 -0.302882
0.187797 0.344981 -0.324959
0.099448 0.048779 0.320357
0.163154 -0.174740 -0.114097
0.282979 0.330987 -0.261633
0.403255 0.166076 0.287372
0.437342 0.141883 -0.203878
0.235263 -0.143045 -0.110239
-0.125682 -0.192936 -0.097281
0.361934 -0.270134 0.288756
-0.290249 0.208884 0.033077
0.227373 0.346783 -0.238100
0.282591 -0.281799 0.295385
0.129229 0.206737 0.138466
0.143723 0.088313 0.318292
-0.104533 0.384343 -0.222520
-0.319284 0.264031 -0.093506
0.482280 0.157490 0.181334
0.061395 0.375371 -0.110638
0.415143 0.151569 -0.259630
0.380021 -0.230435 0.281841
0.127749 0.360035 -0.277522
-0.301441 0.274788 -0.363242
-0.095754 -0.146951 -0.481406
0.420261 -0.112855 0.360446
-0.347341 0.264748 -0.233142
-0.097622 0.380381 -0.176194
0.391298 -0.048072 -0.208960
-0.016161 0.070428 -0.491535
-0.186227 0.293833 -0.474222
0.204123 0.152735 0.288819
0.163665 0.075037 0.138609
-0.409296 0.079556 -0.104554
0.272684 -0.147950 0.367733
0.056962 -0.218718 -0.341618
0.314329 0.275363 -0.442079
-0.030972 0.363631 -0.399669
0.214811 -0.027820 0.156406
0.074186 0.278761 -0.486883
0.483469 0.215240 0.005400
-0.495803 0.102650 -0.328651
0.388711 -0.067755 -0.077940
-0.039952 0.078468 0.138204
0.349266 -0.057876 0.092753
-0.054726 0.374827 -0.128327
-0.114461 -0.217872 -0.235057
-0.286617 0.305930 -0.180522
0.086960 0.347421 0.010949
0.131416 0.351804 0.022818
0.350160 0.262617 -0.355498
0.285168 0.172497 -0.489663
-0.084387 0.161555 0.134878
0.435891 -0.039997 0.168462
-0.000654 -0.050012 0.105783
-0.164829 -0.139953 -0.467384
0.007242 -0.092764 -0.491952
0.333208 -0.332992 0.309409
-0.464910 0.152987 -0.376679
-0.079068 0.380361 -0.171672
-0.083218 0.052506 -0.490763
0.292434 -0.095124 0.021853
0.387153 0.167579 -0.327532
0.162284 -0.036076 0.189006
0.159139 -0.180987 -0.258323
-0.274145 -0.072759 -0.455112
-0.036557 0.382908 -0.215168
0.467422 0.199426 -0.066906
-0.331580 -0.040717 -0.020640
0.319115 0.279735 -0.420124
0.117343 0.157593 0.138515
-0.485678 0.048212 -0.338063
-0.049936 0.384127 -0.199316
0.297573 -0.155158 0.200181
0.417116 -0.203942 0.356501
0.044512 -0.164652 -0.035160
0.256469 -0.004953 0.283425
-0.248141 0.329550 -0.239006
0.323641 0.091715 0.320647
0.469692 0.039215 0.022945
0.307510 0.267602 -0.473820
0.244026 0.322694 -0.398905
-0.218092 0.311233 -0.392529
0.326366 -0.102074 -0.238889
0.012417 0.208708 -0.489397
0.473733 0.046638 0.107701
-0.116596 0.377522 -0.275568
-0.211623 -0.183094 -0.269430
0.030749 -0.134586 0.338501
0.108166 0.060769 -0.493004
-0.103989 0.051970 0.137259
0.403655 -0.256925 0.382466
0.092086 -0.213242 -0.221592
0.247509 -0.143189 -0.163715
0.086299 -0.084418 -0.492855
0.206665 0.333636 -0.380482
0.337136 0.278285 -0.370835
-0.336687 0.269826 -0.173632
0.300385 0.358292 0.049911
0.258408 -0.093913 -0.462675
0.490187 0.178173 0.035224
0.098242 0.322931 0.056001
-0.259810 -0.084449 -0.002177
-0.100402 -0.198522 -0.353909
-0.058877 0.154445 -0.489660
0.300430 -0.344708 0.438160
-0.385056 -0.029551 -0.401661
0.374112 0.339881 0.151973
0.243424 0.350435 -0.179673
0.019453 0.377095 -0.204356
0.186904 0.327901 -0.462259
-0.162507 0.307935 -0.456965
0.168483 0.143814 0.213472
-0.071657 0.115328 -0.490399
0.310305 -0.059569 0.118488
0.324475 0.256495 -0.438338
-0.028618 -0.077561 0.347216
-0.056746 0.133882 -0.490177
-0.232041 0.020455 0.103968
0.484178 0.275668 0.092368
-0.018780 0.050927 0.137892
-0.346646 -0.092840 -0.236857
0.143079 0.218157 -0.490140
0.172535 -0.075191 0.093263
-0.395642 0.182122 -0.127114
-0.159299 0.088906 -0.489643
0.262236 -0.099112 0.248948
0.100257 -0.046189 0.118240
0.410994 -0.139936 0.238769
0.444173 0.320867 0.129059
-0.051160 -0.235210 -0.200648
0.394301 -0.300631 0.418812
0.366552 0.064928 -0.449682
0.365776 -0.088390 -0.138026
0.210201 -0.157604 -0.139604
0.341195 -0.239031 0.424008
-0.479696 0.122580 -0.245773
0.431374 0.031976 0.316460
0.211901 0.036309 0.351465
-0.003660 0.111958 0.138341
-0.329263 0.277236 -0.222788
0.455545 0.015588 -0.026051
0.017090 -0.017640 -0.492002
0.348949 -0.153857 0.197484
0.393462 -0.059054 -0.169920
-0.190704 0.081757 -0.488875
-0.181327 0.065934 -0.489065
0.215193 0.361065 -0.088175
-0.145426 -0.091905 0.053823
0.482882 0.166474 0.153949
0.328604 0.346324 -0.056184
0.120954 0.349698 -0.410013
-0.322411 0.195009 -0.454771
0.264756 0.303550 -0.476639
0.175267 0.367417 -0.033846
-0.146516 0.178967 -0.487809
0.150889 -0.045619 0.201508
0.029504 -0.135142 0.339510
-0.005721 -0.158546 0.387737
-0.302044 0.245525 -0.031493
0.021469 0.377669 -0.190756
-0.029438 0.378674 -0.150588
0.488255 0.088926 0.116937
0.256856 0.317652 -0.415431
-0.412687 0.034621 -0.120182
-0.071838 0.090987 -0.490863
0.400626 -0.067694 0.163439
-0.320622 -0.112576 -0.245120
0.448922 0.072012 0.292957
0.075651 -0.182559 -0.060010
0.296342 0.218889 0.277984
0.419856 0.092179 0.303873
-0.130567 0.318004 -0.454410
-0.133191 0.376842 -0.234296
0.265755 -0.153151 0.243543
-0.086361 0.123728 0.138201
0.294642 -0.138205 0.191385
0.336738 -0.090547 -0.248767
-0.268143 -0.121760 -0.081451
0.349653 0.340112 -0.066940
-0.371493 -0.018347 -0.077117
-0.345959 0.232923 -0.410180
-0.392213 -0.035545 -0.157025
-0.143890 0.186905 -0.487660
-0.171453 0.349445 -0.110864
0.452798 0.176371 0.261332
-0.105109 0.038960 0.135315
-0.351001 -0.082591 -0.338371
0.206067 -0.139038 -0.019605
0.454446 0.300937 0.138309
-0.278257 0.135333 0.079488
-0.100798 -0.087501 0.062393
0.412255 0.080573 0.310615
-0.210022 0.274787 -0.001465
-0.261463 0.299899 -0.079233
-0.196710 0.142461 -0.487418
0.155868 0.112576 0.138597
-0.382677 0.037338 -0.056440
-0.157421 -0.079412 -0.488870
0.356275 0.272791 0.244808
-0.175985 0.354486 -0.310339
0.050510 -0.131252 0.336553
-0.285268 0.295816 -0.308787
-0.202265 -0.151437 -0.414764
0.417670 0.049128 -0.285326
0.163248 0.361124 -0.189396
0.457683 0.250747 -0.050874
0.405067 -0.157727 0.247669
0.469646 0.060101 -0.078461
-0.010630 0.371897 -0.099645
0.207154 -0.161232 -0.198886
0.158407 -0.159475 -0.490780
-0.154770 0.231564 0.085495
0.116100 0.067750 0.309158
0.448683 -0.056592 0.265018
-0.189381 0.346850 -0.118318
-0.043214 -0.233103 -0.238005
0.267604 0.314000 -0.424736
-0.034740 -0.220392 -0.115856
0.036018 -0.156238 -0.491969
0.265689 -0.133622 -0.145658
-0.198350 0.173644 0.113237
0.294227 0.219179 0.277706
-0.243620 0.054083 -0.487405
0.144294 0.037749 -0.493448
-0.268320 0.309072 -0.289507
-0.350342 0.255638 -0.319933
-0.037856 0.357151 -0.419366
0.420705 -0.177328 0.365125
-0.342428 0.196127 -0.029808
0.079919 -0.139360 0.001121
0.427367 0.103130 0.297365
0.098504 0.370019 -0.167528
-0.382882 0.008815 -0.432790
0.367628 0.186770 -0.369835
-0.316686 0.075731 0.046848
0.387265 -0.205093 0.265977
0.262505 0.028713 0.322655
0.157238 0.341381 0.051469
0.188662 0.255291 0.138484
0.317146 0.277919 -0.429188
-0.346471 0.217259 -0.427303
0.153663 -0.027152 0.404990
0.226597 -0.150999 -0.145914
-0.348252 -0.077709 -0.364926
0.479948 0.243481 0.121847
0.419997 0.138217 -0.254527
0.280258 0.137378 -0.491170
-0.101525 0.121617 -0.489818
0.463642 0.270472 -0.013646
-0.123237 0.083033 -0.490266
0.236475 -0.114591 0.027124
-0.035479 -0.125604 0.016419
0.465361 0.087077 -0.134925
0.256906 -0.134628 -0.118497
0.078631 -0.162981 -0.031717
0.259833 0.033966 -0.493704
-0.432216 0.169955 -0.191982
0.318963 0.168843 0.296549
-0.244453 0.211742 0.068785
0.090740 0.356611 -0.403192
-0.261497 0.319192 -0.148655
0.273212 -0.251611 0.307886
0.462571 0.306215 0.052153
0.015218 -0.165063 -0.036696
0.060743 -0.222500 -0.320065
0.291727 0.356654 0.063095
0.384036 0.350702 0.083486
0.142599 0.265548 -0.487539
0.469817 0.037133 0.093166
0.285682 -0.121979 0.374187
0.407019 0.154626 -0.280342
0.006332 -0.174109 -0.469811
0.311728 -0.373961 0.375310
-0.274709 0.144459 0.080572
-0.267265 0.200862 0.060241
-0.371018 0.244685 -0.312837
-0.420140 0.208845 -0.234979
0.087517 -0.212141 -0.302355
-0.019482 0.067566 0.138173
0.434782 0.196920 -0.165671
0.060671 0.362414 -0.369585
-0.157485 0.150775 0.129762
0.087855 0.187426 -0.490952
0.368100 0.346027 0.013851
0.174778 -0.113854 -0.492778
-0.099702 0.360452 -0.092939
-0.017522 -0.087316 0.068880
-0.138935 -0.165893 -0.422419
0.143387 0.338628 -0.456821
-0.003273 0.326221 0.007501
0.415895 0.346508 0.115782
0.318020 -0.110877 -0.183295
0.179653 0.193722 0.138590
-0.026505 0.179313 -0.489541
0.106935 0.340563 0.031091
0.477204 0.181924 0.211281
0.190249 -0.101996 -0.492852
0.424101 0.253015 -0.148246
0.271001 -0.215575 0.320827
0.430794 0.274129 0.212867
0.025367 -0.044020 0.391530
0.079512 0.368471 -0.230884
0.136352 -0.021255 0.414956
-0.237732 -0.039551 0.066674
0.191698 -0.032863 -0.493299
-0.066430 0.020490 0.133569
0.285820 -0.123246 -0.132122
0.140887 -0.000349 0.405175
-0.078925 0.063810 0.137654
0.379006 -0.030716 0.355902
0.257576 0.334184 0.106183
0.334020 -0.349577 0.455042
-0.149568 -0.013037 -0.489410
0.379420 -0.263603 0.326245
-0.019495 -0.060115 0.096035
0.193124 -0.156186 -0.434451
-0.385646 0.097314 -0.060932
-0.298700 0.287466 -0.111671
-0.189150 -0.163359 -0.087316
-0.277804 0.309065 -0.152073
-0.395960 0.067982 -0.079123
-0.280463 0.075368 0.080287
0.208087 0.287692 -0.486257
0.114552 -0.159278 -0.025787
-0.488083 0.093540 -0.354792
0.132154 0.362894 -0.220876
0.345366 0.343345 0.129380
0.352045 0.276960 -0.330288
0.413735 0.159343 -0.258648
0.139303 -0.140919 0.000912
-0.152438 0.022287 -0.489549
-0.460893 0.008056 -0.287367
-0.040056 0.270569 0.076494
0.273925 0.137319 0.299868
0.380444 -0.227449 0.416577
0.320400 -0.239257 0.242374
0.085807 0.050500 0.278774
0.430414 -0.133058 0.280994
-0.460601 0.015307 -0.361403
0.282017 -0.010664 0.344023
0.356416 -0.049627 -0.325730
0.246849 0.063249 0.317613
0.351869 0.098304 -0.469569
0.419034 -0.050479 0.346117
0.044076 0.213737 0.135851
0.006707 0.357858 -0.042861
0.269134 -0.082637 -0.470668
-0.334358 0.271906 -0.279655
-0.148684 -0.155713 -0.440643
-0.277717 0.204687 -0.471799
0.138815 -0.182934 -0.447711
0.267072 0.226577 0.259584
0.361026 0.173621 -0.396529
0.103151 -0.187156 -0.078505
0.425414 -0.027286 0.335698
-0.251242 0.111499 0.099698
0.274112 0.068750 -0.493607
-0.030702 0.374104 -0.333776
0.351790 -0.169533 0.402147
0.319658 0.128324 0.309226
-0.221232 -0.127102 -0.045309
0.025670 0.364630 -0.400820
0.160768 0.101868 0.321724
0.203408 -0.153718 -0.410570
0.395189 0.329698 -0.024301
0.289829 -0.297279 0.297330
0.409212 -0.152686 0.251709
-0.310312 0.183384 -0.463643
0.361560 0.086429 -0.450054
-0.002310 0.379636 -0.204018
-0.258078 -0.042383 0.052118
0.378993 0.107026 0.312669
0.264803 0.341347 0.098036
0.350136 0.204457 -0.407423
0.412374 0.166174 -0.257962
0.167855 -0.047489 0.123532
0.494164 0.176996 0.058739
0.383222 -0.039922 -0.261079
0.482587 0.227352 0.004193
0.341058 -0.182239 0.406231
-0.320903 0.103092 -0.476533
0.156886 0.363004 -0.006346
0.181206 0.097746 0.349702
-0.078200 0.211919 0.120268
-0.484019 0.126939 -0.356239
-0.339580 0.254820 -0.118963
0.437601 0.230140 -0.128297
0.053660 -0.070413 0.092449
-0.193102 -0.187354 -0.156173
0.105445 0.348451 -0.448347
-0.135820 0.086818 0.137611
0.138083 -0.012816 -0.493389
0.114621 0.347398 -0.439891
0.428473 -0.102479 0.349408
0.262684 -0.105781 0.249258
0.065961 -0.180956 -0.057090
0.174924 -0.097007 0.063052
-0.034405 -0.150656 -0.489073
-0.118771 0.275730 0.035583
-0.180516 0.187133 0.111899
0.062966 -0.223704 -0.291846
0.103312 0.023087 0.138348
-0.306743 0.203521 0.020756
0.296729 -0.113450 -0.091479
-0.415057 0.008621 -0.150753
-0.292344 0.296358 -0.281193
0.228301 -0.151298 -0.204348
0.457936 0.045375 0.288336
0.119709 -0.095329 0.267583
0.264870 -0.143741 0.224314
0.478056 0.112386 0.239531
-0.071774 -0.196052 -0.083983
0.448428 0.099895 -0.188486
-0.366048 -0.048426 -0.107205
0.391933 -0.172436 0.395157
0.471627 0.115772 -0.093730
-0.268721 0.240012 0.013314
0.461064 0.220234 -0.067537
0.335999 -0.073925 0.037003
0.379300 0.177909 -0.342899
-0.328216 0.277248 -0.205548
0.353379 -0.168316 0.206071
0.282299 0.213665 0.278669
-0.396500 0.090008 -0.080781
-0.127521 0.075542 0.137484
0.257371 -0.019106 0.280715
-0.426519 -0.028187 -0.281007
0.215497 -0.141888 -0.055232
-0.125252 -0.064178 -0.489629
0.053655 0.376494 -0.129901
0.240064 0.208797 0.211238
0.000259 -0.232494 -0.138464
-0.061104 -0.177693 -0.056745
0.149122 0.120588 0.233484
0.054632 0.260927 0.119175
0.418600 -0.100663 0.204543
0.352568 0.046837 -0.483663
0.454516 0.185084 0.255679
0.036691 -0.049792 0.431358
0.323153 -0.349906 0.317843
0.423737 0.170489 -0.221313
0.284005 0.226888 0.271007
0.387265 0.320921 -0.089814
-0.268501 -0.101641 -0.427641
0.330349 0.190311 -0.471491
-0.114364 -0.213426 -0.268045
-0.447424 0.043449 -0.402304
-0.160791 0.058871 0.134312
0.272031 -0.128743 -0.267296
0.112766 0.088596 0.138528
0.073682 0.101802 0.138466
0.209549 0.345055 0.067924
0.139708 0.094337 0.294063
0.182965 0.347343 -0.315053
0.342299 0.085962 0.322119
0.173925 0.354964 -0.265059
0.471589 0.119357 -0.092945
0.297223 -0.060158 -0.467298
0.385244 0.351367 0.094013
-0.256306 -0.149829 -0.143179
-0.330101 0.191378 -0.452187
0.478660 0.288679 0.058808
0.033994 -0.004604 0.292573
0.414900 0.345468 0.124310
-0.188030 0.339546 -0.353147
0.331706 -0.346736 0.336099
-0.235683 -0.027951 -0.485388
-0.170186 0.156274 0.126854
0.329668 -0.077271 0.033371
0.354024 -0.346534 0.425296
0.141241 0.100801 0.138575
0.491320 0.092717 0.103374
0.103488 0.315742 0.069020
0.127734 0.056366 -0.493237
0.021877 0.056182 -0.491994
0.313519 -0.169235 0.205494
0.158907 0.368736 -0.057887
0.015132 -0.115801 0.492615
0.383868 0.116893 -0.368665
-0.339081 -0.098815 -0.234152
-0.057489 -0.093004 -0.490884
0.099967 -0.208059 -0.261615
0.273157 -0.131105 -0.153424
0.311956 0.183042 0.291651
0.373992 -0.082854 -0.157875
0.404544 -0.226256 0.341326
-0.257168 0.325995 -0.224322
-0.200633 0.202647 0.096230
0.022228 -0.150203 0.393896
0.276072 -0.049665 0.146110
-0.294962 0.261195 -0.048119
-0.062416 0.301215 -0.485589
-0.306891 -0.068494 -0.432315
0.065307 0.224365 -0.489517
-0.340009 0.218106 -0.056875
-0.347586 0.252576 -0.136938
0.039616 0.092025 0.138410
0.302185 0.358138 0.034783
0.247070 -0.131814 -0.364653
0.147079 -0.188644 -0.204106
-0.033885 -0.194023 -0.401717
-0.309370 0.226222 -0.447059
-0.268779 -0.151990 -0.240960
-0.336880 -0.100011 -0.245004
0.358198 -0.269361 0.277740
0.301492 -0.023654 0.353746
0.015024 0.367255 -0.377432
0.429078 0.334566 0.131356
0.476898 0.063632 0.161101
0.333434 -0.084131 -0.014043
-0.220704 0.097020 0.116316
-0.220347 0.291146 -0.448066
-0.260367 0.043206 -0.486230
0.054273 0.325710 0.033125
-0.000993 0.327605 -0.483154
-0.129370 -0.043407 0.098970
0.394649 0.268584 -0.217903
0.324089 -0.292252 0.271161
0.183348 0.124481 0.314443
0.482201 0.252450 0.111412
-0.053461 -0.222860 -0.294488
-0.222955 0.103178 0.115170
-0.213140 -0.003468 -0.487915
0.130051 0.100768 0.242691
0.297943 -0.255448 0.414500
-0.179039 -0.175547 -0.102619
0.140183 -0.092409 0.068292
0.209705 0.358122 -0.148355
-0.057908 0.151259 0.137396
-0.465847 0.035222 -0.243112
0.117799 -0.196168 -0.356401
0.326689 -0.045976 0.138350
0.164129 0.336051 -0.439268
0.170223 -0.173968 -0.307692
0.122818 -0.097269 0.290644
0.371695 0.352123 0.076965
-0.258940 0.267987 -0.449026
-0.055988 -0.213020 -0.107066
0.348235 -0.351023 0.422321
-0.033905 0.375389 -0.128414
0.271108 -0.217457 0.319564
0.316795 -0.111619 -0.172125
0.478919 0.111666 -0.050920
0.288755 -0.037755 -0.492627
0.021486 0.368674 -0.071838
-0.467661 0.123686 -0.221644
0.195703 0.197940 -0.491197
0.273945 -0.261107 0.315011
0.260835 0.073472 0.310728
0.444667 0.287809 -0.041783
-0.137030 -0.156935 -0.443590
0.393868 -0.207013 0.286216
-0.344566 -0.095787 -0.208112
0.370265 0.019324 0.341424
-0.004082 0.332118 -0.002742
-0.068964 0.285163 0.042375
-0.359811 -0.061126 -0.380831
0.258395 -0.047524 0.220005
-0.026211 0.270284 0.082753
-0.073057 0.025810 -0.490905
0.181257 0.108617 0.341196
-0.052512 -0.231855 -0.231624
-0.125710 -0.209987 -0.274864
-0.052732 -0.110289 -0.490886
0.395852 0.262777 0.245614
-0.102823 -0.220931 -0.230913
0.288100 0.233645 0.266857
0.350902 -0.072370 0.009173
-0.336660 0.028236 0.016001
0.136987 0.014507 0.138458
0.352537 0.010507 -0.482336
0.432837 -0.021528 -0.114168
-0.021382 -0.122515 0.444598
0.192385 0.360006 -0.150820
-0.361850 0.245654 -0.338793
0.073655 0.371681 -0.082522
0.127794 -0.074994 -0.493050
-0.182758 0.068051 -0.489038
0.414700 -0.211152 0.350046
0.284732 -0.170688 0.385679
0.384236 0.179536 -0.328116
-0.119425 0.315923 -0.466588
-0.488213 0.054408 -0.277478
0.282289 -0.124849 -0.132454
-0.377280 0.036807 -0.045494
-0.427262 0.167750 -0.177074
0.352820 0.148382 -0.435321
0.164957 0.137389 0.224658
0.101399 -0.172033 -0.491712
0.410612 0.005590 -0.268095
0.175650 0.061360 -0.493793
-0.199865 -0.107883 -0.481577
0.330632 -0.076584 0.034878
-0.386121 0.046382 -0.060794
0.265488 0.323312 -0.354657
0.259147 0.235038 0.185631
0.003378 0.318865 0.022099
-0.221129 -0.178592 -0.231300
0.077910 -0.030364 -0.492727
-0.029935 0.118517 0.138297
-0.026917 -0.170068 -0.463860
0.358689 -0.319048 0.351962
-0.325431 0.146770 -0.466530
-0.176025 0.322058 -0.412942
-0.237555 -0.167822 -0.317724
0.236917 -0.068516 0.104650
-0.273485 -0.099034 -0.425832
-0.275480 -0.060523 -0.461352
0.267103 0.239594 0.210041
0.417726 -0.200793 0.355314
-0.009913 0.374323 -0.307330
0.103327 0.010761 0.138136
-0.045573 -0.224438 -0.293384
-0.200648 0.318789 -0.067858
0.052190 -0.031633 0.419659
0.379675 0.117490 0.309276
-0.415253 -0.032656 -0.239072
-0.211813 0.303243 -0.045079
0.348741 -0.324825 0.335750
-0.038351 -0.234292 -0.150951
0.397729 0.262357 0.245038
0.400139 -0.194432 0.396210
-0.277642 -0.120764 -0.384353
0.408397 -0.041897 -0.163798
0.269217 0.317657 -0.392736
-0.025745 -0.113640 0.421217
0.164154 0.031959 -0.493676
-0.053108 -0.093540 -0.490973
-0.103589 0.373052 -0.310877
0.438992 0.182526 -0.165794
0.435471 0.226999 -0.137343
-0.297217 0.031589 -0.478877
-0.088976 0.253155 0.081679
0.179279 0.152022 -0.493142
0.206149 0.263295 -0.487599
-0.120410 -0.217479 -0.227688
0.401652 0.133985 -0.308320
0.366641 0.194979 0.286094
0.266937 -0.169710 0.248918
0.066020 0.345826 -0.477623
0.265653 -0.114516 0.343945
-0.234076 0.073221 0.109479
0.365254 0.221346 -0.350029
0.199589 0.362747 0.003363
0.326292 -0.075045 0.372745
-0.358782 0.202683 -0.074922
-0.458621 0.180370 -0.349906
-0.328717 0.252197 -0.087196
-0.246293 -0.116238 -0.431326
0.437033 0.177040 -0.176386
0.328078 -0.059684 0.112756
-0.371542 0.100552 -0.034478
-0.133005 0.054794 -0.490140
-0.039289 0.362023 -0.072738
0.345777 0.278153 -0.346148
-0.108879 -0.079098 0.070827
0.003181 -0.050413 0.357905
0.353219 0.060862 -0.482343
0.408948 0.132246 -0.289085
0.175364 0.142290 0.138619
-0.478645 0.095304 -0.374258
0.209519 0.089756 -0.494071
0.131419 -0.142950 -0.492604
0.170568 0.067364 0.365992
