ply
format ascii 1.0
element vertex 1693
property float x
property float y
property float z
end_header
-0.399132 0.191925 -0.150720
-0.463346 0.101808 -0.396430
-0.352787 0.261689 -0.254597
-0.011032 0.010146 -0.491648
-0.181460 -0.073709 -0.488394
-0.241350 -0.154556 -0.373247
0.015158 0.370537 -0.085345
0.159417 -0.177615 -0.341566
0.422916 0.059278 0.138643
0.419286 0.177154 -0.228712
0.254459 0.348969 -0.171083
0.491268 0.120276 0.122621
0.373140 0.301744 -0.211243
0.255925 0.194061 0.155415
-0.261139 -0.150701 -0.162981
0.328250 0.146507 0.303384
-0.067867 -0.222452 -0.128950
-0.384377 -0.000747 -0.087208
0.017111 0.213755 0.133120
0.049145 0.124745 0.138422
0.368215 0.339308 -0.039199
0.068352 -0.182364 -0.479278
0.326529 -0.361399 0.370162
0.299537 0.085464 0.138643
0.136686 0.367948 -0.044711
0.082203 0.310792 0.067499
0.049158 0.145015 -0.491449
-0.300591 0.286342 -0.311489
-0.358901 0.100627 -0.011901
-0.057737 -0.093233 0.059474
0.486605 0.195772 0.122940
-0.176360 0.017089 0.123509
0.349715 0.288258 0.138643
0.188056 -0.059456 0.114392
0.169642 0.092725 0.353323
0.137657 0.225567 -0.489739
-0.075425 0.044007 -0.490862
0.372545 0.182381 0.138643
0.329242 0.354017 0.087504
-0.032384 0.268419 -0.486980
0.016011 0.369959 -0.330388
0.386708 -0.011776 -0.323280
0.257012 -0.035692 0.178123
-0.299208 0.009301 -0.473890
0.300828 0.296757 -0.426719
0.360181 0.079596 0.138643
0.456664 0.273503 -0.030308
0.262567 -0.066510 0.337014
-0.031847 0.379911 -0.256146
-0.303845 -0.104617 -0.094091
-0.398143 0.221997 -0.204959
-0.336213 -0.061526 -0.056834
0.259920 -0.069282 0.225529
0.486229 0.130184 0.148952
0.051475 0.374100 -0.103575
-0.358028 0.173417 -0.033641
-0.014525 0.086127 -0.491541
0.114002 0.064929 0.208232
0.113784 0.083583 0.251503
0.094603 0.063104 0.262632
0.255925 0.045907 0.154736
-0.457043 0.185522 -0.343209
0.422857 0.156286 -0.235158
0.417540 -0.039155 -0.086235
0.043939 0.016307 0.137777
0.195934 -0.163713 -0.137514
0.031077 -0.239875 -0.220471
0.107508 -0.027685 0.431304
0.007326 -0.042713 0.348107
0.425184 -0.133350 0.358769
0.421102 0.322785 0.138643
0.380664 -0.077978 -0.136327
0.140964 0.288117 0.121421
0.281681 0.189380 0.138643
0.425076 -0.091251 0.208727
0.255925 0.084598 0.174832
0.255925 0.218984 0.150846
0.088288 0.011044 -0.492813
0.242996 0.360647 -0.040475
0.216104 0.291489 0.135117
-0.342644 0.183644 -0.013052
-0.057676 -0.224059 -0.128247
0.255925 0.041209 0.142762
0.438545 0.078577 0.299578
0.026693 -0.217580 -0.349903
0.480979 0.076056 0.136571
0.358974 0.218259 0.138643
-0.385820 0.049460 -0.060114
-0.040059 0.341492 -0.034026
0.368409 -0.068581 -0.225984
-0.023072 0.219925 -0.488627
0.168816 0.119469 0.294890
0.464367 0.040131 -0.064074
0.255788 0.335714 0.103130
-0.018903 0.180358 0.136232
-0.213734 0.323018 -0.086357
0.391668 -0.066454 -0.107091
0.004229 -0.193270 -0.076219
-0.479624 0.028621 -0.289727
0.457628 0.308319 0.111694
0.003383 0.301857 -0.485685
0.285885 -0.071912 -0.459417
0.301867 0.032147 0.337175
-0.465370 0.163001 -0.363749
-0.241095 0.335964 -0.225696
0.390872 0.040540 -0.371298
0.266975 0.025373 0.138643
0.075438 -0.038286 0.248083
-0.096958 0.052419 0.137320
0.101594 0.074962 0.138507
0.394439 0.108240 0.138643
0.339045 -0.059271 0.106073
0.067514 0.370882 -0.214027
0.047108 0.358652 -0.459404
0.305485 0.291209 0.141852
0.177398 0.330465 -0.459311
0.374342 -0.236402 0.275000
-0.496168 0.087918 -0.329888
0.254353 0.360683 -0.017516
-0.496419 0.113360 -0.320513
-0.065639 0.216003 0.120524
0.127048 -0.194143 -0.299258
0.070773 0.117108 -0.492423
0.233095 -0.143321 -0.352473
-0.376695 0.106627 -0.045282
-0.152892 -0.110547 0.026807
-0.170628 0.146774 -0.488090
0.267042 0.177725 -0.490482
-0.060332 -0.164115 -0.462053
0.284800 -0.375985 0.372038
-0.090633 0.380190 -0.269974
0.181164 -0.173736 -0.176990
0.413550 0.169237 -0.252185
0.498259 0.136332 0.073626
0.176723 0.071640 0.361454
-0.183459 0.350119 -0.314043
-0.046964 -0.149766 0.382171
0.295607 0.320498 0.136143
0.107884 -0.157157 -0.022667
-0.325872 0.007039 -0.463608
0.425980 0.020422 0.138643
-0.088159 0.185024 0.129110
-0.404009 0.183139 -0.411858
0.360214 -0.091450 -0.151435
0.006194 -0.084886 0.446753
0.466676 0.138565 -0.114962
0.017993 0.305763 0.048019
-0.269380 -0.138778 -0.363754
-0.369111 0.246369 -0.309541
-0.366689 0.252194 -0.268958
-0.032039 -0.100025 0.052045
-0.015399 -0.121733 0.343323
0.260805 -0.105495 -0.415846
-0.106305 -0.074154 -0.489969
0.027448 -0.054406 0.422543
0.018305 -0.127263 0.332083
-0.173841 0.343629 -0.359050
0.190125 0.053589 0.360765
0.278196 -0.317795 0.348909
0.416999 0.233561 -0.186261
0.450039 0.220886 -0.099584
0.359934 0.187888 0.289062
-0.058686 -0.093817 0.058775
-0.193961 -0.084890 0.048390
0.235276 0.103250 0.138677
-0.138894 0.376230 -0.195784
-0.263069 -0.147302 -0.150975
-0.451783 0.097453 -0.186596
0.255925 0.196742 0.157243
-0.394499 0.110827 -0.443705
0.098509 -0.208450 -0.268773
-0.470073 0.039762 -0.372479
0.410116 0.288250 0.215171
0.267629 -0.178465 0.256902
0.299643 0.343092 -0.134943
0.273640 -0.253264 0.330226
0.216968 0.095305 0.138677
-0.479299 0.148955 -0.267255
-0.465486 0.157428 -0.248672
0.077703 0.368654 -0.231367
0.270043 -0.198517 0.333176
0.453886 0.009722 0.009415
0.029236 -0.198046 -0.082027
0.393162 0.252957 0.138643
-0.179069 -0.024641 0.102007
-0.355126 0.245164 -0.139176
0.430572 -0.024578 -0.081789
-0.011985 -0.234545 -0.141188
0.038755 -0.147440 -0.492350
0.070429 -0.192693 -0.076238
-0.125310 -0.112216 0.032048
-0.273983 0.129551 -0.483736
0.046408 -0.065018 0.097709
-0.058267 0.383890 -0.192458
0.395271 -0.062139 -0.089953
0.401976 0.194831 0.138643
0.386193 -0.198688 0.254238
0.119138 0.093080 0.235411
0.435732 0.007194 -0.179779
0.363765 0.115084 -0.425829
0.238654 -0.132350 -0.387034
-0.217220 -0.144470 -0.073396
-0.367904 -0.061766 -0.142247
0.433410 0.029893 -0.222621
-0.414870 -0.036596 -0.258190
0.346522 0.010818 0.138643
0.061819 -0.222019 -0.321526
0.112515 -0.101977 0.309976
0.170203 0.367612 -0.066835
0.408842 -0.202993 0.320500
0.004212 0.318828 -0.484267
0.441187 0.216945 -0.129220
0.441230 0.250110 -0.100108
0.284800 -0.267962 0.403494
0.044011 -0.235285 -0.203393
0.345688 -0.042513 0.138643
0.334730 -0.100318 -0.120653
0.319992 -0.098555 0.379355
0.262736 0.313934 0.132989
0.178320 -0.168096 -0.362849
0.006195 0.130379 0.138350
0.125300 -0.191023 -0.399605
0.043353 0.004961 -0.492291
-0.013134 -0.235643 -0.260106
0.274913 0.204079 0.138643
0.259847 -0.022125 0.138643
0.255925 0.113565 0.253032
-0.091732 0.026869 -0.490685
-0.383039 0.056416 -0.450188
-0.109290 0.379512 -0.173026
-0.121612 -0.136810 -0.004463
0.299233 0.006285 0.138643
0.466125 0.013868 0.191605
-0.134673 -0.143878 -0.020027
-0.410095 0.033323 -0.428146
-0.284338 0.143183 -0.481131
0.198413 -0.147985 -0.049213
0.372819 -0.050438 0.078906
0.002006 0.185229 0.136789
-0.149127 -0.158390 -0.433993
-0.372237 0.230863 -0.372710
-0.120482 -0.201621 -0.109773
0.043685 0.197493 0.137619
-0.302691 0.296019 -0.229806
0.255925 -0.005305 0.179333
-0.202348 0.324060 -0.377828
0.214430 -0.034372 -0.493283
0.346209 0.041867 0.138643
0.172462 0.005118 0.138561
0.330714 0.320751 -0.239244
-0.272135 -0.149579 -0.240496
0.056612 -0.096029 0.060513
0.088247 -0.215008 -0.221545
0.363802 -0.028395 0.357253
0.102081 -0.069044 0.243823
-0.177276 0.311206 -0.438802
0.249487 -0.110216 -0.432151
-0.402160 -0.045164 -0.229660
0.454901 -0.018279 0.264908
0.053273 -0.047783 0.456690
-0.345577 -0.093640 -0.237435
-0.255764 0.063069 0.096407
0.365236 0.281644 0.138643
0.255925 0.136703 0.157484
0.279161 -0.095311 0.363748
0.476080 0.135729 -0.061381
0.097922 -0.000183 -0.492936
-0.292177 0.302766 -0.199526
-0.217035 0.061816 0.116721
0.000208 -0.083819 -0.491861
0.091090 0.103047 -0.492766
-0.105098 -0.214740 -0.273249
-0.240470 -0.110924 -0.445731
0.057096 0.139842 0.138428
-0.397273 0.000192 -0.117226
-0.302231 0.078226 0.060965
-0.444554 0.099520 -0.173082
-0.168647 0.132623 0.131544
0.236261 -0.117486 0.019739
-0.175651 -0.171586 -0.385720
0.444672 0.073416 -0.201669
0.007424 -0.157794 0.425218
-0.272315 -0.120207 -0.083449
0.206942 0.339196 0.076627
0.110034 -0.167324 -0.038379
0.305928 -0.056842 0.122616
0.064529 0.343422 -0.479769
0.053782 -0.021681 0.397911
0.423022 0.132550 0.138643
0.054776 0.237378 -0.488982
0.442610 0.069236 0.138643
0.147773 0.126503 0.205314
0.260908 -0.089603 0.199327
0.248421 0.360375 0.029017
0.457610 0.013253 0.293485
0.174874 -0.154891 -0.039230
-0.393699 0.064739 -0.074856
-0.052617 0.212413 -0.488380
0.358873 0.029718 0.339348
0.448280 -0.040040 0.301739
0.120044 -0.195600 -0.127875
-0.243859 0.189412 0.083975
-0.039588 0.034803 -0.491291
-0.018590 -0.205334 -0.374593
0.144644 -0.177882 -0.088057
0.103281 0.045191 0.215551
0.329752 0.356124 0.068920
0.091338 0.366907 -0.233857
0.128584 0.365410 -0.185683
0.328503 0.330889 -0.178965
0.423324 0.078875 -0.270152
0.358507 0.189050 -0.393815
-0.112309 0.224061 0.104399
0.371510 0.176793 -0.365313
0.209398 0.356166 -0.181771
0.116498 0.362502 -0.258251
-0.242840 -0.143779 -0.101621
0.340359 -0.061660 0.091898
0.098310 0.335158 0.036430
0.051398 -0.179181 -0.055105
0.125620 -0.194775 -0.137339
0.070095 -0.070026 0.094107
0.150917 -0.180481 -0.368292
0.367933 0.353301 0.094924
0.196126 -0.033805 0.134496
-0.289633 -0.135966 -0.187785
0.036379 -0.029611 0.277143
0.255925 0.029990 0.258892
0.172272 -0.162060 -0.065615
0.128233 0.338887 -0.469538
-0.095414 -0.217911 -0.265580
0.262195 -0.082109 0.318228
0.332180 -0.101546 -0.121555
0.405831 0.273363 -0.179156
-0.166739 -0.159004 -0.421493
-0.044388 0.015351 -0.491251
0.300724 0.063941 0.138643
0.285446 0.108761 0.138643
-0.097110 -0.220192 -0.246248
0.236363 0.153370 -0.493023
0.220582 0.329686 -0.386341
-0.095398 0.380036 -0.269029
-0.492744 0.123181 -0.330548
-0.348359 0.198606 -0.044472
-0.217962 0.348900 -0.189347
-0.027467 0.216158 0.127205
0.255925 0.057277 0.186587
0.474320 0.229488 0.160734
-0.076534 0.195774 -0.488427
-0.218038 0.237456 -0.483379
0.054729 -0.131996 0.379444
-0.251061 0.321062 -0.129678
-0.269493 0.318347 -0.184461
0.365979 0.334376 0.138643
-0.157566 -0.002132 0.120699
0.217242 -0.039992 0.166753
-0.170854 -0.186230 -0.340768
0.356248 0.265205 -0.334423
0.418818 0.103904 -0.279463
0.270564 0.004878 0.333801
0.005923 -0.148946 0.367018
0.356940 0.341922 -0.039211
-0.386811 -0.035259 -0.390328
0.247940 -0.002135 0.290029
0.478503 0.090448 0.138643
0.429612 -0.003573 0.138643
0.364483 -0.084952 -0.188180
0.405867 0.216098 0.138643
0.354758 0.344665 -0.021418
0.036371 0.071220 -0.492151
-0.006600 0.197603 -0.489398
0.453071 0.139953 0.138643
0.420297 0.053952 0.138643
0.133181 -0.136959 0.006209
0.020468 0.098992 -0.491941
0.002707 0.328089 0.006952
-0.190229 0.360525 -0.188600
0.043800 0.377232 -0.149124
-0.076027 -0.226470 -0.233551
0.070510 0.036222 0.259815
0.139030 0.064358 0.138564
-0.091616 -0.191599 -0.081988
0.239276 0.224591 0.154554
-0.198159 -0.050472 0.079496
-0.389430 0.176272 -0.104071
0.282716 0.350374 0.089073
-0.230976 -0.174009 -0.279441
0.217332 0.193932 0.192122
-0.257781 0.099550 0.096478
0.001598 0.226030 0.127821
0.201588 0.363878 -0.067732
0.142085 0.117808 -0.493353
-0.286027 -0.138740 -0.254105
0.135610 -0.187604 -0.366050
-0.479737 0.156078 -0.336898
-0.074946 0.376577 -0.144467
0.333308 0.266936 -0.399270
0.429663 -0.086053 0.345090
0.247981 0.337033 -0.277764
0.255925 0.070033 0.176474
0.203075 -0.050489 0.227539
-0.004052 0.357418 -0.440753
0.288822 -0.115313 0.374341
-0.124860 0.136238 0.135549
0.301420 0.134120 0.138643
0.170691 -0.165126 -0.467938
0.469916 0.067800 0.252228
-0.109927 -0.192299 -0.369065
0.019489 -0.123228 -0.492122
0.393280 -0.040219 0.077295
0.092196 -0.013129 -0.492880
0.413721 0.180680 0.138643
0.452966 0.316462 0.081835
0.367224 -0.055375 -0.271017
0.381986 -0.018036 0.138643
-0.106364 0.284797 0.027173
-0.305356 -0.111828 -0.362421
0.462795 0.204455 -0.076207
0.379491 0.352192 0.095654
0.204182 -0.159639 -0.274805
-0.039643 0.244340 0.107783
0.256996 -0.026587 0.219500
0.165698 0.347783 0.044387
0.369622 0.012576 -0.426747
0.025678 0.059570 -0.492036
-0.299451 0.272339 -0.373799
-0.098113 0.259349 -0.486501
0.234975 -0.098974 0.061432
-0.250567 -0.071219 0.027554
-0.352426 -0.035160 -0.053335
0.334766 -0.129818 0.183403
0.064648 0.039845 0.138340
-0.009221 -0.166680 0.441473
-0.367870 0.138376 -0.035857
-0.017463 -0.134748 0.469671
0.159567 0.364479 -0.016178
-0.175938 -0.192540 -0.137215
0.150034 -0.047904 0.399711
-0.119635 0.117030 0.137936
-0.053167 0.378040 -0.299158
-0.346529 0.231418 -0.092362
0.092858 0.358712 -0.368376
0.329287 -0.052399 0.365704
-0.248032 -0.011687 0.078247
0.292027 -0.183795 0.393243
-0.399422 -0.017931 -0.147655
0.105106 -0.073944 0.428959
0.368172 -0.083221 -0.181353
0.128056 -0.082413 0.359635
-0.177506 -0.073501 -0.488483
0.290622 0.165853 0.138643
0.366610 0.029404 0.138643
0.225342 0.304901 0.130186
-0.082093 -0.167548 -0.444737
-0.236510 0.201825 -0.483727
0.493184 0.130161 0.119630
0.109357 -0.107470 0.046366
0.306891 0.151130 0.138643
0.475572 0.235264 0.137583
0.348439 -0.057467 -0.327341
0.354466 -0.272507 0.272167
-0.196612 0.331864 -0.363204
0.077508 0.164655 -0.491396
-0.194365 0.345745 -0.119950
0.051310 0.375469 -0.168953
-0.355069 0.187842 -0.440535
0.349943 -0.339893 0.375813
0.220019 0.076365 0.138643
0.256390 -0.005450 0.275574
-0.173832 0.291448 -0.478020
0.064627 0.115657 0.138450
-0.129581 0.357476 -0.099722
0.194671 0.363560 -0.003237
-0.347477 0.262478 -0.182270
-0.046582 0.378983 -0.155928
0.304444 0.101886 0.315922
-0.341814 -0.071738 -0.385766
-0.151870 -0.194719 -0.323149
0.443523 -0.003401 -0.080032
-0.008760 -0.128715 0.483867
-0.097786 -0.024781 -0.490427
0.052464 -0.025341 0.404282
0.041098 0.139038 0.138402
0.087773 0.085261 -0.492743
0.360057 0.079949 0.138643
-0.329950 -0.019950 0.000373
0.118840 0.089181 0.247884
0.493229 0.104056 0.050231
0.279983 -0.094964 0.048968
-0.305362 0.261325 -0.395849
0.426928 0.118754 0.138643
-0.290286 0.276736 -0.071796
0.159305 0.210841 -0.490525
-0.066338 0.385354 -0.222944
0.347117 0.073433 -0.484378
-0.047867 0.378743 -0.296772
-0.089994 -0.155472 -0.467864
-0.123302 -0.219193 -0.199626
-0.385948 0.227785 -0.358319
0.107732 0.279307 0.119529
0.146689 -0.181370 -0.395341
0.304708 0.256016 0.246573
0.064331 -0.203224 -0.096159
-0.350959 0.012559 -0.013673
0.405466 -0.061053 0.161744
0.006954 -0.147324 0.363205
0.174645 0.074272 0.147350
-0.029569 -0.172223 0.414832
0.010180 0.378981 -0.190946
0.303114 0.051336 -0.492931
0.385204 -0.037723 0.141424
0.122615 -0.185998 -0.087519
0.255925 0.155127 0.193681
0.459398 0.001411 0.171667
0.323463 0.111356 0.138643
0.350607 0.009561 0.138643
0.058693 0.360767 -0.401115
0.274629 0.032904 0.138643
-0.253936 -0.117269 -0.053173
0.435741 0.145407 0.138643
0.242428 0.350993 -0.177064
-0.407106 0.177963 -0.146899
0.108434 0.139945 0.138511
0.255925 0.084773 0.187605
0.255925 0.060911 0.169049
0.409118 0.066191 -0.314879
-0.410645 0.187870 -0.170783
-0.319602 0.155440 -0.466845
0.301458 0.357666 0.024542
0.075256 0.344408 -0.477313
-0.185250 -0.074475 0.063877
0.345957 0.049531 0.333489
0.015202 0.151022 0.138349
0.258803 -0.053772 0.154829
0.284999 0.169863 0.292668
0.036996 0.369690 -0.294084
0.343963 -0.191183 0.216963
0.476410 0.049451 0.058272
-0.345501 0.260556 -0.153525
-0.123036 -0.155005 -0.454114
0.186026 0.145990 -0.493411
0.336381 -0.314342 0.286367
0.444954 -0.004787 -0.023250
0.394474 0.051712 -0.360582
0.371406 0.343332 -0.001490
0.349479 -0.083500 0.159616
-0.123830 0.316727 -0.028698
-0.184794 0.277835 -0.483708
0.194487 -0.163354 -0.293841
0.459254 -0.014446 0.220495
-0.089943 -0.002822 -0.490715
0.373631 -0.068398 -0.208735
0.229526 -0.093985 -0.491681
-0.336434 0.272914 -0.250876
0.307350 0.095920 -0.491128
-0.459233 0.153598 -0.228299
-0.077346 0.300941 0.015119
0.470437 0.211432 -0.047499
0.097441 0.234367 -0.489296
0.170792 -0.162833 -0.477317
0.419426 0.009074 -0.241540
-0.302556 0.212601 -0.458188
0.311188 0.082665 0.322542
0.177405 -0.159310 -0.062469
0.255925 0.076155 0.184884
0.107101 0.045784 -0.493004
0.204450 0.324970 -0.453370
0.019654 0.354038 -0.468264
0.313832 -0.067813 0.369240
-0.418825 0.214203 -0.268330
0.417075 -0.126137 0.235817
0.346539 0.093705 -0.481969
0.414760 0.047907 -0.294620
0.448064 0.137365 0.138643
0.489913 0.247411 0.081260
0.205941 0.146331 0.138677
0.193081 0.163104 0.223151
-0.304381 -0.058210 -0.006542
0.162175 -0.067787 0.300189
0.195770 -0.040091 -0.493252
-0.132534 0.071259 -0.490167
0.273499 -0.212306 0.373644
0.383987 0.166429 0.138643
0.328426 0.054450 0.138643
-0.185938 0.314985 -0.052630
0.216983 0.184166 -0.491865
-0.179215 0.290634 -0.012285
-0.420660 0.016207 -0.155594
0.369936 -0.060876 0.026126
0.116385 -0.012592 0.210165
0.396606 -0.244205 0.411032
0.221868 0.361415 -0.069154
-0.166641 0.308096 -0.453875
0.172761 0.312271 -0.483929
0.255925 0.087216 0.219191
-0.355644 0.259575 -0.251064
0.485996 0.225775 0.023535
0.411021 -0.043274 -0.146394
-0.372045 0.237353 -0.168657
0.265632 0.059902 0.317213
0.269907 -0.174073 0.356609
-0.311202 -0.112552 -0.129480
0.133654 0.353702 -0.352840
0.283482 -0.124754 -0.234583
-0.348256 -0.069551 -0.381262
-0.125589 0.379279 -0.214957
0.419496 0.338312 0.138643
0.485527 0.126561 -0.007127
0.055678 -0.013961 0.258916
-0.329015 0.066724 -0.475538
0.362648 -0.059475 0.148370
0.111361 0.370776 -0.129540
-0.443266 0.146297 -0.404932
-0.408944 0.055350 -0.434911
0.310911 -0.113969 0.382633
0.034239 -0.034698 0.387560
0.214955 0.183731 0.219826
0.411770 0.325936 0.138643
0.394781 0.137755 0.138643
0.294926 0.100603 -0.491651
0.453421 0.208953 -0.100008
0.349670 0.353952 0.057086
0.036729 0.033134 -0.492189
0.487894 0.092088 0.021608
0.073382 -0.021576 0.437006
0.499259 0.126010 0.084445
0.417798 -0.163844 0.290042
-0.261227 -0.153907 -0.296316
0.247039 0.353230 -0.146755
-0.159470 0.013387 -0.489352
0.217041 -0.065270 -0.493087
0.475808 0.194752 0.207269
0.395114 0.206478 -0.274680
0.108465 -0.198549 -0.401204
-0.146311 0.276592 0.022687
-0.329577 -0.105172 -0.153820
0.406851 -0.026633 0.345060
0.488813 0.078836 0.065789
0.343975 0.205550 -0.423902
0.085536 0.353743 -0.000273
-0.249864 0.083785 -0.487102
-0.355917 0.184686 -0.441341
0.009503 -0.235018 -0.268925
-0.017767 0.282560 0.067850
-0.129476 0.256552 -0.486222
-0.020177 0.381925 -0.172765
0.021209 0.374812 -0.114167
-0.344364 0.263001 -0.297362
-0.151467 -0.182816 -0.373139
0.196627 -0.024430 -0.493351
-0.500062 0.086221 -0.304999
0.377868 -0.102641 0.176028
0.425526 0.058709 -0.261488
0.413290 0.253399 0.244061
-0.394182 0.199157 -0.150813
0.406328 0.102417 0.138643
0.319958 0.338839 -0.131485
-0.438935 -0.006050 -0.239478
0.291348 -0.074008 0.364892
-0.022245 -0.138030 0.461833
0.321976 0.344687 0.117154
0.116166 0.365356 -0.211016
0.080208 0.108623 0.138476
0.384659 0.102212 -0.375724
0.127585 0.359679 -0.283819
-0.221840 -0.175194 -0.191513
-0.038036 -0.193092 -0.402552
-0.403863 0.063943 -0.094521
0.453746 0.009410 0.010275
0.005534 -0.104246 0.481784
-0.371140 0.223332 -0.396558
0.432319 0.259489 0.224791
0.113519 0.358486 -0.331506
0.266679 0.359581 -0.011766
0.456233 0.018060 -0.038335
-0.321099 0.133484 0.038356
-0.000428 -0.047444 0.315644
0.380314 -0.015155 0.350659
0.373817 0.025983 0.338931
-0.351229 0.206673 -0.063872
-0.208819 -0.146057 -0.070111
0.140691 -0.057414 0.113013
0.404756 0.056662 0.321001
0.320954 -0.070991 0.084764
0.471641 0.067193 -0.073296
0.016011 0.248593 -0.488174
0.166487 0.353336 -0.295637
0.457338 0.022861 0.133290
-0.434508 0.011774 -0.396436
0.055312 -0.095234 0.061573
0.390215 0.222610 -0.275075
0.370418 -0.089381 0.375889
-0.328468 -0.005023 -0.458932
0.450905 0.315967 0.116994
-0.321096 0.000746 0.024485
-0.064965 0.379634 -0.284036
0.055325 -0.219755 -0.133406
0.255925 0.038013 0.159434
0.058265 0.134593 -0.491828
-0.078426 0.219352 -0.487842
-0.367327 -0.017899 -0.066007
0.456589 0.291146 0.148649
0.401409 -0.046133 0.151328
-0.170636 0.247164 0.056694
0.084440 -0.213710 -0.144548
-0.431672 0.004672 -0.198568
0.258342 -0.043662 0.234267
-0.035787 -0.016533 -0.491380
0.108453 0.125740 0.138517
-0.336775 0.110609 0.019719
0.434756 0.328724 0.134512
0.377420 -0.253788 0.425768
-0.451628 0.037279 -0.206666
-0.032999 0.351845 -0.048342
0.372456 -0.180881 0.404695
-0.046739 0.382054 -0.177468
0.393998 -0.270121 0.419363
0.473161 0.298497 0.068856
-0.223308 0.345090 -0.233536
0.461061 0.149484 -0.129188
0.431945 -0.129472 0.323655
0.186330 0.124212 -0.493867
0.325247 -0.074395 0.058960
-0.192329 -0.179984 -0.341953
-0.085088 -0.215771 -0.297624
0.073493 -0.201935 -0.098474
0.202815 0.318890 0.106118
-0.333644 0.144704 0.019428
0.271253 -0.224669 0.296055
-0.157399 -0.202018 -0.270287
0.484774 0.225327 0.115570
-0.226594 0.309283 -0.067008
-0.091898 -0.219155 -0.262119
-0.046179 -0.163039 0.429077
0.138377 0.046864 0.181411
0.192334 -0.044553 0.181454
0.027823 0.362476 -0.432646
-0.003637 -0.072839 0.396183
-0.057391 0.352271 -0.059604
0.350874 -0.079588 -0.031595
0.210327 -0.134428 -0.461424
0.351274 -0.349862 0.450348
0.048896 -0.169856 -0.042241
-0.050139 0.030860 0.136327
0.255925 0.015753 0.179150
0.360816 0.288651 0.227938
0.008265 -0.242348 -0.190922
0.203287 0.153509 -0.493340
0.148662 -0.069366 0.100563
0.142935 0.355965 -0.312104
-0.177250 0.109964 -0.488673
-0.137581 0.370896 -0.302447
0.105758 0.292079 0.105335
0.008618 0.020976 -0.491869
0.479451 0.104327 0.209009
-0.188008 -0.165832 -0.091140
0.279739 0.030058 0.138643
0.352348 0.256760 -0.356498
0.484740 0.229303 0.017074
-0.372908 -0.052502 -0.135294
-0.371237 -0.068952 -0.318540
-0.070826 0.377350 -0.296424
0.307634 0.188693 0.138643
-0.246038 -0.164470 -0.218488
-0.035230 -0.045599 -0.491412
0.392234 0.228157 -0.264254
0.402419 -0.007201 -0.275846
0.012976 0.356815 -0.453419
-0.413448 0.163655 -0.417811
0.225897 -0.017719 0.142326
0.297066 -0.251937 0.413119
0.158687 -0.172065 -0.088661
0.301387 -0.241028 0.248937
0.092928 -0.214052 -0.190877
0.211498 0.314580 -0.478752
0.064617 -0.192599 -0.451541
0.078218 -0.118444 0.359230
0.491824 0.238045 0.069215
-0.089499 -0.007148 -0.490700
-0.132642 -0.206252 -0.129123
0.075799 0.112484 0.138468
0.282028 0.034475 0.138643
-0.330687 0.114431 0.027985
0.479674 0.194403 0.147819
0.168740 0.014963 0.138577
0.397952 -0.060546 -0.124693
0.301571 0.164415 0.296336
0.312659 -0.335044 0.302428
-0.179139 0.245968 -0.485747
0.003156 -0.128123 0.338799
0.398367 -0.203053 0.292699
-0.392920 0.080624 -0.446368
0.441349 -0.078874 0.309321
0.202110 0.336598 -0.365304
-0.126014 0.378508 -0.235816
0.411383 0.028803 -0.299365
-0.285392 -0.031062 0.038817
0.284663 0.357717 -0.007643
-0.455837 0.115218 -0.196666
-0.052130 -0.075142 -0.491097
0.262687 -0.100540 0.273900
0.413826 0.054146 -0.298922
0.302933 0.344074 -0.121116
0.385916 0.096923 -0.375557
0.255925 0.018760 0.301900
0.288952 -0.339456 0.419645
-0.209522 0.347613 -0.157122
0.403438 0.283094 0.224789
-0.333928 0.263712 -0.329213
0.448482 0.223699 0.236599
0.244890 -0.140166 -0.120423
0.058867 -0.128591 0.381931
0.464322 0.014108 0.215247
-0.218207 0.263078 0.012602
0.123402 0.113156 0.138545
0.417021 0.036248 -0.283416
-0.436581 0.158772 -0.402263
0.108555 -0.187210 -0.081980
0.400231 0.137250 -0.310221
-0.440834 0.110235 -0.167350
-0.053875 -0.179641 -0.059211
-0.007167 -0.242520 -0.193362
0.023460 -0.095431 0.488814
-0.036306 0.375605 -0.130372
0.286614 -0.254897 0.269575
0.120370 0.097399 0.138542
0.255925 0.111286 0.170762
-0.467123 0.083234 -0.216184
0.340917 -0.085899 0.160079
0.449401 0.080065 -0.187362
-0.081386 -0.230755 -0.185627
0.157245 0.014536 -0.493575
0.422789 0.198337 -0.199913
0.180341 -0.088597 -0.492949
-0.139661 -0.183050 -0.380433
-0.207257 -0.032801 0.087309
0.166459 -0.021511 0.136378
-0.042798 0.294878 0.038785
-0.002014 -0.197364 -0.406583
0.381436 0.038273 0.333622
0.327785 -0.059435 0.145915
0.290698 -0.058520 0.120299
0.156710 -0.025134 0.186331
-0.170284 -0.152634 -0.434304
0.235449 -0.027386 0.221216
0.150752 -0.187016 -0.202553
0.399442 -0.003163 -0.293560
0.302554 -0.072707 0.368536
-0.277555 0.048137 0.078664
0.223104 -0.030065 0.257600
-0.294912 -0.133719 -0.214612
-0.421174 0.093480 -0.128026
0.132776 -0.189908 -0.340376
0.008831 -0.126118 -0.491999
0.471530 0.277199 0.124533
0.055560 -0.157343 -0.024649
0.209358 -0.132012 -0.472539
0.285236 -0.256607 0.402769
0.449217 -0.061779 0.247030
0.009336 -0.031601 0.324353
0.368292 0.007515 0.138643
0.039404 0.001837 0.302679
0.456054 0.077385 -0.165157
0.261950 -0.065548 -0.491895
-0.148173 -0.073883 0.073121
-0.333437 0.262830 -0.122605
-0.136671 0.337110 -0.068448
-0.219098 -0.151003 -0.088727
0.036901 0.339793 0.002101
0.272843 -0.249412 0.291278
0.256289 0.087889 0.138643
0.061393 -0.221030 -0.140452
0.048581 0.369717 -0.270830
0.257833 0.074196 -0.493839
0.006435 0.343057 -0.016548
0.169618 0.342190 -0.380448
0.418993 0.243801 -0.171411
0.286082 -0.285753 0.407931
-0.270343 0.313071 -0.146617
-0.072330 -0.195918 -0.083837
0.269718 -0.163884 0.360011
-0.063723 0.372127 -0.333110
-0.218665 -0.178614 -0.286489
0.488790 0.080262 0.100857
0.210116 -0.072811 0.097804
0.215056 -0.078990 0.089388
-0.015292 0.215159 -0.488857
-0.112810 -0.222112 -0.198724
-0.024303 0.216667 0.127491
0.430388 0.078938 -0.247922
0.268171 -0.176585 0.304100
-0.216353 0.351776 -0.217047
0.011613 0.095641 -0.491839
0.412838 -0.042753 -0.042334
-0.143890 0.374817 -0.214138
-0.030380 0.359998 -0.414759
-0.448215 -0.010580 -0.316992
0.084350 0.372890 -0.147210
0.171064 0.360239 -0.188864
-0.133092 -0.201486 -0.314820
-0.221404 -0.142281 -0.418090
-0.115838 0.349859 -0.388611
0.255925 0.026883 0.275101
-0.362946 -0.050713 -0.103813
0.140812 0.032478 0.181120
0.084867 0.365156 -0.275964
0.398934 -0.058843 -0.098034
0.228381 0.344181 0.077533
0.085611 -0.115212 0.309525
0.063732 0.370825 -0.078365
0.253456 0.152335 0.290522
0.166592 0.011609 -0.493588
0.271031 0.058171 0.138643
0.185784 -0.086104 0.078548
-0.166109 0.059743 -0.489427
0.073480 -0.118455 0.029933
0.273296 0.358725 -0.013103
0.360864 0.338426 -0.059785
-0.011990 -0.098417 -0.491731
0.096735 -0.025825 -0.492945
-0.302998 0.174710 0.046522
0.257472 -0.023861 0.265635
0.255925 0.187863 0.195400
-0.357369 -0.084598 -0.184603
-0.225270 -0.100612 -0.001286
0.432134 0.232719 0.246277
0.309590 0.087989 0.320736
0.031535 -0.100543 0.053420
-0.237245 -0.170907 -0.284497
0.356619 0.101882 -0.454073
0.470314 0.299409 0.059395
0.473694 0.299474 0.075014
-0.431787 0.027855 -0.169391
0.376956 -0.066896 -0.032088
-0.013012 -0.226150 -0.308766
0.228164 0.022645 0.138677
0.076449 0.355579 -0.441077
0.029819 -0.081663 0.481689
0.422862 -0.164198 0.304045
0.164564 0.348917 -0.336283
0.255925 0.111056 0.206848
-0.363876 -0.008778 -0.049409
0.194137 -0.167095 -0.201988
-0.103367 -0.203313 -0.335407
-0.165208 -0.201005 -0.173202
-0.115059 0.334151 -0.426865
0.491704 0.094671 0.103003
-0.027580 -0.238066 -0.160913
0.381298 -0.245535 0.306184
0.073154 0.048639 -0.492603
-0.283360 -0.030199 -0.470475
0.370917 0.243923 0.138643
-0.013163 0.006758 0.133417
-0.016238 -0.174302 -0.050559
0.176332 -0.005121 0.386890
0.347366 -0.059041 -0.325733
-0.042693 -0.142351 -0.007070
0.451279 0.098677 0.284644
0.440312 -0.082435 0.237102
0.071329 -0.131491 0.011763
0.401088 -0.054481 -0.048950
0.252183 0.136152 0.138643
-0.210242 -0.155239 -0.400632
-0.333230 -0.072826 -0.072914
-0.245380 -0.028770 0.070068
-0.190399 0.358069 -0.166765
0.184943 0.127240 0.310977
-0.485123 0.089945 -0.363272
0.198632 0.303354 0.124670
0.106003 -0.075377 0.426341
0.366770 0.349032 0.035283
0.113840 -0.099175 0.320957
-0.094283 0.131787 0.137637
-0.011997 0.371939 -0.351134
0.234383 0.230386 -0.489377
0.436019 0.302944 -0.031624
-0.312137 0.195528 0.021141
-0.024633 -0.149173 -0.015947
0.292208 0.045128 0.138643
0.120891 0.371542 -0.086957
-0.030172 0.365766 -0.079857
0.127439 0.131211 -0.492911
0.475583 0.054708 0.000083
-0.273831 -0.037914 -0.472203
-0.044371 -0.166625 0.400200
0.368618 -0.249761 0.278292
0.422126 -0.025772 -0.159170
0.264769 0.071403 -0.493740
0.157102 0.332920 0.065606
0.370924 0.053457 0.330526
0.345960 -0.350316 0.405462
-0.037009 -0.166285 -0.040112
0.255925 0.017179 0.184311
0.438370 0.133497 -0.206304
0.089020 -0.092174 -0.492870
0.309992 0.152272 -0.489000
0.165854 -0.050830 0.198416
0.255925 0.139662 0.199253
0.315824 0.290839 0.138643
-0.244012 0.304154 -0.373799
0.334455 0.251949 0.138643
0.403001 0.140873 -0.300217
-0.138662 0.215257 -0.487065
-0.327646 -0.034661 -0.443043
-0.174507 0.278109 0.008532
-0.378146 0.159265 -0.062931
-0.451338 -0.000365 -0.276729
-0.368033 0.236786 -0.154959
0.483645 0.214452 0.006232
0.480006 0.159130 0.138643
-0.126648 -0.209732 -0.275215
0.455023 0.014602 0.121568
0.172531 0.141442 0.234121
-0.360170 0.177623 -0.042274
0.287370 0.337860 -0.198996
0.303494 0.284975 0.163006
-0.000472 -0.184048 -0.063571
0.235693 0.220619 -0.489876
-0.023685 0.306915 -0.485401
-0.259228 -0.151971 -0.341101
-0.289200 0.030228 -0.481179
-0.294487 0.094986 -0.483297
-0.170535 -0.058114 -0.488716
-0.280340 0.039920 0.075197
-0.071585 0.128920 0.138221
-0.101956 0.368066 -0.339344
0.331854 0.054117 0.332331
-0.474219 0.034833 -0.265236
0.404229 -0.190678 0.392033
0.271594 -0.229969 0.295266
0.456438 0.194279 0.138643
-0.483911 0.049397 -0.271651
0.416197 0.009937 0.330088
0.027533 0.366892 -0.359471
-0.116870 0.050515 0.136989
0.259936 -0.050835 0.309224
0.275215 -0.280127 0.314929
0.110418 0.323385 0.060446
-0.370462 0.249617 -0.273018
0.019101 0.329234 -0.483072
0.417263 0.124475 -0.270816
0.390284 0.038723 0.138643
0.482980 0.145878 -0.017128
0.230969 0.216811 -0.490113
0.016226 -0.018018 -0.491992
0.404258 0.020729 -0.314030
0.271994 -0.217438 0.355389
0.114996 -0.151472 -0.014540
0.230301 0.323325 -0.419052
0.405794 0.128550 -0.300206
0.071378 0.356887 -0.436517
-0.487777 0.063915 -0.264167
-0.026940 -0.135985 0.002287
0.333647 -0.060807 -0.360195
0.258576 -0.105894 -0.420887
0.190729 0.227482 0.138547
-0.021203 0.260107 0.099139
0.302051 0.038683 0.335177
-0.387249 0.174944 -0.428024
0.189741 0.332626 0.079919
0.355115 -0.345004 0.452150
-0.361843 0.199246 -0.076510
0.457185 0.013020 0.055069
0.192862 0.003457 0.138607
-0.080799 -0.186103 -0.403442
-0.256333 0.130692 -0.485160
-0.128657 0.002104 0.124499
-0.373356 0.246463 -0.240645
-0.283360 -0.096969 -0.045228
0.327672 -0.062741 0.368957
0.308411 0.107789 0.314506
0.352696 -0.094889 -0.151438
-0.037068 -0.229086 -0.133125
0.029706 0.378255 -0.143508
-0.013624 0.152830 -0.490354
0.006296 -0.067666 0.091829
0.255925 0.032860 0.170988
0.215576 0.330743 -0.387122
-0.321070 -0.112016 -0.249685
0.372544 0.319279 0.138643
0.145360 0.258771 -0.487908
0.255925 0.216577 0.182777
0.133209 -0.076690 0.089886
-0.267418 0.094664 -0.485779
-0.071642 0.242300 0.100349
0.251086 0.180291 0.138643
0.006745 0.048305 0.138043
0.377467 -0.188671 0.405758
0.440228 0.320076 0.138643
0.401432 -0.027129 -0.231185
0.255925 0.211136 0.158224
0.485001 0.188919 0.007153
-0.326540 -0.102673 -0.320846
0.035555 0.068408 0.138391
0.394678 0.225720 0.138643
-0.195516 -0.147119 -0.062634
0.041691 0.376335 -0.173339
0.050290 0.011142 0.273526
0.050876 -0.003367 -0.492387
0.481186 0.121550 0.210613
-0.148181 -0.210593 -0.197318
0.110681 0.067613 0.138519
0.255925 0.193730 0.153706
0.131262 -0.075251 0.091820
0.289133 0.183695 0.138643
0.065965 0.258311 -0.488014
-0.282472 -0.105414 -0.404270
0.161565 0.109916 -0.493588
-0.232120 0.234638 0.048702
-0.014246 0.045879 -0.491579
0.471408 0.241169 0.138643
0.102137 0.367106 -0.209266
-0.269024 -0.146095 -0.323452
-0.088035 0.306349 0.002485
0.158177 0.251672 -0.488285
-0.004347 0.145194 -0.490669
0.255925 0.070827 0.277491
0.428535 -0.028538 0.153325
0.193156 -0.051762 0.122520
0.316196 0.317554 -0.293288
0.335348 -0.030858 -0.454184
0.030346 0.357335 -0.461930
-0.284861 0.063644 0.075708
-0.318080 -0.090010 -0.083083
0.049229 0.374823 -0.183884
-0.069017 0.300603 0.019135
0.484324 0.070250 0.107320
0.414477 -0.009548 -0.229021
0.382084 0.304214 -0.179494
-0.047163 0.333342 -0.023424
0.200766 -0.038950 0.302571
0.059955 -0.101980 0.456409
0.194141 0.336609 -0.379820
-0.129107 0.258900 0.056536
0.397565 0.297664 -0.154127
0.022455 -0.150414 0.397439
0.242057 0.342866 -0.242294
0.405736 -0.156296 0.247465
0.479017 0.168766 0.209482
0.052032 0.301397 -0.485632
-0.120271 0.011568 -0.490162
0.356468 0.266762 -0.331804
0.224176 0.269496 0.138526
0.037592 0.361027 -0.438070
0.460092 0.310714 0.093924
0.336878 0.043454 0.138643
0.190097 0.132584 0.308852
0.079246 0.360761 -0.360778
-0.043110 0.358522 -0.064817
0.372014 0.134766 0.304618
0.476624 0.284651 0.043836
0.255925 0.130877 0.217291
0.197274 0.356287 0.037733
0.450836 0.241475 0.220331
0.357077 -0.031455 0.138643
0.190787 0.339218 0.069605
-0.198900 -0.122931 -0.473701
-0.144088 0.301260 -0.013469
-0.229001 -0.172304 -0.308488
0.156900 0.065740 0.138595
0.332179 0.014389 0.138643
-0.275406 0.280850 -0.060552
-0.292878 0.155384 0.064232
0.126505 -0.175982 -0.063984
-0.048790 0.044732 0.137557
-0.360922 0.124534 -0.018719
-0.440676 0.148939 -0.184819
0.462519 0.024000 0.093708
-0.221171 -0.169191 -0.356976
-0.295080 -0.079041 -0.430774
0.307396 0.103578 0.315702
-0.071573 0.358234 -0.392987
-0.314033 -0.079832 -0.051500
-0.244839 -0.103983 -0.450838
0.257270 -0.116710 -0.014525
0.245142 -0.015591 0.238505
0.060055 0.346652 0.000606
0.243124 0.341294 0.088751
0.489186 0.086900 0.109632
0.268858 0.336478 -0.243905
0.221483 0.056989 0.138643
-0.095646 0.322138 -0.467678
0.344051 -0.338852 0.353041
0.260762 0.173492 -0.490979
0.065098 -0.221986 -0.145217
0.387194 0.157702 0.294607
0.243884 0.039612 0.138677
0.265367 -0.125699 0.331353
0.271112 0.250099 0.177589
-0.038323 -0.135255 0.365202
0.065391 -0.093460 0.280948
0.203912 -0.144088 -0.040713
-0.095215 0.214898 -0.487704
-0.004497 0.368493 -0.380761
-0.213158 0.026551 -0.488058
0.057918 -0.080415 0.275487
-0.205572 0.356253 -0.203496
-0.029777 0.375674 -0.129646
0.270534 -0.187635 0.355968
0.397516 0.315055 -0.091085
0.085703 -0.208629 -0.123342
-0.286223 0.224743 -0.461922
0.377315 -0.324655 0.420872
0.095994 -0.079968 -0.492948
0.196293 -0.165995 -0.204769
0.243925 0.348791 -0.191809
0.228601 0.206526 0.183652
-0.088695 -0.179417 -0.415576
0.305738 0.311755 -0.351154
0.434644 0.140402 -0.212329
-0.127294 0.261777 -0.486084
0.114396 -0.162324 -0.030558
-0.224094 0.308192 -0.062645
0.212971 -0.039003 0.251926
0.339028 -0.247247 0.426601
0.319638 -0.091054 -0.018994
0.043664 -0.214048 -0.366937
0.281258 -0.059675 0.150601
0.347217 -0.168082 0.401738
-0.296758 -0.123772 -0.338018
-0.447826 0.163739 -0.218042
-0.448810 0.043913 -0.401183
0.486084 0.078079 0.035279
0.357421 -0.131926 0.390255
0.255925 0.061630 0.174203
0.307138 0.223890 0.138643
0.153382 -0.079323 0.269321
-0.308446 0.233788 -0.023652
0.059205 -0.224524 -0.148149
-0.007619 -0.150973 -0.017886
0.052421 -0.055959 -0.492450
0.158570 -0.041356 0.395821
0.333321 -0.102955 -0.205187
-0.422347 -0.023440 -0.231812
-0.205588 0.204611 -0.485847
0.415183 0.151515 0.138643
0.254573 -0.015532 0.201394
0.050608 -0.089487 0.285409
0.351008 0.087922 0.321329
-0.291476 -0.073466 -0.441027
0.255925 0.090278 0.222477
-0.007998 -0.054144 0.341917
-0.406052 0.216380 -0.213291
0.401680 -0.198097 0.395860
-0.216584 0.343932 -0.156416
0.242637 0.220753 0.138677
0.261284 0.195147 0.138643
0.405688 -0.219134 0.334493
-0.059958 -0.008875 -0.491089
0.327958 -0.008932 0.352110
0.075810 0.353279 -0.003700
0.477587 0.109829 -0.059447
0.448016 0.016877 0.138643
0.383780 0.292648 -0.205412
0.478920 0.225228 -0.010289
0.220750 0.352654 -0.201816
0.157036 0.353405 -0.312445
0.311655 0.182243 0.291867
0.071632 -0.074369 0.089548
-0.496151 0.083341 -0.279340
0.291189 0.003713 0.343340
0.298513 -0.369321 0.342258
0.086431 -0.102447 -0.492813
-0.310245 -0.102955 -0.100969
-0.207161 0.034163 0.118632
-0.022768 -0.112996 0.427455
-0.396684 -0.050716 -0.305317
-0.001230 -0.231691 -0.136287
0.010046 -0.218484 -0.112633
-0.009021 -0.008321 0.129274
0.134596 0.369924 -0.058936
0.264618 -0.139309 0.227776
-0.033415 -0.033732 -0.491423
0.387030 -0.070064 -0.154398
0.267038 -0.164528 0.280785
0.407661 0.060846 -0.319157
-0.264934 0.307084 -0.105468
-0.124480 -0.211715 -0.264337
-0.171587 0.035579 0.130097
-0.070316 0.350404 -0.417780
-0.001595 0.371447 -0.339365
0.064789 -0.114038 0.302135
0.012081 0.371663 -0.309489
0.429386 0.068609 0.138643
0.053939 0.017121 0.295050
-0.184146 -0.057215 0.079644
0.107898 -0.059247 0.234061
0.147185 0.028857 0.138554
-0.083226 0.038562 0.136262
-0.212270 0.330522 -0.101398
0.305387 0.329653 -0.231157
-0.344510 -0.090311 -0.305129
-0.160191 0.127981 -0.488792
-0.213963 0.214062 0.079974
-0.033613 0.045190 -0.491352
0.354381 -0.057545 -0.308098
-0.301890 -0.091876 -0.402493
0.262155 0.165250 -0.491192
-0.386067 -0.062342 -0.231545
0.386734 0.060339 0.138643
0.269536 0.341926 -0.199394
0.033605 -0.220303 -0.121423
0.139843 0.363250 -0.011635
0.200911 0.336806 -0.365850
0.266865 -0.152569 0.324446
0.240785 0.352923 -0.161827
-0.325318 -0.110334 -0.215298
-0.259814 -0.079595 0.005795
0.052245 -0.026068 0.405641
-0.105082 -0.095024 0.053972
-0.173645 0.306429 -0.033804
0.131733 0.350954 -0.380280
0.165642 -0.180371 -0.197432
-0.345719 -0.074120 -0.107725
0.249268 0.362039 -0.003963
-0.460115 0.010220 -0.353821
0.371725 -0.060414 -0.240020
0.255925 0.194566 0.155100
0.255925 0.180839 0.233195
0.226776 0.348763 0.069152
0.276326 0.246456 0.221095
-0.235518 0.283308 -0.027515
-0.074490 0.207725 0.123289
0.116233 -0.100973 0.293165
-0.018996 0.351566 -0.449197
0.363137 -0.173257 0.211706
-0.037266 -0.041527 0.109068
0.410382 -0.177184 0.288802
0.234704 0.327873 -0.374856
0.314850 -0.112499 -0.171461
0.151943 0.152528 -0.492762
0.160334 0.368621 -0.065757
-0.477037 0.024871 -0.293128
0.396385 0.238775 0.138643
0.055044 0.361516 -0.395727
0.283972 0.358328 0.001250
-0.164827 -0.204477 -0.231399
0.300646 0.031234 0.138643
-0.382258 -0.029468 -0.119877
0.392382 0.322769 -0.066905
0.303828 -0.286611 0.276576
-0.277808 -0.137114 -0.349726
-0.135244 0.334100 -0.062781
0.151976 0.112346 0.138591
0.102551 -0.209755 -0.181679
0.019532 0.361124 -0.438225
-0.045637 0.345148 -0.446751
0.105098 -0.170904 -0.043789
-0.083820 0.377878 -0.287713
0.167112 0.022488 0.138583
0.101810 0.370884 -0.146514
0.054609 -0.125338 0.019755
0.263749 -0.099210 0.050110
0.110029 -0.203116 -0.149510
0.347483 0.282266 -0.333341
0.488782 0.100035 0.020431
-0.033869 0.359589 -0.414234
0.448660 -0.029612 0.312599
0.330590 0.058773 0.138643
0.319801 -0.275039 0.262502
0.402812 0.143271 -0.299230
-0.160673 -0.189751 -0.337082
0.412298 0.326737 0.005874
0.261504 -0.097425 0.204725
0.459950 -0.013206 0.214234
-0.408230 0.052210 -0.103328
0.306210 0.013836 0.343269
0.224269 0.106713 0.324357
0.112667 0.304354 -0.485241
0.165513 -0.061022 0.326103
-0.165264 -0.186405 -0.112488
-0.217377 -0.164523 -0.118293
0.293396 -0.187755 0.220260
-0.107567 -0.221852 -0.214449
0.110909 0.072405 0.281024
0.372366 0.298849 -0.221367
0.392231 0.277894 0.138643
0.455303 0.025896 0.138643
0.052631 -0.095112 0.061655
-0.150606 -0.103300 -0.488723
-0.235652 -0.126255 -0.053951
0.165799 -0.153456 -0.029899
0.397750 0.020276 0.138643
0.367809 0.012333 0.343905
0.134030 -0.133445 -0.492675
-0.249721 -0.160252 -0.190800
-0.325687 0.273779 -0.129536
-0.190992 -0.144611 -0.437863
0.384726 -0.088588 0.170214
-0.361301 -0.011372 -0.047025
0.298525 -0.043651 0.359021
0.008333 0.171346 0.138294
-0.109079 0.239817 0.091735
0.387037 0.277735 0.236795
0.087731 0.058248 0.258103
0.285461 -0.293463 0.300342
-0.216477 -0.114118 -0.018995
-0.271979 0.281833 -0.391943
0.046173 0.371489 -0.086270
-0.067748 -0.105012 0.043946
0.358263 0.025127 0.138643
0.318951 0.245721 -0.465347
-0.049497 0.313301 0.008255
0.261120 0.289338 -0.485210
0.410603 0.031665 -0.303173
-0.121572 -0.218321 -0.216906
0.091805 0.370951 -0.165073
-0.278364 0.047898 -0.484577
0.322249 0.355124 0.022803
0.086355 -0.081472 0.081703
-0.090225 0.243258 -0.487103
-0.192568 0.152201 0.120613
0.403969 -0.038734 0.349924
0.108815 0.144170 -0.492334
-0.072236 0.376616 -0.300599
-0.459246 0.185947 -0.323005
0.326755 0.038958 -0.492057
0.255925 0.100459 0.230889
0.073847 0.276608 -0.487001
0.320815 0.346254 -0.071019
-0.299710 -0.028120 0.029083
0.426566 0.056541 -0.257650
-0.243107 0.335714 -0.214173
0.152315 0.291486 0.121736
0.261619 -0.087471 0.259944
-0.250428 0.276616 -0.028327
-0.022215 0.252634 -0.487599
-0.245263 0.303589 -0.373359
-0.398343 0.228920 -0.250427
-0.214234 0.017293 0.110519
-0.265904 -0.140782 -0.365122
0.052785 0.313536 -0.484678
-0.176479 -0.011642 0.110503
0.094829 -0.052472 0.443642
0.365869 -0.246008 0.425918
0.242221 0.113909 0.138643
0.335600 -0.356364 0.387525
0.158226 -0.034119 -0.493301
-0.148133 -0.019976 0.112522
0.295520 -0.230992 0.407011
0.088375 0.357647 -0.395056
0.197230 0.357130 -0.189546
0.172065 0.057263 0.368982
0.158206 0.014555 0.171204
0.291237 -0.184317 0.218995
0.013877 -0.030967 -0.491976
-0.087665 -0.141083 -0.006791
-0.118248 -0.213286 -0.262874
-0.004091 -0.172307 -0.469126
0.141678 -0.089870 -0.492952
0.400321 0.287885 0.138643
-0.184118 -0.110278 0.010451
0.453180 0.008563 0.007021
0.232205 -0.143763 -0.351639
0.278183 0.219493 -0.488369
0.475370 0.071157 0.193795
-0.447729 0.063615 -0.406206
0.058746 -0.080438 0.467976
0.351616 -0.072321 -0.268769
-0.192244 0.292738 -0.471750
0.190176 -0.066310 0.106172
-0.083623 0.027982 0.134207
-0.014131 0.365741 -0.394636
0.470647 0.081745 -0.096777
-0.345402 0.152937 -0.000686
0.466290 0.235895 0.195692
-0.400772 0.016184 -0.107760
0.230698 0.097794 0.138677
0.237457 -0.145841 -0.236379
0.015415 -0.042877 -0.492004
-0.052594 -0.125071 0.016596
0.330616 -0.081610 0.007211
0.198133 0.256887 0.138500
0.121652 -0.084797 0.372941
-0.181102 0.094186 -0.488894
-0.313303 0.286604 -0.174877
0.196965 0.254297 -0.488102
-0.388593 0.228895 -0.195222
0.375332 -0.060375 0.012241
0.362032 -0.080166 -0.211405
0.283066 0.283110 -0.483700
0.095691 0.362402 -0.300884
-0.238300 -0.054221 -0.481022
0.239152 0.311748 0.128928
0.018562 0.115113 -0.491713
0.104135 -0.143701 -0.004109
0.274188 -0.259176 0.341074
0.315380 -0.056928 0.122312
-0.033846 -0.161862 -0.477872
0.004248 -0.050140 0.359638
0.087121 -0.214770 -0.240930
0.362184 0.113442 -0.431270
0.323020 -0.114953 0.175419
0.276652 0.004224 -0.493505
0.255925 0.057780 0.244333
0.065299 0.367320 -0.278154
-0.258935 -0.135875 -0.104449
0.347573 0.324521 0.155032
-0.141674 0.083854 -0.490049
0.114912 0.073495 0.210560
0.381755 0.327979 0.176841
-0.320005 -0.080814 -0.064051
0.082671 -0.195891 -0.448091
0.255925 0.172211 0.221233
0.438381 0.021860 -0.192469
0.391320 -0.012658 -0.305399
-0.353620 0.032527 -0.008095
0.327843 -0.361548 0.454877
-0.265893 0.284383 -0.394669
-0.256541 0.223856 0.045653
0.401925 -0.051941 0.354759
0.328931 0.227261 -0.450958
-0.069003 0.007259 0.130897
0.242299 -0.142197 -0.272780
0.210789 0.184732 0.138677
0.423023 0.086299 0.138643
0.241378 0.036685 0.138677
0.388748 -0.293098 0.391984
-0.418900 0.189677 -0.192657
-0.375976 0.168808 -0.067003
-0.393978 0.121774 -0.080782
-0.012033 0.304951 0.036595
-0.250379 0.235874 -0.475123
0.135053 -0.193486 -0.221699
0.203297 0.361531 0.012566
0.475474 0.055977 0.162175
-0.096048 -0.210250 -0.112346
0.054283 -0.099305 -0.492504
-0.289640 -0.062012 -0.451456
0.255925 0.125410 0.227463
-0.163633 0.364721 -0.142706
0.340822 0.296872 -0.314815
0.040462 -0.004278 0.324096
0.061059 -0.119557 0.027994
0.348887 -0.330758 0.347220
-0.229266 -0.096182 0.003741
0.086456 -0.038904 0.445571
-0.068393 -0.233198 -0.183207
0.210139 0.197514 0.144985
0.175850 -0.160694 -0.470129
0.022894 -0.073820 0.297403
0.445021 0.138049 -0.184897
0.486706 0.200260 0.020584
-0.363321 0.017732 -0.030358
0.084632 0.308493 0.071979
-0.058533 -0.167437 -0.455522
-0.411996 0.131754 -0.431307
0.388205 -0.095730 0.373597
0.295902 -0.154686 0.200348
0.364349 -0.206115 0.231829
0.458278 0.174165 -0.116043
0.415509 -0.207970 0.367863
-0.033496 0.379584 -0.157718
-0.365940 0.122751 -0.455521
0.266321 -0.163367 0.234527
0.393458 0.343276 0.043792
0.052865 0.358304 -0.453906
-0.000631 -0.104624 0.323964
-0.353708 -0.069349 -0.373542
0.222498 0.331347 -0.369637
0.259543 -0.073749 0.176506
0.354276 0.249449 -0.357947
0.322623 0.312096 -0.305456
0.024081 -0.028006 0.347982
-0.037687 -0.112097 0.389076
0.314148 0.179172 0.138643
0.255925 0.168573 0.198753
-0.359775 0.030703 -0.018164
-0.381883 -0.064224 -0.266331
0.057613 0.376201 -0.126761
0.367887 0.028407 0.138643
0.282249 -0.123890 -0.123280
0.207529 0.333261 -0.381871
-0.287356 0.008395 0.059825
0.271309 -0.220791 0.318054
0.476895 0.248692 0.128517
0.269712 0.268101 -0.487010
0.452325 0.069789 0.290629
0.031196 -0.193368 -0.433789
-0.226954 -0.168550 -0.351130
0.255925 0.042568 0.311294
-0.079624 0.380329 -0.171585
0.351907 0.202552 -0.403687
0.338574 0.350971 0.000394
0.122902 -0.108574 0.045280
-0.034569 -0.111481 0.395709
0.109562 0.078472 0.222914
0.269778 -0.091448 0.066503
0.300370 -0.090855 0.026813
-0.018808 -0.071231 -0.491627
0.486347 0.154750 0.005569
-0.353670 0.012113 -0.018284
-0.078777 0.343288 -0.429340
-0.372940 -0.061999 -0.159958
-0.196988 0.157016 0.117922
-0.471763 0.098853 -0.224734
0.255925 0.136319 0.274198
0.264422 0.182216 0.284349
-0.496359 0.092930 -0.273566
0.263582 -0.120980 0.241381
-0.027081 -0.153534 0.377964
0.470809 0.275413 0.013474
0.233086 0.160586 0.138643
0.342744 -0.347885 0.376840
0.031931 -0.239568 -0.220595
0.047305 0.072362 -0.492279
-0.182415 0.124417 0.130381
0.386908 0.082226 -0.382065
0.038155 -0.050674 -0.492278
-0.083799 0.358083 -0.385111
0.359706 -0.339771 0.451276
0.446453 0.104171 0.287179
0.366217 0.026228 0.138643
0.400033 -0.190566 0.395301
0.229966 -0.009515 0.321508
0.011140 0.032190 0.137799
0.219197 0.167954 0.138677
0.068375 -0.112525 0.037998
-0.026805 -0.236003 -0.243129
-0.273180 0.270142 -0.038279
0.224327 -0.147722 -0.342980
0.155781 0.357028 -0.272817
-0.330126 -0.029794 -0.008087
-0.231085 -0.080590 -0.477555
0.378637 0.336444 0.160122
-0.312668 -0.076029 -0.041180
-0.290283 -0.000776 -0.474786
-0.030985 -0.136496 -0.491169
-0.252096 0.058330 -0.487207
0.280979 0.327927 0.125448
0.127339 -0.187402 -0.462538
0.380664 0.154938 0.297292
-0.294637 0.159442 0.061056
-0.012875 0.380534 -0.209316
0.496623 0.129752 0.105575
0.255925 0.088458 0.213778
0.293245 0.146147 -0.490142
0.060785 -0.128185 0.376114
0.024241 -0.066091 0.444113
-0.359794 -0.040286 -0.413805
0.235750 0.125496 0.138677
0.054412 0.327467 0.030352
0.303976 0.059229 0.329035
-0.350744 0.262803 -0.266619
0.259058 -0.050421 0.129479
-0.315720 -0.116941 -0.232761
-0.105088 0.262051 0.061914
0.252320 0.206126 0.258250
0.161468 -0.181872 -0.208161
0.289282 -0.188677 0.222271
0.174672 -0.041842 -0.493247
0.393787 0.175913 0.287015
0.286417 0.043626 0.330439
0.181686 -0.134725 0.008111
-0.261058 -0.084243 -0.002971
-0.157316 -0.147884 -0.037200
-0.261391 0.253163 -0.000343
-0.286298 -0.138737 -0.250646
0.445846 -0.021137 0.166770
0.255925 0.074748 0.166657
0.351064 0.153451 -0.437016
0.482785 0.170858 0.146663
-0.201877 -0.141667 -0.057463
-0.249336 -0.020754 -0.484008
0.449693 0.319133 0.105130
0.443591 0.112673 0.138643
0.304749 0.112964 0.312535
0.263789 0.317822 -0.401376
-0.024857 -0.144178 0.365664
0.020866 -0.059217 0.100519
0.008381 -0.078754 0.080052
0.307569 0.258732 0.138643
0.046478 -0.085073 0.075390
0.296233 0.087134 0.138643
0.195873 -0.083396 0.082638
0.462911 0.194933 0.238123
0.259434 0.239335 0.171026
-0.251393 -0.145453 -0.118568
0.461809 0.063427 -0.143524
-0.008636 -0.021113 0.123739
0.259817 -0.082626 0.085223
0.035762 -0.070444 0.286701
0.488964 0.268115 0.057555
-0.387910 0.210523 -0.398237
-0.295587 -0.082447 -0.031646
0.309537 0.103036 0.138643
0.269154 0.241628 0.209979
0.273862 -0.015574 0.138643
0.385962 -0.057121 -0.001481
0.285646 -0.070189 -0.466045
0.240384 0.358761 0.038833
0.435005 0.110957 -0.228734
0.269065 -0.193734 0.251741
