ply
format ascii 1.0
element vertex 1685
property float x
property float y
property float z
end_header
0.339310 0.319358 -0.225235
-0.146637 -0.153084 -0.044506
0.007619 0.246407 -0.488012
-0.100070 0.116869 0.139299
0.083558 -0.099555 0.424740
0.205929 -0.155663 -0.366128
-0.059634 -0.147617 -0.016902
-0.327601 0.033228 -0.470832
0.389273 0.312069 0.195233
-0.148523 0.285467 0.004760
-0.310241 -0.103416 -0.106700
-0.128423 -0.177714 -0.398670
0.176592 -0.170628 -0.116576
-0.346290 0.126425 -0.462556
-0.347639 -0.090057 -0.174054
-0.028548 0.261869 0.093495
-0.136640 0.237096 0.086770
0.419720 -0.088626 0.354773
0.131850 -0.064283 -0.492879
0.248984 0.125990 0.301461
0.406651 -0.022570 -0.230398
-0.393404 0.231267 -0.312372
0.279857 0.255033 0.186036
0.039921 0.247973 0.124247
0.204760 -0.156783 -0.338414
0.263948 -0.132406 0.205796
0.210704 0.182269 0.206449
0.414694 -0.044766 -0.070537
0.136704 0.129728 -0.491228
0.246929 0.323438 0.119895
-0.032607 0.063436 0.139800
-0.042771 -0.144800 -0.488497
-0.233752 0.195867 0.088801
-0.406968 0.083438 -0.099739
-0.083816 0.321705 -0.019252
0.299012 -0.055288 0.364913
-0.158724 -0.112785 0.018701
0.025916 0.104237 -0.490652
0.241330 0.345058 -0.243537
0.156040 -0.149106 -0.013951
-0.118076 -0.209971 -0.288021
0.486508 0.084452 0.018906
-0.320247 0.189328 -0.455853
0.150214 -0.069859 0.098262
0.345101 -0.063091 0.149540
0.216521 0.251613 0.139844
0.130715 0.344681 -0.424878
0.251759 0.320986 0.121465
0.435520 -0.019529 -0.053891
-0.431513 0.053242 -0.150513
-0.111005 -0.111213 0.031336
0.277508 0.347076 -0.155015
-0.023667 -0.216047 -0.336728
-0.150963 -0.209366 -0.207352
-0.017345 -0.172665 0.439693
-0.132618 -0.097347 -0.490625
0.306584 -0.080083 -0.370124
0.454243 -0.022457 0.248199
0.426875 -0.028047 -0.099305
-0.128581 -0.165602 -0.051313
0.297340 -0.069929 0.155732
0.056588 0.370176 -0.266642
-0.320942 0.070050 0.043587
-0.029499 0.377369 -0.291303
0.429437 -0.053935 0.338445
0.009828 0.331588 0.008746
-0.133395 0.277333 -0.487213
-0.062642 0.184117 0.132285
-0.108488 -0.199326 -0.097243
-0.090463 -0.223547 -0.234742
0.090204 -0.111238 0.298196
0.160136 0.326571 0.081112
0.422442 0.320959 0.011637
-0.197817 -0.166465 -0.098500
-0.000863 0.279370 0.079981
0.363501 -0.313419 0.356415
-0.262374 -0.153594 -0.203803
0.385956 0.063224 -0.393515
0.101810 -0.038107 0.126559
0.102642 -0.118153 -0.491245
0.269972 -0.273990 0.338959
0.405836 -0.168610 0.263429
-0.107619 0.272341 0.043378
-0.034431 -0.049117 0.103462
0.254892 -0.114852 0.004313
0.241605 0.348347 -0.192718
0.269745 -0.104445 0.034288
0.228292 -0.087544 -0.494054
-0.452918 0.019118 -0.232408
-0.013665 -0.080308 0.325670
-0.108862 -0.147288 -0.472928
-0.199962 -0.185990 -0.210705
0.425000 0.092453 -0.260817
0.329225 -0.208856 0.223614
0.326243 -0.075332 0.048164
-0.312195 0.256250 -0.397816
-0.339979 0.149030 0.012571
0.039217 0.311836 -0.483978
-0.356853 -0.086709 -0.220236
0.489766 0.226577 0.040500
0.205123 0.167651 -0.492204
0.041234 0.378315 -0.181404
0.094314 -0.100220 -0.492402
0.032172 -0.184178 -0.063545
-0.029205 0.339456 -0.470675
0.470737 0.048840 -0.040522
0.242503 0.182325 -0.491912
0.291536 -0.317200 0.313860
-0.391533 0.219965 -0.373650
0.258090 0.317997 0.128888
0.213448 0.362012 0.009687
-0.038963 0.064406 0.136481
-0.196997 0.283585 -0.003866
-0.181998 0.063802 0.131255
0.424420 0.268293 -0.133216
0.166877 -0.045726 0.376500
0.349573 0.349476 0.009697
0.258251 -0.088686 -0.478922
-0.327001 -0.086336 -0.383541
-0.404628 0.135466 -0.104768
-0.370160 0.187387 -0.430723
0.266306 0.235579 0.230281
-0.260173 -0.149468 -0.168851
0.263358 -0.126285 0.245503
-0.149916 -0.002968 -0.488723
0.185751 0.303571 -0.484996
-0.142195 0.029275 -0.490642
0.013640 -0.039338 -0.491391
0.367831 -0.054490 0.147775
0.047090 -0.102412 0.296468
-0.142347 -0.134346 -0.482500
-0.107541 -0.130198 -0.490044
0.475119 0.084445 0.207185
0.019538 0.353934 -0.026946
0.117827 -0.190968 -0.103172
0.440682 0.147915 0.280118
0.091474 0.368348 -0.203638
-0.050892 -0.205135 -0.097348
-0.421398 -0.005403 -0.188326
-0.097421 0.170878 0.133205
0.463412 0.030639 0.131190
0.079591 0.046115 0.253139
0.095473 0.367731 -0.058338
-0.134174 0.095924 0.135213
0.438000 0.183143 -0.166280
-0.417697 0.214563 -0.249829
-0.347705 0.258190 -0.323729
-0.247490 0.331870 -0.243268
-0.385275 -0.038950 -0.148849
0.038444 0.328442 -0.483366
0.045827 -0.133676 0.405083
0.353238 -0.027787 -0.408562
0.481280 0.171020 0.163125
0.003004 -0.101444 0.048423
0.154479 -0.184916 -0.172480
-0.012632 0.369506 -0.088086
0.389157 0.169733 -0.320445
-0.032767 0.284732 -0.486302
-0.023525 0.054848 -0.491927
0.086586 -0.101747 0.284467
0.337677 0.355712 0.041589
0.155261 0.339327 -0.437448
0.308193 -0.004116 0.347190
0.255123 0.220555 0.217798
-0.090426 -0.068645 -0.491288
-0.369433 0.248389 -0.292900
0.213040 -0.129824 -0.466015
-0.330927 -0.107947 -0.238353
0.236011 0.261446 -0.488092
0.220207 0.047793 0.342151
-0.191036 0.221528 0.084129
0.264007 -0.129505 0.238704
0.252684 -0.135090 -0.104309
-0.296456 0.299415 -0.234617
0.173765 -0.172258 -0.326390
0.083190 0.053742 0.262963
0.087014 -0.068105 -0.493454
0.043598 0.376083 -0.175609
-0.488957 0.051731 -0.337880
-0.031840 -0.093870 0.377562
0.436268 0.056104 0.309768
0.345176 0.023027 0.343376
0.346325 -0.284743 0.437156
-0.050023 0.375637 -0.325772
0.463335 0.157636 0.262394
0.205075 0.191734 0.144277
-0.382926 -0.012252 -0.100071
-0.382970 0.085244 -0.057618
-0.066470 -0.045441 -0.489961
0.006730 0.164351 0.137057
0.244836 -0.138909 -0.320141
0.419324 -0.195129 0.376382
0.304419 0.249969 -0.484388
-0.194054 0.193063 0.104314
0.402361 -0.007702 -0.270952
-0.281602 0.294494 -0.102826
-0.397370 0.151117 -0.098668
-0.206720 0.038525 0.118032
-0.016273 0.286603 -0.488150
0.336157 -0.140983 0.190699
0.303175 0.326362 -0.255554
0.262606 0.226907 0.238462
-0.277550 0.240612 0.009332
0.142617 -0.185657 -0.323988
0.380609 -0.020407 -0.326623
0.272781 -0.163231 0.218238
-0.096725 0.299832 -0.483199
-0.199253 -0.076474 -0.487645
-0.153711 -0.073067 -0.487954
0.296489 0.139077 0.304154
0.369288 -0.029503 -0.347964
0.207770 -0.035988 0.134966
0.269761 -0.069810 0.160295
0.326381 0.259937 0.252545
-0.031278 0.354337 -0.433193
0.330423 -0.115576 0.177599
0.065203 0.369624 -0.260694
-0.243536 -0.085094 -0.465224
0.075370 -0.004571 0.238820
0.276008 -0.069574 -0.483162
0.348577 -0.303725 0.296608
0.042665 0.366325 -0.336221
0.225984 -0.145579 -0.353286
-0.297721 0.300575 -0.236377
0.065338 -0.124577 0.350153
-0.043977 0.367064 -0.092941
0.274181 -0.233540 0.302594
0.287425 -0.354912 0.421173
0.342558 0.147372 -0.465814
-0.438341 0.155944 -0.402606
0.165857 0.022430 -0.494658
-0.125070 0.071502 0.138470
-0.420463 0.202388 -0.374619
0.166590 -0.154452 -0.032087
-0.171224 0.094404 0.136278
-0.049171 -0.238173 -0.176653
-0.324543 0.216283 -0.024198
-0.473428 0.045538 -0.251134
0.223863 0.346162 -0.252382
-0.285223 0.218406 0.031736
0.171997 0.190788 -0.493067
0.337699 -0.028392 -0.447763
-0.065132 0.065583 0.140459
-0.402475 0.177909 -0.136962
-0.188184 -0.053244 -0.488646
0.326666 -0.129952 0.183139
0.084594 -0.071456 0.097556
0.272492 -0.127525 -0.275292
0.108884 -0.186261 -0.075046
0.494409 0.168282 0.050617
0.012347 -0.086470 0.458572
0.309661 0.292667 0.146211
-0.346196 0.259355 -0.159259
-0.356627 -0.084370 -0.173044
0.266862 -0.195236 0.283044
0.467166 0.036640 0.110909
-0.179674 -0.056535 -0.487945
-0.180785 0.363976 -0.178674
0.332552 -0.097163 -0.235268
-0.285194 -0.139126 -0.259268
-0.006827 -0.167265 0.426019
-0.344615 -0.091542 -0.276772
0.463769 0.308334 0.080477
-0.363094 -0.036001 -0.078621
0.310904 -0.357474 0.447374
0.170606 -0.072600 0.222532
0.306108 0.065011 0.327742
0.361144 0.286385 -0.280698
0.241183 -0.022413 0.224046
0.358018 -0.071274 -0.253881
-0.012009 0.010576 -0.491232
0.261843 -0.068450 0.261318
0.031293 -0.196089 -0.423991
0.327027 -0.070969 -0.343873
0.368839 0.308972 -0.201469
0.339367 -0.059724 -0.346526
0.326923 -0.018956 0.354451
0.103607 -0.071217 0.096567
0.301672 0.163801 -0.487393
0.102891 0.049905 0.318085
-0.277630 0.027348 0.075088
0.198192 -0.158625 -0.346815
-0.340145 0.245341 -0.381615
0.313952 -0.058069 0.147665
0.137877 0.111341 0.232345
0.041510 -0.135683 0.415790
0.280181 -0.052548 0.355902
-0.148732 -0.137637 -0.014391
0.221597 -0.094685 0.070093
-0.094550 0.001271 0.130144
-0.271589 0.187314 0.068930
0.329709 -0.303103 0.440662
-0.394568 0.187301 -0.415515
0.390843 0.339668 0.006823
0.349548 0.353073 0.035003
0.065265 0.291956 0.091487
-0.355914 0.030984 -0.013483
0.105615 -0.027572 -0.492176
0.146930 -0.158412 -0.025639
0.069853 0.061769 -0.491404
0.388067 -0.040932 0.091278
-0.267893 0.321737 -0.179770
0.430283 -0.141943 0.288086
0.257259 0.189833 0.276845
0.404107 0.013269 0.331394
0.009117 0.206972 0.133864
-0.428311 -0.011659 -0.211707
0.402699 -0.033746 0.081472
0.293435 -0.126014 -0.172188
-0.087007 0.356813 -0.084349
0.422121 -0.085975 0.354380
0.360329 -0.043492 -0.329113
0.161496 0.344694 -0.387575
-0.426598 -0.015586 -0.224283
0.418411 0.283208 -0.121969
-0.053924 -0.234063 -0.172066
0.278931 0.154172 -0.488342
-0.077203 0.235622 0.106292
0.344469 -0.348857 0.398161
0.447004 0.119364 0.284850
0.212895 -0.130049 -0.462174
-0.090866 -0.209649 -0.310685
-0.000124 -0.231828 -0.288580
0.293583 -0.109376 0.376644
-0.025834 0.344847 -0.037612
0.063787 -0.225173 -0.199802
0.417334 0.106811 -0.275567
0.344770 -0.093943 -0.212950
-0.184018 -0.182378 -0.340921
0.350645 -0.048719 0.120337
-0.020590 0.372111 -0.108264
0.345861 0.303985 -0.285200
-0.014678 0.083187 -0.492055
0.060512 -0.027184 0.258599
0.045259 0.371559 -0.078750
-0.134569 -0.139826 -0.476336
0.274614 -0.185538 0.235868
0.066938 0.327975 0.036077
0.248444 0.322854 -0.410060
0.216107 -0.035370 0.249550
0.182750 -0.163623 -0.406627
-0.332254 0.074388 0.026266
-0.260054 0.303311 -0.082339
-0.420214 0.099318 -0.129901
-0.100817 -0.228051 -0.172090
0.478900 0.181547 -0.035754
0.373436 -0.321846 0.396354
-0.110956 -0.115524 0.029648
0.273759 0.353567 -0.107345
0.262693 -0.107405 0.234473
0.379309 0.249549 -0.285392
0.328145 0.077710 -0.489967
0.124566 -0.193222 -0.355991
-0.432644 0.007117 -0.191331
0.279045 0.011296 -0.492173
-0.364745 -0.054858 -0.108381
-0.330226 -0.104245 -0.254803
0.198758 -0.160084 -0.302956
-0.057932 0.308135 0.014663
-0.117174 -0.137283 -0.003667
0.068963 -0.224144 -0.256542
0.319653 -0.343988 0.448051
0.140057 -0.187977 -0.331576
0.431667 0.190445 -0.175875
-0.205498 0.254672 0.029486
0.165089 -0.042123 0.127687
0.024450 -0.117028 0.484713
-0.412621 0.221560 -0.306771
0.177278 0.357482 -0.234597
0.326365 -0.317214 0.286231
-0.444553 0.192067 -0.259555
-0.084760 0.378430 -0.292282
0.148085 0.002144 0.400065
0.173099 -0.169784 -0.389802
-0.015984 -0.084218 0.397459
-0.014902 -0.119721 0.027323
-0.144429 0.133978 0.133719
-0.325657 0.271412 -0.318341
-0.143053 0.141414 0.136956
0.294360 0.125246 0.309397
0.116119 0.206602 -0.491505
0.256021 0.360890 -0.027311
-0.067806 -0.194512 -0.081739
0.034419 0.376020 -0.207338
0.420990 -0.033560 -0.104857
-0.026734 -0.049926 0.102418
0.368305 -0.055894 -0.256180
0.393529 -0.071087 0.363064
0.048892 -0.116186 0.307921
-0.008323 0.250537 0.113807
0.277270 -0.326870 0.353523
-0.425623 0.205478 -0.351724
0.434402 0.044828 -0.224655
0.038788 0.154359 0.137597
0.438569 0.015596 -0.185610
-0.020000 -0.234662 -0.260187
0.125464 -0.188969 -0.405608
-0.045513 0.374968 -0.120626
-0.224122 0.325487 -0.331532
0.092844 -0.085045 0.076527
-0.297377 0.293337 -0.133847
0.306702 0.206720 0.284614
0.061906 -0.122353 0.320257
-0.300896 0.109988 -0.480724
-0.272001 0.283129 -0.389569
0.263822 -0.090427 0.314325
0.301757 -0.211877 0.403490
0.468032 0.043545 0.221932
0.228093 0.362467 -0.037419
0.134904 -0.181905 -0.481720
0.320683 -0.196662 0.409209
0.131455 0.008033 -0.491219
-0.442890 0.191750 -0.255196
0.357434 -0.050183 0.104571
0.390950 -0.156155 0.392442
-0.033653 0.031987 -0.492696
0.187066 0.363162 -0.136978
0.167605 0.027578 0.379620
0.422688 -0.022522 0.338863
-0.243823 0.124755 0.104323
0.439926 0.112453 -0.211404
0.092433 -0.205020 -0.123230
0.036556 -0.080956 0.291851
-0.263767 0.298887 -0.357664
-0.069279 0.260956 0.075276
-0.478832 0.030859 -0.286351
0.043967 -0.218458 -0.126930
0.357616 0.213791 -0.376632
0.224076 -0.078805 0.093240
-0.064115 0.371801 -0.333071
-0.459352 0.084179 -0.397382
-0.146304 0.372886 -0.152893
0.305013 0.166420 0.294746
-0.262326 0.259920 -0.008277
-0.290634 0.031561 -0.479996
0.429892 0.273742 0.216442
0.106247 0.008771 0.136808
0.489909 0.167583 0.035084
-0.302679 0.187127 0.041052
0.070452 0.323568 0.045463
-0.090189 -0.102502 0.046528
-0.132176 0.363015 -0.340507
-0.354908 0.046632 -0.461134
-0.196202 -0.191075 -0.228144
0.492824 0.221117 0.061769
-0.234147 -0.129877 -0.059417
0.260631 0.022733 0.320829
0.355574 -0.059552 -0.301430
0.175199 0.085021 0.146505
0.198660 0.148978 0.288727
0.103122 -0.199656 -0.376713
0.270670 0.228326 0.254869
0.222498 0.190164 0.232664
0.389908 0.133202 0.303969
-0.033623 -0.128441 0.009600
0.285333 -0.365095 0.359682
0.220842 -0.146987 -0.096213
0.471976 0.145310 -0.079784
0.489258 0.087623 0.033892
0.137237 -0.191642 -0.172728
-0.159863 -0.050428 -0.487483
0.149735 0.036150 -0.491982
0.204429 -0.034455 0.299976
0.410714 0.297197 -0.112791
0.327607 0.162482 -0.485036
-0.361739 0.103493 -0.014318
0.433746 0.167450 0.275405
-0.095424 -0.205091 -0.331391
0.050537 0.361656 -0.431358
0.388305 0.144470 0.298180
0.000496 -0.122328 0.492908
0.316668 0.345546 -0.098108
-0.038698 -0.065046 -0.489961
0.169239 0.123417 0.285923
0.451635 0.312131 0.040712
0.365739 0.321728 -0.148997
0.113284 0.256010 0.135002
0.437020 0.003333 0.138968
-0.114340 -0.037845 -0.488461
-0.325261 0.269304 -0.330837
0.202201 -0.047084 0.248214
0.153015 -0.182326 -0.326660
0.341955 0.292478 -0.322460
-0.277235 -0.132737 -0.363264
0.374894 -0.080058 -0.127644
0.480644 0.255374 0.113322
-0.151537 -0.194662 -0.327968
0.394897 0.273371 0.236452
0.395356 0.337657 0.159978
0.028773 -0.088951 0.301442
-0.132819 0.162608 -0.489899
0.231171 -0.116137 -0.466890
0.249916 0.234580 0.157428
-0.029456 -0.098637 0.387553
0.266721 -0.126083 0.352158
0.416332 0.326111 0.162587
0.253585 0.178981 -0.491436
0.266162 -0.128702 -0.103356
-0.265155 -0.139535 -0.130054
0.118640 0.186119 0.136379
0.477593 0.057682 0.163947
0.467320 0.268760 0.149224
-0.015241 -0.197747 -0.083830
-0.079286 -0.025874 0.115833
0.202787 0.329148 -0.421403
-0.255835 0.328644 -0.211157
0.401198 -0.055758 -0.055626
0.203569 -0.095604 0.067604
0.038839 -0.223158 -0.313418
0.005078 0.373605 -0.114154
0.466710 0.107038 -0.131934
-0.038165 0.080268 -0.490553
0.421247 -0.112620 0.359870
-0.387076 0.027100 -0.072849
-0.428947 0.178695 -0.197459
0.219680 0.266253 0.140533
0.157285 -0.179769 -0.227268
-0.280452 -0.136670 -0.311731
-0.012483 0.114954 0.136877
0.267918 -0.086313 0.072062
-0.261702 0.309605 -0.325377
-0.398555 0.230125 -0.271298
-0.091781 0.370597 -0.114801
0.448432 0.082127 -0.189906
-0.150907 0.373229 -0.199890
0.186698 0.171127 0.184645
-0.231552 0.310028 -0.072452
-0.499014 0.077715 -0.303813
0.017491 -0.025975 0.298672
0.058607 -0.053058 0.460908
0.278486 -0.208168 0.247349
0.117636 -0.200865 -0.161988
-0.032170 0.324387 -0.482563
-0.056675 -0.230366 -0.242720
-0.156200 0.077872 0.137862
0.213469 0.157189 0.304037
0.222806 0.356474 -0.136730
-0.138160 0.266452 -0.484499
-0.347260 0.253513 -0.134707
0.221975 0.067351 -0.495006
-0.080553 -0.097341 0.050961
-0.337771 0.258482 -0.119999
0.447924 -0.001588 0.096365
-0.300525 0.293741 -0.273793
0.456864 0.264963 -0.042309
0.182452 -0.163750 -0.378857
-0.118623 0.223628 -0.485878
0.448510 0.002348 -0.065945
-0.418022 -0.028434 -0.338851
0.123219 0.095842 0.220439
-0.262731 0.127298 0.090376
-0.024282 0.087857 0.137085
0.141964 0.093855 0.181509
0.168212 0.200003 0.140673
0.132200 -0.058254 0.413520
0.076284 -0.013486 0.133680
-0.275344 -0.104022 -0.050049
0.390240 0.149510 0.297569
0.023527 -0.016265 0.310975
-0.014007 -0.192023 -0.075878
0.347367 0.312378 -0.232238
-0.328857 -0.081525 -0.383653
-0.286085 -0.137571 -0.182131
0.366595 -0.167010 0.206943
-0.032453 0.039383 0.139776
0.178216 0.103188 0.142960
-0.002303 0.114104 -0.492878
-0.304696 0.246152 -0.434615
-0.451503 0.188870 -0.275310
0.457385 0.021463 -0.050250
0.141023 0.364975 -0.026010
0.256631 -0.013526 0.206114
-0.096374 -0.017018 0.117648
0.144913 0.286193 0.123375
0.235736 0.296997 0.137079
-0.297556 0.225111 0.005177
0.168334 -0.058676 0.321908
-0.090982 0.371224 -0.121640
0.207114 0.277440 -0.486604
-0.007111 0.124016 -0.492120
0.377033 -0.051301 0.068072
-0.215262 0.339096 -0.126429
0.065512 -0.207667 -0.400526
0.032950 -0.016001 0.281714
0.222532 -0.021838 -0.493833
-0.024336 -0.135251 0.448147
0.397376 -0.077871 0.363734
-0.270524 0.302957 -0.095651
0.012665 0.371384 -0.330916
-0.081295 0.077097 -0.489336
0.277377 -0.293019 0.357710
0.243467 -0.014653 -0.491568
0.427696 0.102960 -0.257926
-0.145850 0.305635 -0.474420
0.479227 0.091218 -0.044728
0.270841 -0.095437 -0.419908
0.264678 -0.129558 0.309693
0.456662 -0.002856 0.282759
0.036159 -0.019236 0.354971
-0.089101 -0.167453 -0.438851
0.433036 0.155879 -0.202041
-0.179490 0.108546 0.132227
-0.067035 -0.085527 -0.490682
-0.044473 -0.106617 0.358421
-0.398787 0.011317 -0.424734
-0.362806 0.001191 -0.035925
0.353897 -0.208478 0.415600
0.473507 0.211672 -0.040212
0.262666 -0.071843 0.320935
0.057642 0.019324 0.266820
0.394044 0.347343 0.141089
0.115943 0.013116 0.204226
0.478529 0.164677 -0.042870
-0.323386 -0.006563 -0.461754
0.126583 -0.091826 0.307284
0.248223 0.353000 -0.141189
-0.177834 0.217131 0.094091
0.055584 -0.121880 0.434523
0.250495 0.181890 0.284955
0.112868 -0.197543 -0.398813
-0.286649 0.001179 0.061173
-0.403078 0.060122 -0.087351
-0.166070 -0.198516 -0.281806
-0.476895 0.038561 -0.350806
-0.260124 -0.159264 -0.267481
-0.287200 0.261286 -0.424500
-0.213597 -0.169580 -0.127475
-0.047251 0.130985 0.137182
-0.130465 -0.070968 0.080376
0.368143 0.309059 -0.200062
0.065962 0.357176 -0.422535
-0.210163 -0.121853 -0.026867
0.248206 -0.080363 0.090805
-0.486088 0.102204 -0.255557
-0.059101 0.212908 -0.486922
0.370172 -0.141635 0.392411
-0.198724 0.340779 -0.113795
0.209244 0.181620 0.215598
0.208047 -0.134903 -0.457938
0.284389 -0.115332 -0.315218
-0.146575 0.036890 0.132272
0.079504 0.023686 0.350920
-0.136730 0.364494 -0.119500
0.183256 -0.153062 -0.050986
-0.407397 0.074237 -0.437968
-0.066758 0.376575 -0.311855
-0.448013 0.067469 -0.406287
0.284450 -0.119774 -0.286518
0.289371 -0.316246 0.317308
0.006733 0.096314 0.140697
0.470154 0.147997 0.256107
0.081951 -0.041758 -0.493318
0.385590 0.226322 -0.287877
-0.115621 -0.169313 -0.056651
-0.445751 0.197464 -0.325098
0.371867 0.351076 0.058011
0.212644 0.272549 -0.486393
-0.346228 0.245182 -0.115830
0.208205 0.321937 -0.468242
0.284066 -0.125776 -0.223356
-0.368650 0.137928 -0.450565
0.158625 -0.073562 -0.493743
0.446481 0.005474 -0.115064
0.266191 -0.117110 -0.029037
0.392893 -0.055917 0.156204
-0.367336 0.251294 -0.290664
0.102616 -0.148000 -0.011187
-0.203019 -0.014659 0.098846
0.313603 -0.366806 0.346099
0.155065 0.002638 0.397564
0.393996 -0.227699 0.315697
0.468716 0.084445 -0.112326
0.157124 -0.180696 -0.296392
0.376840 -0.240869 0.281820
0.350373 0.320878 0.174916
0.232138 -0.038349 0.166301
0.405080 0.236106 -0.222293
-0.046272 -0.226475 -0.133525
-0.325010 -0.103041 -0.136461
0.126717 0.083905 0.200905
-0.333215 0.272307 -0.157252
-0.221126 0.339123 -0.144733
0.122182 0.345932 -0.440452
-0.003956 0.194093 0.133184
0.399125 0.050068 0.323126
0.275188 -0.201041 0.246613
0.491249 0.192122 0.104773
0.317464 -0.048016 0.131117
0.287801 0.217449 0.276247
-0.023472 0.116793 -0.489477
0.220149 0.364580 -0.017004
0.313238 -0.102166 -0.280027
-0.136963 -0.179824 -0.078985
-0.159907 -0.206264 -0.203475
-0.312181 -0.026370 0.015279
-0.292248 0.180951 -0.472132
0.188234 0.271165 0.139548
0.039504 -0.171112 -0.488334
0.105204 0.354218 -0.391408
0.243172 0.198982 0.267495
0.196350 0.360857 -0.137737
0.459108 0.251347 -0.042117
0.039832 0.320428 0.033562
0.316143 -0.057967 0.118475
0.324573 0.356676 0.077616
-0.002125 -0.189439 -0.072650
-0.030530 -0.104254 -0.489961
0.281746 0.324607 -0.309612
-0.101980 -0.212348 -0.312043
-0.196205 -0.091434 0.034104
-0.356462 -0.005833 -0.440643
-0.047023 -0.191819 -0.078004
-0.451068 0.192136 -0.309779
0.205222 -0.159657 -0.129219
0.282239 0.296281 -0.477573
-0.436603 0.201812 -0.278460
0.365423 -0.079868 0.373256
0.037212 0.155954 0.139982
0.032393 -0.090020 0.065264
-0.232653 -0.125819 -0.433281
-0.134886 0.378508 -0.210271
-0.036791 -0.187880 -0.422039
-0.144275 0.360140 -0.338921
-0.341147 0.051202 0.010971
-0.096106 0.212694 -0.488715
0.301613 -0.344314 0.440071
-0.175643 0.100299 0.134112
0.279537 -0.266871 0.292775
-0.334451 -0.021941 -0.010226
0.010152 0.048165 0.139791
-0.098392 -0.191005 -0.381551
-0.251575 -0.159296 -0.224431
-0.165579 -0.149880 -0.445346
0.234958 0.209446 0.188481
0.421107 0.221179 0.258717
0.001954 0.372080 -0.103429
-0.222774 0.236126 0.047114
-0.198266 0.151930 0.117213
0.437195 0.016440 -0.191055
-0.044100 -0.082079 -0.489470
0.263278 0.244075 0.182265
-0.040542 0.369583 -0.089303
-0.007287 0.061491 0.137226
-0.408065 0.079409 -0.097521
0.009242 0.246407 -0.487767
0.282963 -0.369478 0.360742
-0.434022 0.039106 -0.411280
-0.387797 0.219146 -0.383458
-0.260785 0.291605 -0.058952
-0.008940 -0.088365 0.065100
0.099782 -0.194983 -0.092011
-0.296481 -0.131914 -0.216601
0.372131 0.194403 0.286480
-0.000362 0.178512 0.138751
0.269204 -0.178405 0.357892
-0.153891 -0.205286 -0.244494
-0.021455 0.180846 0.135786
0.025031 0.378204 -0.162444
-0.404740 0.114945 -0.096231
0.477919 0.198101 0.169399
0.340059 0.303527 -0.302165
-0.089123 -0.017118 0.117206
-0.039527 -0.093704 0.357581
-0.223904 0.343767 -0.171612
-0.450962 0.042587 -0.200904
0.202787 0.167628 0.230802
-0.319882 -0.106069 -0.345999
-0.212150 0.342533 -0.275654
0.413756 0.131221 -0.278260
0.203340 0.332941 -0.403618
0.289546 -0.241428 0.255229
0.340448 -0.055550 -0.358703
0.363799 0.148584 -0.404276
0.369351 0.340023 -0.030648
0.007279 -0.156798 0.404365
-0.338541 0.222972 -0.056133
-0.234018 0.340524 -0.194434
0.307743 -0.062931 0.151469
-0.299957 0.215808 0.017801
-0.188896 -0.192830 -0.242020
0.271433 0.235817 0.232205
0.368441 0.147364 -0.388297
0.042907 -0.077947 0.080584
-0.492496 0.057123 -0.323255
-0.403986 0.215803 -0.210438
-0.448058 -0.008359 -0.311736
-0.360504 0.256836 -0.274755
0.297173 -0.305930 0.297448
0.112496 0.188249 -0.491793
-0.193274 0.295293 -0.020643
0.474779 0.204686 0.191586
0.230024 0.148645 -0.492953
-0.013109 -0.061297 0.094918
0.156641 0.174911 0.138564
-0.349271 0.259360 -0.317668
-0.096563 -0.019118 0.115404
0.192890 -0.021419 0.136220
0.149226 0.018587 0.175867
-0.087469 0.275638 -0.486536
-0.373209 -0.026815 -0.413847
-0.198530 -0.178683 -0.128162
0.395312 0.307610 0.204122
0.461315 -0.001341 0.187098
0.128825 -0.185220 -0.470381
-0.158923 -0.063749 0.079330
0.051717 -0.204277 -0.413044
0.384947 0.079546 -0.390950
-0.245906 -0.149002 -0.374887
0.021393 -0.076867 -0.492855
0.430244 0.110949 -0.243443
0.408806 0.348550 0.103217
0.456892 0.236914 -0.071237
0.371389 -0.207345 0.234012
0.345630 0.323499 0.155313
-0.425127 0.045705 -0.141850
0.380737 0.268274 -0.261153
0.117175 0.181490 0.136332
-0.085119 0.112677 -0.491628
0.438289 -0.059984 0.202770
0.272966 0.339542 -0.213451
0.253538 0.130059 0.295542
-0.189665 0.359445 -0.173431
0.231051 0.363930 -0.035968
0.309740 0.268835 0.229233
0.374135 -0.065301 0.152885
0.043807 -0.212509 -0.368455
0.183902 0.090309 -0.493864
0.441065 0.063428 -0.206238
0.279917 -0.229306 0.253048
0.234577 0.027116 0.337778
0.404549 0.188904 -0.257854
-0.082134 -0.019559 0.121690
0.492501 0.151240 0.125177
0.399008 -0.038267 0.078994
-0.150757 0.373470 -0.234260
0.486359 0.132971 0.003839
0.195651 0.180578 0.160185
-0.198438 0.199889 -0.485942
-0.120610 0.329848 -0.435705
0.103037 0.370079 -0.168679
-0.180840 0.212605 -0.486648
0.296734 -0.334921 0.435850
0.448125 0.198109 0.253330
-0.383083 0.068812 -0.450483
0.144380 0.343940 -0.419244
-0.146421 0.223701 -0.485623
-0.406179 0.022371 -0.425878
0.338248 0.352566 -0.002149
-0.183197 -0.071167 0.066567
-0.328559 0.051278 0.032314
0.044112 0.124359 -0.492516
0.063401 -0.126414 0.024585
0.089241 -0.216364 -0.181667
0.090647 0.360363 -0.337703
0.102617 0.372406 -0.114003
-0.309061 0.263926 -0.387770
0.272288 -0.176530 0.361355
0.342815 -0.331510 0.330822
0.329771 0.298165 0.192606
-0.319149 0.233179 -0.434303
0.259321 -0.092165 0.299591
-0.127208 0.182270 0.125823
0.066409 0.048085 -0.490402
-0.367599 -0.047511 -0.397646
-0.013147 0.037232 -0.492509
0.173332 0.076385 -0.496142
-0.213316 0.058665 -0.486443
0.146225 -0.178643 -0.467492
0.018670 0.347196 -0.016552
-0.091560 0.081231 0.137699
-0.397215 0.148750 -0.096018
0.268839 0.259584 0.136238
-0.273462 0.021516 0.078774
0.108507 0.079113 0.251703
0.197312 -0.095031 -0.493550
0.088819 -0.109588 0.291888
0.209347 -0.138299 -0.445849
0.073313 -0.106474 0.045499
0.402935 0.196157 -0.266637
0.084580 -0.179792 -0.488104
0.457246 0.012689 0.150652
0.043229 0.224524 0.132456
0.075382 0.020097 0.340214
0.143384 0.111462 0.244479
-0.412461 0.170247 -0.145032
-0.313630 0.147739 0.046153
0.381266 0.350890 0.058508
0.431640 0.229886 0.246481
0.095917 0.031098 -0.492160
0.297686 0.279053 0.166421
0.327224 0.200218 -0.471061
0.328304 -0.064728 0.104094
0.207603 -0.034492 0.284782
-0.207867 -0.041629 -0.486932
-0.431791 0.069679 -0.147514
0.150289 -0.178609 -0.479318
0.073027 -0.116966 0.306468
0.031897 0.127268 -0.491648
0.376724 -0.164178 0.211467
0.139924 0.079720 0.181210
0.393167 -0.284059 0.394262
-0.258322 -0.144218 -0.367557
0.065945 -0.002122 0.376288
-0.155947 0.204600 0.109391
0.085852 -0.139490 -0.000323
-0.195030 0.360276 -0.216873
0.220936 0.298283 0.132279
0.166422 0.252451 -0.488717
-0.093028 0.291728 -0.485831
0.259761 0.099460 0.304707
0.175057 0.328556 -0.463941
-0.204996 0.060055 0.120283
0.479018 0.193573 -0.032187
-0.194139 0.220992 -0.486523
-0.052775 -0.063044 -0.489711
-0.022620 -0.141238 0.470128
0.235303 0.341876 -0.268532
0.130195 -0.005866 -0.493851
0.023976 0.143337 0.137676
0.054603 -0.178293 -0.055683
-0.328332 0.159998 0.023709
-0.135365 -0.213446 -0.191811
0.419525 -0.164289 0.372618
-0.159485 0.209427 0.100349
-0.042524 -0.211040 -0.345232
-0.325116 0.203254 -0.450351
0.188059 0.363969 -0.074383
-0.037127 0.195043 -0.487483
0.092812 0.297602 -0.486407
-0.360517 -0.080227 -0.292441
0.273739 -0.110794 -0.027818
-0.246358 0.283042 -0.432684
0.121995 0.015260 0.199746
0.429416 0.179100 -0.196782
0.297745 -0.038127 0.356275
0.142835 0.119434 0.219078
0.210458 0.348186 -0.266438
0.119962 -0.078480 0.403421
0.221009 0.357566 -0.163758
0.431253 -0.064266 0.191604
-0.165139 -0.021439 0.109737
0.018393 0.055273 0.139168
0.331088 -0.356681 0.363921
0.096744 0.050772 0.222723
0.467509 0.266281 -0.013843
0.347558 -0.030681 -0.414116
0.078510 0.015587 0.361871
0.031424 -0.077187 0.291962
-0.158918 -0.172586 -0.391325
-0.036090 0.264623 0.089497
0.206272 0.170077 0.245991
0.323594 -0.089031 -0.005334
0.167445 0.182002 -0.490004
-0.081872 -0.190250 -0.385836
-0.492990 0.067725 -0.271583
0.059553 0.231879 -0.488138
0.348604 0.103601 0.316172
0.434378 -0.018854 -0.103251
-0.037498 -0.118875 0.029827
0.455353 0.193597 0.249736
0.158284 0.088442 0.351337
0.174400 -0.068464 0.232245
0.144723 0.085232 0.325416
-0.036860 -0.177121 0.454621
0.357780 -0.265971 0.434756
0.133920 -0.020382 0.201787
-0.352352 0.258351 -0.206120
0.037896 0.346634 -0.005614
-0.226205 0.158585 0.105155
-0.137224 0.299852 -0.479585
0.346060 0.120897 -0.466423
-0.449790 0.085114 -0.185587
0.077237 0.037765 0.304580
0.426678 0.266760 -0.128963
0.275825 -0.094450 -0.414526
0.312824 -0.041475 0.360445
-0.090460 0.309052 -0.481629
-0.490306 0.059188 -0.332300
0.471129 0.105942 0.263813
0.470057 0.251243 0.154389
0.004614 -0.144911 0.476914
-0.338660 -0.019012 -0.445699
-0.107719 0.122875 -0.488443
0.012509 -0.047984 0.109424
0.147178 0.342355 -0.414368
-0.136331 -0.141627 -0.474773
-0.022389 -0.007131 0.130760
-0.170994 -0.194229 -0.149799
0.334950 0.200787 -0.456172
0.441014 -0.097367 0.295512
0.345988 -0.308269 0.306736
0.323649 0.109224 -0.488904
-0.353447 0.257857 -0.293890
0.266820 0.033547 0.326532
0.484741 0.212856 0.117595
-0.141451 -0.001528 0.124949
0.341489 -0.080336 -0.264466
0.058479 0.132489 0.140425
-0.370475 0.108676 -0.455167
0.088782 -0.094244 0.428813
0.370970 -0.078026 -0.185372
0.226393 -0.114272 -0.477413
-0.117776 -0.218700 -0.225145
-0.319389 -0.095990 -0.107861
0.043884 -0.025145 0.269326
0.341721 0.266100 -0.374639
0.219443 -0.151947 -0.279420
0.096409 0.061939 0.278891
0.075364 -0.204652 -0.414849
-0.089227 -0.227087 -0.159248
-0.109296 0.245346 -0.487531
0.391106 -0.021634 -0.293137
-0.082064 -0.225207 -0.139469
0.042365 -0.138759 0.350847
0.260204 -0.078086 0.313143
0.075857 0.374251 -0.141563
0.383131 0.135453 0.302343
0.387790 0.025988 0.336628
-0.414985 0.181526 -0.172050
0.339886 0.349720 0.119463
-0.375700 0.199827 -0.107191
0.361643 -0.054219 0.088460
0.115704 -0.088527 0.069336
0.431504 -0.012814 0.124085
-0.002543 -0.163969 0.427980
0.055488 -0.013882 -0.491842
0.039733 -0.231378 -0.166555
0.111427 0.360657 -0.320676
0.322462 0.285322 -0.397757
-0.138189 -0.149345 -0.464201
-0.224567 0.040459 -0.489270
0.104597 -0.186490 -0.485996
-0.386714 0.172042 -0.088127
-0.206775 -0.183164 -0.230293
-0.288274 0.058270 0.074665
0.374582 0.344116 0.008106
0.020592 -0.105656 -0.490230
0.440580 0.056451 0.301703
-0.026934 -0.162776 -0.478434
-0.172027 -0.146585 -0.446744
0.154075 0.356829 0.022730
0.099025 -0.204613 -0.307538
-0.271675 0.017931 -0.484021
0.306140 -0.095079 0.376349
-0.167531 0.250126 -0.487731
-0.045751 -0.233160 -0.212769
0.049355 0.132694 0.139773
0.202289 -0.157729 -0.364677
0.371418 -0.324349 0.387979
0.373523 -0.065281 -0.022594
0.426113 -0.110770 0.234469
0.035567 0.284666 -0.486481
0.284261 -0.349704 0.412635
-0.001414 0.253001 0.111879
0.348154 -0.354340 0.434371
-0.443186 0.198686 -0.307840
0.258731 0.356470 -0.069831
0.245718 -0.126075 -0.386414
0.272976 -0.198642 0.304139
0.454522 0.063663 0.289654
0.399024 -0.229889 0.332418
0.283404 -0.099489 -0.365782
0.264972 0.034536 -0.493401
0.454294 0.020165 -0.080258
-0.146828 -0.198696 -0.303866
0.475373 0.093832 0.229185
0.376474 0.193659 0.287955
0.423969 0.114033 -0.262225
-0.391722 0.172439 -0.104130
-0.110770 0.302581 -0.483657
-0.078585 0.054882 -0.490564
0.261440 0.134193 0.298346
0.271621 0.346199 0.093264
-0.031447 -0.165407 0.466823
-0.013000 0.006451 -0.491903
0.125371 0.367568 -0.166035
-0.125350 -0.063666 0.087269
-0.182932 0.045128 0.129582
0.412076 -0.072829 0.176258
0.458673 0.194574 0.247326
-0.229645 0.219699 -0.482445
-0.196368 0.266096 -0.483749
-0.357381 0.203480 -0.430255
-0.000552 0.211372 -0.489992
0.360779 -0.252843 0.264421
0.114447 -0.201553 -0.280225
0.175367 -0.027291 0.177486
0.039019 -0.133943 0.438509
-0.468325 0.031032 -0.371288
-0.264133 0.251133 0.000811
-0.018989 -0.016627 -0.491449
-0.073366 -0.104947 0.043180
-0.275218 -0.143474 -0.269583
0.249267 -0.021890 0.185455
0.168089 0.366317 -0.083002
0.248833 0.355900 -0.131647
0.230558 0.030426 0.339906
0.482651 0.181329 0.136170
-0.345803 0.127628 -0.463663
0.205297 0.364433 -0.000331
-0.301923 0.051349 -0.481043
-0.428000 -0.025260 -0.313163
0.173864 -0.083813 -0.491367
0.378524 -0.065400 -0.028881
-0.370719 0.213555 -0.120111
0.265509 0.105706 0.308012
-0.148537 -0.139129 -0.470529
0.238197 0.201369 0.237240
-0.233483 -0.017660 -0.487657
0.425050 0.065536 -0.263028
0.167849 0.259859 -0.488617
-0.191241 0.339909 -0.344377
0.134695 0.367575 -0.036385
0.244405 -0.018840 0.225422
0.285202 0.167947 0.295740
-0.226594 0.052971 -0.487385
0.285236 -0.124396 -0.221112
-0.027962 -0.010712 -0.491919
0.098693 0.264401 0.126274
0.257573 0.301246 0.136096
0.366346 -0.040955 -0.314258
-0.258940 0.101761 0.095962
-0.154962 0.055362 0.137885
-0.124981 0.287279 0.014310
0.217099 -0.060392 0.113160
0.383304 -0.258309 0.329291
0.160392 -0.054470 0.207454
0.280559 -0.314638 0.397520
-0.220725 -0.175942 -0.306262
0.484047 0.215446 0.006817
-0.287119 0.305283 -0.184572
0.455170 0.052944 -0.159398
-0.015885 0.376061 -0.115952
0.259688 0.211765 0.270496
-0.489215 0.116796 -0.343290
-0.165261 0.368669 -0.162892
0.104580 -0.086216 -0.494559
0.163172 0.167773 0.138950
0.065313 -0.119929 0.397212
-0.053513 0.383165 -0.235107
-0.035471 -0.166755 0.461466
0.341453 -0.092926 -0.093700
0.364871 0.215446 -0.358146
0.095774 -0.044598 0.236206
0.416867 0.173166 0.281822
0.269603 -0.127307 -0.307653
0.424794 0.130549 0.290983
0.239985 -0.036270 0.135995
0.103296 0.200687 0.138506
0.080595 -0.065664 -0.491031
-0.038428 0.027010 -0.489755
0.387238 0.340175 0.003283
0.160321 -0.037771 0.397976
0.081085 -0.051067 0.452105
0.235240 0.181602 0.284555
0.271105 -0.209089 0.329686
0.073644 -0.067159 0.459553
0.483112 0.143971 0.175039
0.198696 0.023431 0.362723
-0.031273 0.113351 -0.488889
-0.288681 -0.075551 -0.440960
0.159461 0.122724 0.253782
-0.015545 -0.241008 -0.188362
0.074143 -0.122994 0.025439
-0.288760 0.099499 0.071568
0.337422 0.090253 0.322649
0.017830 -0.090175 -0.491416
-0.215471 0.351551 -0.187557
-0.323132 0.223543 -0.029550
0.330076 0.032925 0.340581
0.447132 0.175985 0.265875
-0.461329 0.083463 -0.204492
-0.001977 -0.236846 -0.251467
-0.163352 -0.096198 0.046815
-0.221017 0.258382 0.017682
-0.269578 -0.089114 -0.443565
0.111297 0.054406 0.138709
0.159307 -0.047369 0.385008
0.315893 0.254188 0.253409
0.443324 0.317188 0.039003
0.010882 -0.158136 -0.024598
-0.044100 0.135424 -0.489470
0.202975 0.182110 0.189289
0.412436 0.292455 -0.123838
0.319526 -0.003837 0.349922
-0.056438 0.362980 -0.079670
-0.329259 0.274966 -0.197180
-0.495317 0.119532 -0.305955
0.267806 -0.149878 0.249993
0.340267 0.348121 -0.026056
-0.015419 -0.116208 0.035354
-0.416399 0.001587 -0.167204
-0.483830 0.067455 -0.252109
0.100144 0.240112 0.136647
-0.300700 0.014478 -0.473483
0.201446 0.301450 -0.485978
-0.178409 -0.185679 -0.121487
0.324462 0.176794 -0.485510
0.123423 -0.176679 -0.069502
0.032505 0.027633 0.140163
-0.139130 0.321618 -0.440317
0.348195 -0.223333 0.236904
0.302887 0.355336 -0.026815
0.053406 -0.117353 0.443452
0.379019 0.177817 -0.340233
-0.110649 0.024549 -0.488883
-0.072220 -0.097261 -0.489558
-0.195616 0.353998 -0.146987
-0.158212 0.181816 -0.486219
-0.244195 0.228021 0.047261
-0.098375 -0.195796 -0.362009
-0.412212 -0.040441 -0.277661
-0.317774 0.271463 -0.107017
-0.188501 -0.169446 -0.101907
-0.273680 -0.112635 -0.405025
0.298454 0.283515 0.156416
0.368026 -0.090519 0.377827
0.183841 -0.157378 -0.457203
0.346788 0.290016 0.223607
-0.058743 0.385312 -0.196535
0.280962 -0.081834 0.089570
0.302157 0.325083 -0.269901
0.197357 -0.145840 -0.458150
0.341192 0.191289 0.287089
-0.209812 0.347590 -0.243414
0.296983 0.262104 0.229532
0.365306 -0.068086 -0.229523
-0.093169 0.364494 -0.360279
0.176965 0.155063 0.161330
0.465777 0.235665 -0.042854
-0.411891 0.209019 -0.207926
0.266418 -0.037256 0.141888
0.265599 -0.134220 -0.241505
0.409534 -0.145932 0.245360
-0.198808 0.005987 -0.488599
0.041913 0.298938 -0.485433
0.142270 0.035197 0.391318
0.036359 0.380158 -0.164098
0.426692 -0.011882 -0.178338
0.406821 0.120069 -0.301056
0.426433 -0.149997 0.328880
-0.137916 -0.163201 -0.048992
-0.336742 0.233335 -0.077178
0.056119 -0.028377 0.424048
0.373481 0.162886 0.294353
-0.277674 -0.025608 -0.473434
-0.174752 -0.092743 0.046403
0.285801 0.270768 0.157853
-0.469359 0.040718 -0.241857
0.222148 0.113370 0.321968
0.190060 0.366259 -0.049013
0.070029 -0.089675 0.452159
0.209678 -0.029788 -0.493168
-0.049557 -0.186048 -0.414281
0.480277 0.247198 0.118214
-0.081474 0.358566 -0.387082
0.182612 0.103101 0.347631
0.023659 0.376642 -0.237314
0.149135 -0.187890 -0.236357
0.153807 -0.061247 0.375391
-0.073388 -0.219900 -0.292926
0.328631 0.307762 -0.321973
0.302501 -0.374126 0.356128
0.327588 0.316524 -0.277975
0.114222 0.177124 -0.492800
0.125035 -0.076657 0.087518
-0.075175 0.351716 -0.411947
-0.131908 0.270177 0.039865
0.285101 0.337912 -0.208755
-0.422639 -0.027571 -0.251549
0.349078 0.314047 -0.224119
0.294116 0.357926 0.062831
0.030747 -0.146113 0.375756
0.485647 0.181284 0.127419
0.269426 0.044806 -0.493806
-0.212811 -0.133956 -0.047527
0.051124 0.013279 0.295220
0.258257 -0.091516 -0.469555
-0.049118 0.363630 -0.384790
0.473527 0.091626 -0.081647
-0.410645 -0.012423 -0.398199
0.192380 0.174385 0.184933
0.353198 0.321305 0.170263
0.009666 -0.209397 -0.098307
0.102977 0.373573 -0.078954
-0.118254 -0.170825 -0.057737
-0.183327 -0.159986 -0.071378
0.490000 0.256393 0.087422
0.248597 0.098284 0.308603
0.121777 0.153211 -0.493269
0.182353 -0.037155 -0.493895
0.438556 -0.072533 0.216882
0.274265 -0.027402 -0.493664
0.323367 -0.057751 0.146193
-0.009436 0.075560 0.138470
-0.009972 -0.176569 -0.058379
0.236608 0.063305 -0.493336
0.467758 0.285204 0.025277
0.091353 0.314561 -0.483149
0.311842 -0.175473 0.208481
0.389570 0.036948 -0.377275
-0.158334 0.270570 -0.487228
0.008895 0.361769 -0.429332
-0.078192 -0.088674 0.061126
0.399110 -0.086055 0.172394
-0.005168 0.283696 0.069615
-0.099853 -0.145374 -0.480714
0.029287 -0.011660 0.314870
-0.236216 -0.032327 0.073649
-0.311415 0.175246 -0.464716
0.222480 0.081221 -0.492430
0.008500 -0.063332 0.410597
0.425291 0.230021 -0.165978
-0.315073 -0.103856 -0.362651
0.482363 0.074669 0.014052
-0.014605 -0.098652 0.430053
-0.338721 0.269497 -0.203228
0.264189 0.360907 -0.023345
0.436236 0.128058 -0.215762
0.256977 -0.126529 -0.355449
-0.158863 -0.204716 -0.232144
0.080132 0.373440 -0.165703
0.087951 -0.112955 0.334232
-0.051307 -0.235026 -0.208224
-0.323183 0.069149 -0.476394
-0.058007 -0.130241 0.012623
0.390008 0.118662 0.305049
-0.388334 -0.057876 -0.256863
-0.148520 -0.136629 -0.478746
0.048570 0.062157 -0.492383
0.235114 0.004498 0.335575
0.382812 -0.203387 0.247379
0.488582 0.222701 0.029959
0.268318 -0.251112 0.321417
-0.194394 -0.081590 -0.486240
0.219477 0.228825 -0.488278
0.485011 0.223509 0.118696
-0.458202 0.133042 -0.207174
0.135216 0.033214 0.396220
0.463317 0.147731 0.262787
0.082766 -0.176003 -0.050514
0.286128 -0.337957 0.334369
0.018864 -0.236192 -0.255638
0.467410 0.032527 0.091647
0.490678 0.148296 0.024826
-0.216128 0.344236 -0.156066
0.427566 0.065661 -0.251254
-0.291913 0.283448 -0.349075
-0.164945 -0.076890 -0.487542
-0.000199 0.170862 0.141086
-0.205076 0.350593 -0.176988
-0.018800 -0.071924 0.356598
0.136212 0.177541 0.137233
0.336869 -0.041237 -0.423373
0.457035 0.025988 -0.071127
-0.321926 -0.110699 -0.264719
-0.022682 0.210797 0.131763
-0.321926 -0.029581 -0.449501
-0.471591 0.172153 -0.328909
0.331712 0.007977 0.347561
-0.406206 0.227117 -0.316554
-0.082294 -0.155380 -0.469892
0.151210 -0.106204 0.046323
0.353146 0.205044 -0.393085
0.017751 0.294657 -0.488008
-0.379233 -0.053827 -0.363042
0.169846 0.128141 0.266305
0.395127 -0.191159 0.398631
0.229211 -0.034334 0.199392
0.490499 0.212908 0.038298
-0.222441 -0.033839 -0.485208
0.259691 -0.027606 0.272873
0.014807 0.253753 -0.486487
0.295395 -0.267706 0.272300
0.184330 0.331602 0.083604
-0.378038 0.191473 -0.103364
0.165753 0.365462 -0.092314
0.291578 0.253420 0.243591
0.227925 0.032350 0.342409
-0.034487 -0.078752 0.076879
-0.286929 -0.052771 -0.456221
-0.245818 -0.048690 -0.481084
0.274426 -0.212366 0.256132
0.145662 -0.170990 -0.063200
0.183087 0.349198 -0.297491
0.445311 0.014140 -0.134916
0.283136 0.155501 -0.489961
0.344552 0.284143 -0.339709
-0.459734 0.012041 -0.361525
-0.427790 0.002948 -0.194405
0.117528 -0.194053 -0.414534
-0.189637 0.211786 0.094832
0.000136 0.054045 -0.490479
0.236006 0.124427 0.311706
0.321202 0.331342 0.137990
-0.225240 -0.044059 -0.485154
0.096523 0.361326 -0.305832
0.198174 -0.051830 0.250622
0.460514 0.031140 -0.080052
0.415670 -0.117027 0.210505
-0.389112 0.097413 -0.447543
-0.083358 0.052858 -0.489488
0.343802 -0.202463 0.221434
-0.177429 -0.197821 -0.222552
-0.466306 0.178083 -0.310063
0.262409 -0.132077 0.331820
0.206587 -0.139508 -0.017496
-0.346753 0.149259 -0.001393
0.113794 -0.042381 0.225644
0.445128 -0.072815 0.266952
0.265273 0.332289 -0.292047
0.083501 0.003538 0.405547
-0.276988 0.104309 0.084906
-0.358505 -0.078888 -0.305272
-0.297118 0.300639 -0.209117
-0.149275 0.336525 -0.392766
0.021007 0.084465 0.137059
-0.151312 -0.192555 -0.111753
-0.021006 -0.140483 0.363226
0.301223 -0.355641 0.322473
-0.227185 -0.058027 -0.482472
0.173145 0.162793 0.138470
0.294622 -0.068504 0.155305
0.298556 -0.116537 -0.244439
0.152123 0.121608 0.234612
0.131572 -0.195673 -0.201513
-0.352202 -0.090664 -0.210454
0.256883 0.230251 0.184878
0.067861 0.374496 -0.168177
-0.214238 0.250537 -0.483402
0.323710 -0.035457 -0.480098
0.352553 0.229017 -0.382072
0.081789 0.004281 0.389087
-0.143087 -0.179053 -0.083759
0.277234 0.157887 -0.491769
-0.180533 -0.195516 -0.170429
0.303168 0.108196 0.311816
0.026301 -0.045427 0.400866
0.465726 0.268444 0.154263
0.396368 0.130255 0.300862
0.460855 0.022854 0.265831
0.288166 0.346103 -0.137359
0.029067 -0.134114 0.005069
-0.073360 0.110567 -0.491959
0.301939 -0.093027 -0.342690
0.139040 -0.107268 0.050576
0.023571 -0.148341 0.407006
0.465253 0.041805 0.280648
0.258489 -0.101780 -0.440508
-0.029444 0.365725 -0.081634
-0.093953 0.257647 0.076722
-0.250515 -0.158678 -0.346458
0.353999 -0.099838 0.171483
0.453756 0.315007 0.051197
0.087092 -0.158562 -0.023837
0.277810 0.260063 0.165773
0.309919 0.254092 -0.478917
0.184259 0.308744 0.117187
0.467896 0.018337 0.190643
0.200531 -0.122448 0.024238
0.268539 -0.128548 -0.296918
-0.204299 -0.176437 -0.338543
0.185653 0.046880 0.368522
0.466286 0.061382 -0.110142
0.055164 0.143498 0.141243
0.179101 0.299843 -0.483724
0.046608 -0.010086 -0.490361
-0.058498 0.221714 0.119378
0.402215 0.166702 -0.286145
-0.247470 -0.167318 -0.278761
-0.265470 -0.131198 -0.376782
-0.478458 0.093863 -0.234329
-0.276522 0.308732 -0.143059
0.092618 -0.215113 -0.208393
-0.131713 0.169377 0.127957
0.111074 -0.156423 -0.491463
-0.225684 0.208311 0.079423
-0.258894 0.205568 0.063552
-0.017037 -0.183818 -0.440046
0.012302 -0.135520 -0.490115
0.347749 0.026549 -0.486244
0.150611 0.343409 -0.397526
0.340597 -0.352917 0.399302
-0.153356 0.038625 -0.490967
0.426804 -0.027949 0.154455
0.324582 0.257768 -0.440405
-0.046358 -0.217827 -0.111864
-0.209526 0.003680 -0.487183
-0.128451 0.170641 -0.487611
-0.023265 -0.178770 -0.060140
-0.202613 -0.180414 -0.308441
0.040093 -0.188248 -0.448876
0.253891 0.201353 -0.488413
0.032878 -0.241304 -0.234113
-0.137873 0.041613 0.134910
0.233637 -0.147728 -0.242990
0.111887 -0.198701 -0.396282
0.080773 -0.193006 -0.454658
-0.466378 0.014867 -0.340414
-0.148477 -0.188928 -0.099872
-0.107943 0.336452 -0.424822
0.111582 -0.206394 -0.205296
-0.007983 -0.113636 0.476817
-0.106150 0.205813 0.118583
-0.332317 0.268968 -0.314549
0.086193 0.003727 0.415882
-0.204488 -0.183424 -0.289460
0.050084 -0.162049 -0.032015
0.131637 0.082885 0.138555
-0.311905 0.146891 0.047412
-0.158534 -0.025608 0.112094
-0.500627 0.099372 -0.293724
0.374958 -0.037821 -0.303577
-0.190644 0.213956 -0.486787
0.454468 0.099303 -0.173027
0.244618 0.135376 0.299666
-0.071435 -0.224339 -0.251712
-0.078800 -0.082169 0.069173
-0.401781 0.163330 -0.425692
0.405980 -0.050006 -0.099243
-0.025490 -0.112087 0.420750
0.358609 -0.072765 -0.005669
-0.435225 0.054043 -0.158734
-0.347686 -0.048591 -0.416011
-0.433691 0.204749 -0.278231
0.260404 0.330169 -0.312189
-0.023258 0.156817 -0.490976
0.030941 -0.152362 -0.020341
-0.163702 -0.021573 -0.489587
-0.371116 0.035069 -0.038605
-0.175899 0.199589 0.106725
0.376450 0.349128 0.051934
-0.170578 0.105103 0.136943
0.030376 -0.176571 -0.049106
0.107295 0.303719 0.088503
-0.293399 0.163489 0.060856
0.360915 0.113780 -0.438394
-0.308465 0.013684 -0.471012
0.097447 0.365364 -0.250987
-0.057630 0.065049 0.139638
0.294309 -0.025455 0.354446
0.449948 0.006267 -0.052542
0.462814 0.132945 0.264568
0.162185 0.134313 0.226122
-0.054032 0.105068 0.137717
0.362265 0.069829 -0.456466
0.021707 0.156540 0.138650
0.410009 -0.020829 -0.215492
0.328448 -0.099060 -0.091424
-0.030349 -0.065420 -0.490135
0.002318 -0.239640 -0.229634
-0.353234 0.258177 -0.211458
0.259559 -0.047699 0.156742
0.132783 -0.167839 -0.041121
0.008069 -0.221456 -0.332697
-0.126537 0.242017 -0.485449
0.309002 -0.106357 -0.091135
0.248536 -0.139260 -0.334584
-0.312566 0.109719 -0.479195
-0.297150 -0.126373 -0.153183
-0.011049 0.370987 -0.092811
-0.054807 0.011499 0.130871
-0.139472 0.080473 -0.489428
0.398092 -0.050858 -0.005726
-0.054044 0.346223 -0.441687
-0.244564 0.239043 0.034447
-0.066883 -0.207358 -0.098187
0.388355 0.218961 -0.282805
-0.316580 -0.061624 -0.021681
0.040293 0.376936 -0.148507
-0.369334 0.196905 -0.085984
0.258245 -0.136245 -0.137843
-0.263288 0.277481 -0.039327
-0.026050 0.382051 -0.221424
0.388816 -0.068618 0.156847
0.375319 -0.019967 -0.343228
0.224785 0.253734 -0.488140
-0.201825 0.355787 -0.187092
-0.014417 -0.011519 -0.492201
-0.258198 0.277469 -0.426048
0.406166 0.189156 -0.265199
0.318346 -0.335918 0.302058
0.143147 -0.019065 -0.492397
0.306883 0.043321 0.333413
0.046968 0.028418 0.139373
0.220687 -0.013594 0.328589
-0.229198 -0.033992 -0.483945
0.317496 0.233611 0.275741
-0.280956 -0.142287 -0.270680
-0.404427 -0.045403 -0.272674
-0.020872 -0.076995 0.076730
0.431511 -0.031425 0.158793
-0.070233 -0.100338 0.055502
-0.279415 0.299242 -0.307740
-0.102000 -0.225760 -0.168091
0.067442 0.283540 -0.486035
0.198027 -0.162072 -0.214869
0.268109 -0.148626 0.352334
0.311347 0.282259 0.195642
0.429338 -0.022362 -0.006600
0.019068 -0.171245 -0.481536
0.041162 -0.139218 0.373901
-0.483059 0.050851 -0.268971
-0.036556 -0.144499 -0.007736
0.277341 -0.208581 0.381426
0.201598 0.360727 -0.128899
0.274800 -0.126618 -0.105524
-0.321547 -0.085632 -0.386534
0.156701 -0.163041 -0.047443
-0.041007 0.363408 -0.077212
-0.301848 0.196992 -0.465178
-0.343296 0.032407 -0.466480
0.367709 0.006759 -0.414937
-0.036629 -0.060990 -0.492512
0.273553 -0.050075 0.131934
0.067021 0.326490 0.038722
0.337107 0.093162 -0.486244
0.291258 0.351467 -0.089520
0.407043 -0.036381 0.047106
0.307755 0.007568 0.344558
-0.343835 0.190429 -0.020171
-0.105922 0.132499 -0.488890
0.006425 -0.166333 -0.483100
0.020085 0.215577 -0.491023
-0.250326 -0.157586 -0.184958
0.230571 0.333778 -0.339736
0.147467 0.122085 -0.494783
-0.080956 0.076288 0.136448
-0.136658 -0.112096 0.030621
0.470712 0.040616 0.088879
0.336180 -0.187246 0.215528
0.261411 -0.092400 0.230205
-0.275085 0.189964 0.060690
0.288918 0.304869 -0.419349
0.373098 -0.058988 -0.235876
-0.345687 0.238486 -0.401653
0.023699 0.308759 0.046794
-0.111759 -0.183177 -0.066636
-0.410020 0.114783 -0.105948
-0.463257 0.012180 -0.340755
-0.238091 -0.113974 -0.441768
0.045816 -0.130172 0.418363
0.285826 -0.090050 -0.400501
0.439810 0.004564 -0.170622
0.177086 -0.020899 0.135790
-0.317406 0.208437 -0.000587
0.038904 -0.123643 0.326112
0.229751 0.238442 0.138705
-0.225339 0.341055 -0.158568
-0.160761 -0.136216 -0.479780
-0.081270 -0.232134 -0.161709
-0.138662 0.246492 0.073803
0.248834 0.143543 -0.494645
0.113478 0.049038 0.353692
-0.291585 -0.080613 -0.433923
0.415937 -0.038664 0.344371
0.346309 0.168052 -0.438443
0.082642 -0.145768 -0.491199
-0.105845 -0.190215 -0.079829
-0.101441 0.174967 -0.487730
0.159093 0.338217 -0.436403
-0.301948 -0.127272 -0.223442
0.343157 0.226754 -0.410790
0.303774 -0.057204 -0.456537
0.218271 -0.040055 0.220667
-0.355288 0.217872 -0.090437
0.438455 0.236738 0.236318
-0.449447 0.176281 -0.371323
-0.386849 0.042256 -0.064486
0.091391 -0.065293 0.445431
0.097222 0.301657 0.087185
0.184046 -0.169351 -0.289713
-0.127065 -0.212841 -0.241240
0.494935 0.108062 0.088110
0.013050 -0.144907 0.356695
0.173965 -0.036099 0.185563
0.200337 0.340824 -0.350495
0.081375 -0.145513 -0.490331
0.298504 -0.076621 -0.415892
0.383198 0.291851 -0.211417
0.257512 0.325404 -0.347129
0.127431 0.058412 0.360085
0.258389 0.355057 -0.113735
0.285234 -0.003243 -0.492269
-0.197485 0.213255 -0.486687
