ply
format ascii 1.0
element vertex 1752
property float x
property float y
property float z
end_header
0.058583 0.179882 0.095482
0.060525 0.179882 0.094910
0.062467 0.179882 0.094338
0.064409 0.179882 0.093766
0.066351 0.179882 0.093195
0.068293 0.179882 0.092623
0.070235 0.179882 0.092051
0.072668 0.180103 0.093307
0.074608 0.180103 0.092736
0.076548 0.180103 0.092165
0.078488 0.180103 0.091593
0.080427 0.180103 0.091022
0.082367 0.180103 0.090451
0.084784 0.180324 0.091707
0.086722 0.180324 0.091137
0.088660 0.180324 0.090566
0.090598 0.180324 0.089995
0.092536 0.180324 0.089425
0.094474 0.180324 0.088854
0.096412 0.180324 0.088284
0.098350 0.180324 0.087713
0.100287 0.180324 0.087142
0.102225 0.180324 0.086572
0.104163 0.180324 0.086001
0.106555 0.180544 0.087261
0.108491 0.180544 0.086691
0.110426 0.180544 0.086121
0.112362 0.180544 0.085551
0.114298 0.180544 0.084981
0.116234 0.180544 0.084411
0.118170 0.180544 0.083841
0.120106 0.180544 0.083271
0.122478 0.180764 0.084532
0.124411 0.180764 0.083963
0.125913 0.180544 0.081561
0.128708 0.180983 0.084653
0.131066 0.181202 0.085910
0.133419 0.181420 0.087165
0.136187 0.181855 0.090233
0.138527 0.182072 0.091479
0.140863 0.182289 0.092722
0.143603 0.182721 0.095765
0.145926 0.182936 0.097001
0.148244 0.183151 0.098233
0.150557 0.183365 0.099463
0.152865 0.183579 0.100691
0.155169 0.183792 0.101916
0.157860 0.184218 0.104918
0.160151 0.184430 0.106134
0.162823 0.184853 0.109119
0.165102 0.185063 0.110327
0.167377 0.185274 0.111533
0.169646 0.185484 0.112737
0.171911 0.185693 0.113938
0.174543 0.186111 0.116888
0.176796 0.186319 0.118081
0.179044 0.186527 0.119272
0.181288 0.186734 0.120460
0.183527 0.186941 0.121646
0.185762 0.187147 0.122830
0.188346 0.187559 0.125740
0.190921 0.187969 0.128639
0.193136 0.188174 0.129810
0.195348 0.188377 0.130977
0.197554 0.188581 0.132143
0.200097 0.188987 0.135014
0.201954 0.188987 0.134467
0.204148 0.189189 0.135626
0.206337 0.189391 0.136782
0.210492 0.190793 0.148063
0.214589 0.192176 0.159186
0.218943 0.193732 0.171786
0.222922 0.195074 0.182583
0.226846 0.196398 0.193232
0.230718 0.197704 0.203737
0.234247 0.198809 0.212554
0.238021 0.200082 0.222800
0.241744 0.201339 0.232909
0.245418 0.202579 0.242884
0.249045 0.203802 0.252728
0.252623 0.205010 0.262445
0.255897 0.206033 0.270601
0.257854 0.206202 0.271535
0.259807 0.206371 0.272467
0.262009 0.206708 0.274825
0.263953 0.206876 0.275752
0.265894 0.207044 0.276677
0.267830 0.207212 0.277600
0.269764 0.207379 0.278522
0.271693 0.207546 0.279442
0.273619 0.207712 0.280360
0.275542 0.207878 0.281276
0.277461 0.208044 0.282191
0.279142 0.208044 0.281696
0.280588 0.207878 0.279790
0.282503 0.208044 0.280707
0.284183 0.208044 0.280212
0.285864 0.208044 0.279717
0.287772 0.208210 0.280632
0.289451 0.208210 0.280138
0.291354 0.208375 0.281052
0.293031 0.208375 0.280558
0.294929 0.208540 0.281471
0.296605 0.208540 0.280978
0.298714 0.208870 0.283292
0.300387 0.208870 0.282800
0.302273 0.209034 0.283708
0.303945 0.209034 0.283216
0.305616 0.209034 0.282724
0.307495 0.209198 0.283631
0.309165 0.209198 0.283140
0.311040 0.209361 0.284046
0.312708 0.209361 0.283555
0.314578 0.209524 0.284460
0.316245 0.209524 0.283969
0.317912 0.209524 0.283479
0.319775 0.209687 0.284383
0.321440 0.209687 0.283893
0.323105 0.209687 0.283402
0.324962 0.209850 0.284306
0.326626 0.209850 0.283816
0.328290 0.209850 0.283326
0.330140 0.210012 0.284229
0.331803 0.210012 0.283740
0.333465 0.210012 0.283250
0.335309 0.210174 0.284153
0.336970 0.210174 0.283664
0.338809 0.210336 0.284565
0.340468 0.210336 0.284076
0.342128 0.210336 0.283588
0.343787 0.210336 0.283099
0.345618 0.210498 0.284000
0.347276 0.210498 0.283512
0.348934 0.210498 0.283023
0.350759 0.210659 0.283924
0.352415 0.210659 0.283436
0.354072 0.210659 0.282948
0.355728 0.210659 0.282460
0.357545 0.210820 0.283360
0.359200 0.210820 0.282873
0.360855 0.210820 0.282386
0.362510 0.210820 0.281898
0.364165 0.210820 0.281411
0.365973 0.210980 0.282311
0.367626 0.210980 0.281824
0.369279 0.210980 0.281337
0.370933 0.210980 0.280850
0.372586 0.210980 0.280364
0.374239 0.210980 0.279877
0.375893 0.210980 0.279390
0.377689 0.211141 0.280291
0.379340 0.211141 0.279804
0.380992 0.211141 0.279318
0.382644 0.211141 0.278832
0.384432 0.211301 0.279732
0.386083 0.211301 0.279246
0.387733 0.211301 0.278760
0.389515 0.211460 0.279660
0.391164 0.211460 0.279175
0.392813 0.211460 0.278689
0.394462 0.211460 0.278203
0.396111 0.211460 0.277718
0.397635 0.211301 0.275844
0.399286 0.211301 0.275358
0.400936 0.211301 0.274873
0.402586 0.211301 0.274387
0.404237 0.211301 0.273901
0.405887 0.211301 0.273415
0.407422 0.211141 0.271536
0.409074 0.211141 0.271049
0.410725 0.211141 0.270563
0.412377 0.211141 0.270076
0.414029 0.211141 0.269590
0.415681 0.211141 0.269104
0.417333 0.211141 0.268617
0.418985 0.211141 0.268131
0.420636 0.211141 0.267644
0.422288 0.211141 0.267158
0.423839 0.210980 0.265272
0.425492 0.210980 0.264785
0.427146 0.210980 0.264298
0.428702 0.210820 0.262407
0.430357 0.210820 0.261920
0.431918 0.210659 0.260026
0.433575 0.210659 0.259538
0.435231 0.210659 0.259050
0.436798 0.210498 0.257151
0.438455 0.210498 0.256663
0.440113 0.210498 0.256175
0.441686 0.210336 0.254272
0.443261 0.210174 0.252365
0.444922 0.210174 0.251876
0.446502 0.210012 0.249966
0.448085 0.209850 0.248052
0.449670 0.209687 0.246134
0.451259 0.209524 0.244213
0.452850 0.209361 0.242289
0.454444 0.209198 0.240361
0.456114 0.209198 0.239869
0.457641 0.208870 0.236495
0.459174 0.208540 0.233108
0.460782 0.208375 0.231163
0.462392 0.208210 0.229214
0.463939 0.207878 0.225801
0.465557 0.207712 0.223842
0.467114 0.207379 0.220410
0.468739 0.207212 0.218441
0.470306 0.206876 0.214990
0.471761 0.206202 0.208548
0.473285 0.205693 0.203561
0.474760 0.205010 0.197035
0.475966 0.203454 0.182806
0.477137 0.201695 0.166769
0.478385 0.200082 0.152022
0.479763 0.198809 0.140260
0.481372 0.198258 0.134873
0.483041 0.197889 0.131089
0.484717 0.197518 0.127291
0.486399 0.197146 0.123478
0.488041 0.196586 0.117995
0.489738 0.196210 0.114145
0.491398 0.195644 0.108607
0.493025 0.194884 0.101349
0.494584 0.193732 0.090622
-0.486297 0.119757 -0.257182
-0.479708 0.120843 -0.249530
-0.474525 0.121562 -0.244704
-0.470716 0.121920 -0.242663
-0.468259 0.121920 -0.243386
-0.353832 0.151782 -0.013326
-0.343286 0.154018 0.003319
-0.334969 0.155668 0.015440
-0.326768 0.157295 0.027393
-0.320657 0.158366 0.035060
-0.314602 0.159428 0.042658
-0.310542 0.159956 0.046120
-0.306501 0.160481 0.049566
-0.301520 0.161264 0.055015
-0.297522 0.161783 0.058421
-0.293543 0.162299 0.061812
-0.289581 0.162814 0.065188
-0.286568 0.163070 0.066564
-0.282635 0.163581 0.069918
-0.279640 0.163835 0.071284
-0.275736 0.164342 0.074615
-0.272759 0.164595 0.075971
-0.268884 0.165099 0.079281
-0.265924 0.165350 0.080628
-0.262077 0.165851 0.083916
-0.259135 0.166100 0.085253
-0.255316 0.166597 0.088520
-0.252392 0.166845 0.089847
-0.249473 0.167092 0.091171
-0.246561 0.167339 0.092492
-0.243656 0.167585 0.093810
-0.240757 0.167831 0.095126
-0.237865 0.168076 0.096438
-0.234979 0.168320 0.097748
-0.232099 0.168564 0.099054
-0.229226 0.168808 0.100358
-0.226358 0.169050 0.101659
-0.223498 0.169293 0.102957
-0.219812 0.169776 0.106139
-0.217795 0.169776 0.105545
-0.214953 0.170017 0.106834
-0.212118 0.170257 0.108121
-0.209288 0.170497 0.109405
-0.206465 0.170736 0.110686
-0.203648 0.170974 0.111964
-0.201642 0.170974 0.111373
-0.198032 0.171450 0.114512
-0.195233 0.171687 0.115782
-0.192441 0.171924 0.117049
-0.189654 0.172160 0.118314
-0.187660 0.172160 0.117726
-0.184881 0.172395 0.118988
-0.182889 0.172395 0.118402
-0.180119 0.172630 0.119662
-0.177354 0.172865 0.120919
-0.175366 0.172865 0.120334
-0.172610 0.173099 0.121589
-0.169860 0.173332 0.122842
-0.167116 0.173565 0.124092
-0.165134 0.173565 0.123508
-0.163152 0.173565 0.122925
-0.160418 0.173798 0.124173
-0.158439 0.173798 0.123590
-0.156459 0.173798 0.123007
-0.153735 0.174030 0.124254
-0.151758 0.174030 0.123672
-0.149780 0.174030 0.123090
-0.147066 0.174261 0.124335
-0.145091 0.174261 0.123754
-0.143116 0.174261 0.123172
-0.140412 0.174492 0.124416
-0.138439 0.174492 0.123835
-0.136465 0.174492 0.123254
-0.134492 0.174492 0.122673
-0.131801 0.174723 0.123916
-0.129829 0.174723 0.123336
-0.127858 0.174723 0.122755
-0.125177 0.174953 0.123997
-0.123208 0.174953 0.123418
-0.121239 0.174953 0.122838
-0.118567 0.175182 0.124078
-0.116600 0.175182 0.123499
-0.114633 0.175182 0.122920
-0.111972 0.175411 0.124159
-0.110007 0.175411 0.123581
-0.108042 0.175411 0.123002
-0.106077 0.175411 0.122423
-0.103428 0.175640 0.123662
-0.101465 0.175640 0.123084
-0.099502 0.175640 0.122506
-0.096863 0.175868 0.123743
-0.094902 0.175868 0.123165
-0.092941 0.175868 0.122588
-0.090312 0.176095 0.123824
-0.088353 0.176095 0.123247
-0.086394 0.176095 0.122670
-0.084436 0.176095 0.122094
-0.081818 0.176323 0.123328
-0.079861 0.176323 0.122752
-0.077905 0.176323 0.122176
-0.075948 0.176323 0.121600
-0.073342 0.176549 0.122834
-0.071388 0.176549 0.122258
-0.069434 0.176549 0.121683
-0.066837 0.176775 0.122915
-0.064885 0.176775 0.122341
-0.062933 0.176775 0.121766
-0.060980 0.176775 0.121191
-0.059028 0.176775 0.120616
-0.056445 0.177001 0.121848
-0.054495 0.177001 0.121274
-0.052545 0.177001 0.120700
-0.050595 0.177001 0.120125
-0.048644 0.177001 0.119551
-0.046694 0.177001 0.118977
-0.044744 0.177001 0.118403
-0.042794 0.177001 0.117828
-0.040843 0.177001 0.117254
-0.038893 0.177001 0.116680
-0.036943 0.177001 0.116106
-0.034992 0.177001 0.115531
-0.032438 0.177226 0.116768
-0.030490 0.177226 0.116194
-0.028542 0.177226 0.115621
-0.026594 0.177226 0.115047
-0.024645 0.177226 0.114473
-0.022697 0.177226 0.113900
-0.020749 0.177226 0.113326
-0.018801 0.177226 0.112752
-0.016266 0.177451 0.113990
-0.014320 0.177451 0.113417
-0.012374 0.177451 0.112844
-0.010428 0.177451 0.112271
-0.008482 0.177451 0.111698
-0.006536 0.177451 0.111125
-0.004590 0.177451 0.110552
-0.002644 0.177451 0.109979
-0.000697 0.177451 0.109406
0.001249 0.177451 0.108833
0.003195 0.177451 0.108260
0.005141 0.177451 0.107687
0.007087 0.177451 0.107114
0.009591 0.177675 0.108356
0.011535 0.177675 0.107784
0.013479 0.177675 0.107212
0.015423 0.177675 0.106639
0.017368 0.177675 0.106067
0.019312 0.177675 0.105494
0.021256 0.177675 0.104922
0.023742 0.177899 0.106165
0.025684 0.177899 0.105594
0.027626 0.177899 0.105022
0.029568 0.177899 0.104450
0.030976 0.177675 0.102060
0.033452 0.177899 0.103306
0.035394 0.177899 0.102734
0.037336 0.177899 0.102163
0.039278 0.177899 0.101591
0.041220 0.177899 0.101019
0.043162 0.177899 0.100447
0.045104 0.177899 0.099875
0.047046 0.177899 0.099303
0.048988 0.177899 0.098732
0.050930 0.177899 0.098160
0.052872 0.177899 0.097588
0.055323 0.178122 0.098838
0.057263 0.178122 0.098267
0.059203 0.178122 0.097696
0.061143 0.178122 0.097124
0.062582 0.177899 0.094729
0.065023 0.178122 0.095982
0.066963 0.178122 0.095411
0.068903 0.178122 0.094840
0.070843 0.178122 0.094268
0.072783 0.178122 0.093697
0.074722 0.178122 0.093126
0.076662 0.178122 0.092555
0.078602 0.178122 0.091983
0.080542 0.178122 0.091412
0.082482 0.178122 0.090841
0.084422 0.178122 0.090270
0.086837 0.178345 0.091526
0.088775 0.178345 0.090956
0.090713 0.178345 0.090385
0.092651 0.178345 0.089814
0.094589 0.178345 0.089244
0.096526 0.178345 0.088673
0.098464 0.178345 0.088102
0.100402 0.178345 0.087532
0.102798 0.178567 0.088790
0.104733 0.178567 0.088220
0.106669 0.178567 0.087650
0.108605 0.178567 0.087080
0.110541 0.178567 0.086510
0.112477 0.178567 0.085940
0.114857 0.178789 0.087198
0.116791 0.178789 0.086629
0.118725 0.178789 0.086060
0.120658 0.178789 0.085490
0.122592 0.178789 0.084921
0.124526 0.178789 0.084351
0.126460 0.178789 0.083782
0.129251 0.179231 0.086866
0.131606 0.179451 0.088120
0.133956 0.179671 0.089371
0.136719 0.180110 0.092431
0.138641 0.180110 0.091865
0.140976 0.180329 0.093108
0.143717 0.180764 0.096151
0.146039 0.180982 0.097385
0.148357 0.181198 0.098617
0.151071 0.181631 0.101636
0.153376 0.181846 0.102860
0.155677 0.182061 0.104081
0.158364 0.182490 0.107076
0.160652 0.182703 0.108289
0.162936 0.182917 0.109500
0.165215 0.183129 0.110708
0.167489 0.183342 0.111914
0.170135 0.183765 0.114874
0.172397 0.183976 0.116071
0.174655 0.184187 0.117267
0.176907 0.184397 0.118460
0.179156 0.184607 0.119650
0.181399 0.184816 0.120838
0.183998 0.185233 0.123759
0.186230 0.185441 0.124939
0.188811 0.185856 0.127842
0.191031 0.186063 0.129014
0.193247 0.186269 0.130184
0.195458 0.186475 0.131352
0.197664 0.186680 0.132517
0.200207 0.187090 0.135388
0.202064 0.187090 0.134841
0.204258 0.187294 0.135999
0.206779 0.187702 0.138853
0.211901 0.189713 0.155115
0.216289 0.191294 0.167785
0.220298 0.192657 0.178641
0.224252 0.194001 0.189349
0.228152 0.195327 0.199910
0.231707 0.196449 0.208776
0.235508 0.197742 0.219076
0.239259 0.199018 0.229238
0.242960 0.200276 0.239266
0.246613 0.201519 0.249162
0.250218 0.202745 0.258929
0.253776 0.203955 0.268569
0.256256 0.204468 0.272376
0.258211 0.204639 0.273308
0.260162 0.204809 0.274238
0.262110 0.204979 0.275166
0.264304 0.205318 0.277514
0.266242 0.205488 0.278437
0.268177 0.205656 0.279357
0.270108 0.205825 0.280277
0.272035 0.205993 0.281194
0.273959 0.206161 0.282110
0.275880 0.206328 0.283024
0.277561 0.206328 0.282529
0.279006 0.206161 0.280624
0.280688 0.206161 0.280129
0.282370 0.206161 0.279633
0.284283 0.206328 0.280550
0.285963 0.206328 0.280055
0.287871 0.206495 0.280970
0.289775 0.206662 0.281883
0.291453 0.206662 0.281389
0.293131 0.206662 0.280895
0.295028 0.206829 0.281808
0.296704 0.206829 0.281315
0.298813 0.207161 0.283628
0.300486 0.207161 0.283136
0.302372 0.207327 0.284044
0.304044 0.207327 0.283552
0.305924 0.207492 0.284459
0.307594 0.207492 0.283967
0.309264 0.207492 0.283475
0.311139 0.207657 0.284382
0.312807 0.207657 0.283890
0.314677 0.207822 0.284795
0.316343 0.207822 0.284304
0.318010 0.207822 0.283814
0.319873 0.207987 0.284718
0.321539 0.207987 0.284228
0.323204 0.207987 0.283737
0.325061 0.208151 0.284641
0.326725 0.208151 0.284151
0.328388 0.208151 0.283661
0.330239 0.208315 0.284564
0.331901 0.208315 0.284074
0.333747 0.208478 0.284976
0.335407 0.208478 0.284487
0.337068 0.208478 0.283998
0.338907 0.208642 0.284898
0.340567 0.208642 0.284410
0.342226 0.208642 0.283921
0.344059 0.208805 0.284821
0.345717 0.208805 0.284333
0.347374 0.208805 0.283845
0.349201 0.208967 0.284744
0.350857 0.208967 0.284256
0.352513 0.208967 0.283769
0.354170 0.208967 0.283281
0.355826 0.208967 0.282793
0.357643 0.209130 0.283693
0.359298 0.209130 0.283206
0.360953 0.209130 0.282718
0.362608 0.209130 0.282231
0.364417 0.209292 0.283130
0.366071 0.209292 0.282643
0.367724 0.209292 0.282156
0.369377 0.209292 0.281670
0.371031 0.209292 0.281183
0.372684 0.209292 0.280696
0.374337 0.209292 0.280209
0.376135 0.209454 0.281109
0.377786 0.209454 0.280623
0.379438 0.209454 0.280136
0.381090 0.209454 0.279650
0.382742 0.209454 0.279164
0.384530 0.209615 0.280064
0.386315 0.209777 0.280963
0.387964 0.209777 0.280477
0.389613 0.209777 0.279992
0.391262 0.209777 0.279506
0.392910 0.209777 0.279020
0.394559 0.209777 0.278535
0.396208 0.209777 0.278049
0.397733 0.209615 0.276176
0.399383 0.209615 0.275690
0.401034 0.209615 0.275204
0.402684 0.209615 0.274718
0.404334 0.209615 0.274232
0.405985 0.209615 0.273746
0.407635 0.209615 0.273260
0.409285 0.209615 0.272775
0.410823 0.209454 0.270895
0.412475 0.209454 0.270409
0.414127 0.209454 0.269922
0.415779 0.209454 0.269436
0.417430 0.209454 0.268949
0.419082 0.209454 0.268463
0.420734 0.209454 0.267977
0.422386 0.209454 0.267490
0.424038 0.209454 0.267004
0.425590 0.209292 0.265117
0.427244 0.209292 0.264630
0.428897 0.209292 0.264143
0.430455 0.209130 0.262253
0.432110 0.209130 0.261765
0.433673 0.208967 0.259871
0.435329 0.208967 0.259383
0.436985 0.208967 0.258895
0.438554 0.208805 0.256996
0.440211 0.208805 0.256508
0.441784 0.208642 0.254605
0.443443 0.208642 0.254117
0.445020 0.208478 0.252210
0.446681 0.208478 0.251721
0.448263 0.208315 0.249810
0.449847 0.208151 0.247896
0.451434 0.207987 0.245979
0.453024 0.207822 0.244058
0.454617 0.207657 0.242133
0.456213 0.207492 0.240205
0.457812 0.207327 0.238274
0.459413 0.207161 0.236338
0.460881 0.206662 0.231500
0.462491 0.206495 0.229552
0.464105 0.206328 0.227600
0.465721 0.206161 0.225644
0.467277 0.205825 0.222219
0.468839 0.205488 0.218780
0.470467 0.205318 0.216808
0.471921 0.204639 0.210379
0.473386 0.203955 0.203903
0.474918 0.203438 0.198888
0.476068 0.201695 0.183153
0.477295 0.200098 0.168685
0.478489 0.198291 0.152375
0.479814 0.196820 0.138997
0.481477 0.196449 0.135229
0.483146 0.196077 0.131446
0.484822 0.195703 0.127649
0.486504 0.195327 0.123837
0.488147 0.194761 0.118354
0.489844 0.194382 0.114505
0.491504 0.193810 0.108968
0.493132 0.193043 0.101711
0.494692 0.191881 0.090986
-0.484773 0.117594 -0.253884
-0.479562 0.118324 -0.249034
-0.474380 0.119050 -0.244209
-0.470570 0.119411 -0.242169
-0.466771 0.119772 -0.240133
-0.352646 0.149838 -0.010710
-0.342123 0.152090 0.005891
-0.334842 0.153476 0.015872
-0.326642 0.155118 0.027821
-0.320531 0.156200 0.035487
-0.314477 0.157272 0.043082
-0.310417 0.157804 0.046544
-0.306376 0.158334 0.049989
-0.301396 0.159124 0.055436
-0.297399 0.159648 0.058842
-0.293419 0.160170 0.062232
-0.289458 0.160689 0.065606
-0.286445 0.160947 0.066982
-0.282512 0.161463 0.070335
-0.278598 0.161976 0.073672
-0.275614 0.162232 0.075031
-0.272637 0.162487 0.076386
-0.268762 0.162996 0.079695
-0.264904 0.163502 0.082989
-0.261956 0.163755 0.084329
-0.258127 0.164258 0.087601
-0.255195 0.164508 0.088931
-0.252271 0.164758 0.090258
-0.249352 0.165008 0.091581
-0.246441 0.165257 0.092902
-0.243536 0.165505 0.094220
-0.240637 0.165753 0.095535
-0.237744 0.166000 0.096847
-0.234007 0.166493 0.100059
-0.231131 0.166739 0.101362
-0.228262 0.166984 0.102662
-0.225399 0.167229 0.103959
-0.222543 0.167473 0.105253
-0.219692 0.167716 0.106544
-0.217676 0.167716 0.105950
-0.214834 0.167959 0.107239
-0.211999 0.168202 0.108525
-0.209169 0.168444 0.109809
-0.206346 0.168685 0.111089
-0.203529 0.168926 0.112367
-0.201523 0.168926 0.111777
-0.197914 0.169406 0.114914
-0.195115 0.169646 0.116184
-0.192323 0.169884 0.117451
-0.189536 0.170123 0.118715
-0.187541 0.170123 0.118127
-0.184763 0.170360 0.119389
-0.181991 0.170598 0.120648
-0.180001 0.170598 0.120062
-0.177237 0.170834 0.121319
-0.174479 0.171071 0.122573
-0.172493 0.171071 0.121988
-0.168981 0.171541 0.125074
-0.166999 0.171541 0.124490
-0.165017 0.171541 0.123907
-0.162281 0.171776 0.125154
-0.160301 0.171776 0.124571
-0.158321 0.171776 0.123988
-0.155596 0.172010 0.125234
-0.153618 0.172010 0.124652
-0.151641 0.172010 0.124070
-0.148925 0.172244 0.125314
-0.146950 0.172244 0.124732
-0.144974 0.172244 0.124151
-0.142269 0.172477 0.125394
-0.140295 0.172477 0.124813
-0.138322 0.172477 0.124232
-0.135626 0.172710 0.125474
-0.133655 0.172710 0.124893
-0.131684 0.172710 0.124313
-0.129713 0.172710 0.123732
-0.127029 0.172942 0.124973
-0.125060 0.172942 0.124393
-0.123091 0.172942 0.123814
-0.120418 0.173174 0.125053
-0.118451 0.173174 0.124474
-0.116484 0.173174 0.123895
-0.113821 0.173405 0.125133
-0.111856 0.173405 0.124554
-0.109200 0.173636 0.125790
-0.107237 0.173636 0.125212
-0.105274 0.173636 0.124634
-0.103312 0.173636 0.124056
-0.100668 0.173866 0.125292
-0.098707 0.173866 0.124714
-0.096747 0.173866 0.124137
-0.094786 0.173866 0.123560
-0.092154 0.174095 0.124794
-0.090196 0.174095 0.124217
-0.088237 0.174095 0.123641
-0.086278 0.174095 0.123064
-0.083659 0.174325 0.124298
-0.081702 0.174325 0.123722
-0.079746 0.174325 0.123145
-0.077789 0.174325 0.122569
-0.075181 0.174553 0.123802
-0.073227 0.174553 0.123227
-0.071272 0.174553 0.122651
-0.069318 0.174553 0.122076
-0.066722 0.174782 0.123308
-0.064769 0.174782 0.122733
-0.062817 0.174782 0.122158
-0.060865 0.174782 0.121583
-0.058280 0.175009 0.122815
-0.056330 0.175009 0.122240
-0.054380 0.175009 0.121666
-0.052429 0.175009 0.121092
-0.050479 0.175009 0.120518
-0.048529 0.175009 0.119943
-0.046579 0.175009 0.119369
-0.044012 0.175237 0.120601
-0.042064 0.175237 0.120028
-0.040116 0.175237 0.119454
-0.038778 0.175009 0.117072
-0.036827 0.175009 0.116498
-0.034877 0.175009 0.115923
-0.032323 0.175237 0.117160
-0.030375 0.175237 0.116586
-0.028426 0.175237 0.116012
-0.026478 0.175237 0.115439
-0.024530 0.175237 0.114865
-0.022582 0.175237 0.114291
-0.020043 0.175463 0.115528
-0.018097 0.175463 0.114955
-0.016151 0.175463 0.114382
-0.014205 0.175463 0.113809
-0.012259 0.175463 0.113235
-0.010313 0.175463 0.112662
-0.008367 0.175463 0.112089
-0.006421 0.175463 0.111516
-0.004475 0.175463 0.110943
-0.001958 0.175690 0.112182
-0.000582 0.175463 0.109797
0.001364 0.175463 0.109224
0.003310 0.175463 0.108651
0.005256 0.175463 0.108078
0.007202 0.175463 0.107505
0.009148 0.175463 0.106932
0.011650 0.175690 0.108175
0.013595 0.175690 0.107602
0.015539 0.175690 0.107030
0.017483 0.175690 0.106457
0.019427 0.175690 0.105885
0.021371 0.175690 0.105313
0.023315 0.175690 0.104740
0.025259 0.175690 0.104168
0.027203 0.175690 0.103595
0.029683 0.175915 0.104840
0.031625 0.175915 0.104269
0.033567 0.175915 0.103697
0.035509 0.175915 0.103125
0.037451 0.175915 0.102553
0.039393 0.175915 0.101981
0.041335 0.175915 0.101409
0.043277 0.175915 0.100838
0.045219 0.175915 0.100266
0.047161 0.175915 0.099694
0.049103 0.175915 0.099122
0.051558 0.176141 0.100371
0.053498 0.176141 0.099799
0.055438 0.176141 0.099228
0.057378 0.176141 0.098657
0.059318 0.176141 0.098086
0.061258 0.176141 0.097514
0.063198 0.176141 0.096943
0.065138 0.176141 0.096372
0.067077 0.176141 0.095801
0.069017 0.176141 0.095230
0.070957 0.176141 0.094658
0.072897 0.176141 0.094087
0.074837 0.176141 0.093516
0.076777 0.176141 0.092945
0.079200 0.176366 0.094198
0.081138 0.176366 0.093628
0.083076 0.176366 0.093057
0.085014 0.176366 0.092486
0.086952 0.176366 0.091916
0.088890 0.176366 0.091345
0.090827 0.176366 0.090775
0.092765 0.176366 0.090204
0.095169 0.176590 0.091459
0.097105 0.176590 0.090889
0.099040 0.176590 0.090319
0.100976 0.176590 0.089749
0.102912 0.176590 0.089179
0.104848 0.176590 0.088609
0.106784 0.176590 0.088039
0.108720 0.176590 0.087469
0.110656 0.176590 0.086899
0.112591 0.176590 0.086329
0.114527 0.176590 0.085759
0.116905 0.176814 0.087018
0.118839 0.176814 0.086448
0.120773 0.176814 0.085879
0.123142 0.177037 0.087136
0.125073 0.177037 0.086567
0.127005 0.177037 0.085999
0.129365 0.177260 0.087254
0.131720 0.177483 0.088508
0.134070 0.177705 0.089758
0.136415 0.177927 0.091006
0.138755 0.178148 0.092251
0.141503 0.178589 0.095299
0.143830 0.178808 0.096536
0.146559 0.179246 0.099565
0.148873 0.179465 0.100793
0.151184 0.179683 0.102019
0.153886 0.180117 0.105025
0.156183 0.180334 0.106242
0.158476 0.180550 0.107458
0.160764 0.180765 0.108671
0.163048 0.180981 0.109881
0.165327 0.181195 0.111089
0.167980 0.181624 0.114054
0.170247 0.181837 0.115253
0.172509 0.182050 0.116451
0.174766 0.182263 0.117646
0.177019 0.182475 0.118838
0.179632 0.182898 0.121769
0.181873 0.183108 0.122953
0.184468 0.183529 0.125867
0.186697 0.183738 0.127043
0.188922 0.183948 0.128218
0.191142 0.184156 0.129390
0.193357 0.184364 0.130559
0.195913 0.184780 0.133440
0.198117 0.184987 0.134601
0.200317 0.185193 0.135761
0.202174 0.185193 0.135214
0.204367 0.185399 0.136372
0.209197 0.187236 0.151019
0.213299 0.188642 0.162111
0.217659 0.190225 0.174676
0.221643 0.191590 0.185442
0.225269 0.192745 0.194478
0.229151 0.194076 0.204975
0.232981 0.195388 0.215330
0.236760 0.196683 0.225547
0.240488 0.197961 0.235628
0.244167 0.199222 0.245576
0.247798 0.200466 0.255393
0.251382 0.201695 0.265083
0.254659 0.202735 0.273217
0.256615 0.202907 0.274148
0.258568 0.203079 0.275077
0.260517 0.203251 0.276004
0.262462 0.203422 0.276930
0.264404 0.203593 0.277854
0.266590 0.203934 0.280193
0.268522 0.204104 0.281112
0.270451 0.204274 0.282028
0.272377 0.204443 0.282943
0.274299 0.204612 0.283857
0.275979 0.204612 0.283362
0.277660 0.204612 0.282867
0.279105 0.204443 0.280962
0.280787 0.204443 0.280467
0.282470 0.204443 0.279971
0.284382 0.204612 0.280888
0.286063 0.204612 0.280393
0.287971 0.204781 0.281307
0.289875 0.204949 0.282221
0.291552 0.204949 0.281727
0.293451 0.205117 0.282639
0.295127 0.205117 0.282145
0.297239 0.205453 0.284457
0.298912 0.205453 0.283965
0.300585 0.205453 0.283472
0.302471 0.205620 0.284380
0.304143 0.205620 0.283888
0.306023 0.205787 0.284795
0.307693 0.205787 0.284303
0.309569 0.205954 0.285208
0.311237 0.205954 0.284717
0.313108 0.206120 0.285621
0.314775 0.206120 0.285130
0.316442 0.206120 0.284640
0.318307 0.206286 0.285543
0.319972 0.206286 0.285053
0.321832 0.206452 0.285955
0.323495 0.206452 0.285465
0.325159 0.206452 0.284975
0.327013 0.206617 0.285877
0.328675 0.206617 0.285387
0.330337 0.206617 0.284898
0.332184 0.206782 0.285799
0.333845 0.206782 0.285309
0.335506 0.206782 0.284820
0.337166 0.206782 0.284331
0.339006 0.206947 0.285232
0.340665 0.206947 0.284743
0.342324 0.206947 0.284255
0.344157 0.207112 0.285154
0.345815 0.207112 0.284666
0.347472 0.207112 0.284178
0.349299 0.207276 0.285077
0.350955 0.207276 0.284589
0.352612 0.207276 0.284102
0.354268 0.207276 0.283614
0.355924 0.207276 0.283126
0.357741 0.207440 0.284025
0.359396 0.207440 0.283538
0.361051 0.207440 0.283051
0.362706 0.207440 0.282564
0.364515 0.207604 0.283462
0.366168 0.207604 0.282976
0.367822 0.207604 0.282489
0.369475 0.207604 0.282002
0.371128 0.207604 0.281515
0.372782 0.207604 0.281028
0.374581 0.207767 0.281928
0.376232 0.207767 0.281441
0.377884 0.207767 0.280955
0.379536 0.207767 0.280469
0.381188 0.207767 0.279982
0.382977 0.207930 0.280882
0.384628 0.207930 0.280396
0.386413 0.208093 0.281294
0.388061 0.208093 0.280809
0.389710 0.208093 0.280323
0.391359 0.208093 0.279837
0.393008 0.208093 0.279352
0.394657 0.208093 0.278866
0.396306 0.208093 0.278381
0.397831 0.207930 0.276508
0.399604 0.208093 0.277410
0.401252 0.208093 0.276924
0.402782 0.207930 0.275050
0.404432 0.207930 0.274564
0.406082 0.207930 0.274078
0.407733 0.207930 0.273592
0.409383 0.207930 0.273106
0.411033 0.207930 0.272620
0.412684 0.207930 0.272134
0.414225 0.207767 0.270254
0.415876 0.207767 0.269768
0.417528 0.207767 0.269281
0.419180 0.207767 0.268795
0.420832 0.207767 0.268309
0.422484 0.207767 0.267822
0.424136 0.207767 0.267336
0.425688 0.207604 0.265450
0.427342 0.207604 0.264963
0.428995 0.207604 0.264476
0.430553 0.207440 0.262585
0.432208 0.207440 0.262098
0.433863 0.207440 0.261611
0.435427 0.207276 0.259716
0.437083 0.207276 0.259228
0.438740 0.207276 0.258741
0.440310 0.207112 0.256842
0.441967 0.207112 0.256353
0.443542 0.206947 0.254450
0.445201 0.206947 0.253962
0.446780 0.206782 0.252055
0.448361 0.206617 0.250145
0.449946 0.206452 0.248231
0.451533 0.206286 0.246314
0.453123 0.206120 0.244393
0.454716 0.205954 0.242469
0.456384 0.205954 0.241977
0.457911 0.205620 0.238610
0.459512 0.205453 0.236675
0.461049 0.205117 0.233288
0.462658 0.204949 0.231343
0.464270 0.204781 0.229395
0.465820 0.204443 0.225982
0.467377 0.204104 0.222557
0.469000 0.203934 0.220592
0.470567 0.203593 0.217148
0.472080 0.203079 0.212207
0.473544 0.202389 0.205743
0.475019 0.201695 0.199231
0.476226 0.200113 0.185035
0.477398 0.198323 0.169034
0.478647 0.196683 0.154321
0.479918 0.195015 0.139352
0.481582 0.194640 0.135585
0.483251 0.194264 0.131803
0.484927 0.193887 0.128006
0.486610 0.193508 0.124195
0.488253 0.192936 0.118713
0.489950 0.192553 0.114865
0.491610 0.191977 0.109329
0.493239 0.191202 0.102074
0.494840 0.190225 0.093058
-0.484627 0.115069 -0.253387
-0.479416 0.115805 -0.248538
-0.475590 0.116172 -0.246486
-0.470425 0.116903 -0.241675
-0.466626 0.117267 -0.239640
-0.351463 0.147899 -0.008100
-0.341996 0.149885 0.006325
-0.333698 0.151562 0.018411
-0.326516 0.152941 0.028250
-0.320406 0.154033 0.035913
-0.314352 0.155115 0.043507
-0.309322 0.155920 0.049001
-0.305288 0.156454 0.052437
-0.301272 0.156985 0.055857
-0.297275 0.157514 0.059262
-0.292354 0.158302 0.064646
-0.289335 0.158564 0.066025
-0.285391 0.159086 0.069383
-0.282390 0.159345 0.070751
-0.278475 0.159863 0.074088
-0.275492 0.160122 0.075446
-0.271606 0.160636 0.078761
-0.267738 0.161148 0.082061
-0.264783 0.161404 0.083403
-0.260943 0.161912 0.086681
-0.258005 0.162166 0.088013
-0.254193 0.162671 0.091270
-0.251273 0.162923 0.092593
-0.248359 0.163175 0.093912
-0.245452 0.163425 0.095229
-0.242551 0.163675 0.096543
-0.239656 0.163925 0.097854
-0.236768 0.164174 0.099162
-0.233887 0.164423 0.100467
-0.231011 0.164671 0.101769
-0.228142 0.164918 0.103068
-0.225280 0.165165 0.104365
-0.222423 0.165411 0.105659
-0.219573 0.165657 0.106949
-0.216729 0.165902 0.108237
-0.214715 0.165902 0.107644
-0.211879 0.166147 0.108930
-0.209050 0.166391 0.110213
-0.206227 0.166635 0.111493
-0.203410 0.166878 0.112770
-0.199796 0.167363 0.115906
-0.197795 0.167363 0.115317
-0.194997 0.167604 0.116586
-0.192204 0.167845 0.117852
-0.189418 0.168086 0.119116
-0.187423 0.168086 0.118528
-0.184645 0.168326 0.119790
-0.181873 0.168565 0.121048
-0.179107 0.168804 0.122304
-0.176347 0.169042 0.123557
-0.174361 0.169042 0.122973
-0.172375 0.169042 0.122388
-0.168863 0.169518 0.125472
-0.166123 0.169755 0.126718
-0.164899 0.169518 0.124305
-0.162164 0.169755 0.125552
-0.160184 0.169755 0.124969
-0.158204 0.169755 0.124386
-0.155479 0.169991 0.125632
-0.153501 0.169991 0.125049
-0.151524 0.169991 0.124467
-0.148808 0.170227 0.125711
-0.146833 0.170227 0.125130
-0.144857 0.170227 0.124548
-0.142152 0.170462 0.125791
-0.140178 0.170462 0.125210
-0.138205 0.170462 0.124629
-0.135510 0.170697 0.125870
-0.133539 0.170697 0.125289
-0.130851 0.170931 0.126529
-0.128882 0.170931 0.125949
-0.126913 0.170931 0.125369
-0.124235 0.171165 0.126607
-0.122268 0.171165 0.126028
-0.120301 0.171165 0.125448
-0.118335 0.171165 0.124869
-0.115669 0.171398 0.126106
-0.113704 0.171398 0.125528
-0.111739 0.171398 0.124949
-0.109084 0.171631 0.126185
-0.107121 0.171631 0.125607
-0.105158 0.171631 0.125029
-0.102513 0.171864 0.126263
-0.100552 0.171864 0.125686
-0.098591 0.171864 0.125108
-0.096631 0.171864 0.124531
-0.093997 0.172095 0.125765
-0.092038 0.172095 0.125188
-0.090080 0.172095 0.124611
-0.088121 0.172095 0.124034
-0.085499 0.172327 0.125267
-0.083543 0.172327 0.124691
-0.081586 0.172327 0.124115
-0.079630 0.172327 0.123539
-0.077020 0.172558 0.124771
-0.075065 0.172558 0.124195
-0.073111 0.172558 0.123620
-0.071157 0.172558 0.123044
-0.068558 0.172788 0.124275
-0.066606 0.172788 0.123700
-0.064654 0.172788 0.123126
-0.062701 0.172788 0.122551
-0.060115 0.173018 0.123781
-0.058165 0.173018 0.123207
-0.056214 0.173018 0.122632
-0.054264 0.173018 0.122058
-0.052314 0.173018 0.121484
-0.050364 0.173018 0.120910
-0.048413 0.173018 0.120335
-0.045845 0.173247 0.121567
-0.043897 0.173247 0.120993
-0.041948 0.173247 0.120419
-0.040000 0.173247 0.119846
-0.038052 0.173247 0.119272
-0.036104 0.173247 0.118698
-0.034156 0.173247 0.118125
-0.032208 0.173247 0.117551
-0.030259 0.173247 0.116977
-0.028311 0.173247 0.116404
-0.025767 0.173476 0.117638
-0.023821 0.173476 0.117065
-0.021874 0.173476 0.116492
-0.019928 0.173476 0.115919
-0.017982 0.173476 0.115346
-0.016036 0.173476 0.114773
-0.014090 0.173476 0.114200
-0.012144 0.173476 0.113627
-0.010198 0.173476 0.113054
-0.008252 0.173476 0.112481
-0.006305 0.173476 0.111908
-0.003787 0.173704 0.113145
-0.001843 0.173704 0.112573
-0.000467 0.173476 0.110188
0.001479 0.173476 0.109615
0.003425 0.173476 0.109042
0.005371 0.173476 0.108469
0.007877 0.173704 0.109711
0.009821 0.173704 0.109138
0.011766 0.173704 0.108566
0.013710 0.173704 0.107993
0.015654 0.173704 0.107421
0.017598 0.173704 0.106848
0.019542 0.173704 0.106276
0.021486 0.173704 0.105703
0.023430 0.173704 0.105131
0.025374 0.173704 0.104559
0.027856 0.173932 0.105803
0.029798 0.173932 0.105231
0.031740 0.173932 0.104659
0.033682 0.173932 0.104087
0.035624 0.173932 0.103515
0.037566 0.173932 0.102943
0.040033 0.174160 0.104188
0.041973 0.174160 0.103617
0.043913 0.174160 0.103046
0.045853 0.174160 0.102474
0.047793 0.174160 0.101903
0.049733 0.174160 0.101332
0.051673 0.174160 0.100761
0.053613 0.174160 0.100189
0.055553 0.174160 0.099618
0.057493 0.174160 0.099047
0.059433 0.174160 0.098476
0.061372 0.174160 0.097904
0.063312 0.174160 0.097333
0.065252 0.174160 0.096762
0.067192 0.174160 0.096191
0.069625 0.174387 0.097441
0.071563 0.174387 0.096870
0.073501 0.174387 0.096300
0.075439 0.174387 0.095729
0.077377 0.174387 0.095159
0.079315 0.174387 0.094588
0.081253 0.174387 0.094017
0.083191 0.174387 0.093447
0.085128 0.174387 0.092876
0.087066 0.174387 0.092305
0.089004 0.174387 0.091735
0.090942 0.174387 0.091164
0.092880 0.174387 0.090594
0.095283 0.174613 0.091849
0.097219 0.174613 0.091279
0.099155 0.174613 0.090708
0.101091 0.174613 0.090138
0.103483 0.174839 0.091393
0.105417 0.174839 0.090823
0.107351 0.174839 0.090254
0.109284 0.174839 0.089684
0.111218 0.174839 0.089115
0.113152 0.174839 0.088545
0.115086 0.174839 0.087976
0.117020 0.174839 0.087407
0.118953 0.174839 0.086837
0.120887 0.174839 0.086268
0.123256 0.175065 0.087525
0.125188 0.175065 0.086956
0.127120 0.175065 0.086387
0.129479 0.175290 0.087642
0.131834 0.175514 0.088895
0.134605 0.175962 0.091959
0.136947 0.176185 0.093203
0.139284 0.176408 0.094445
0.142028 0.176852 0.097485
0.144352 0.177073 0.098718
0.146672 0.177294 0.099949
0.148987 0.177515 0.101177
0.151696 0.177954 0.104187
0.153998 0.178173 0.105407
0.156296 0.178392 0.106625
0.158589 0.178610 0.107840
0.160877 0.178827 0.109052
0.163545 0.179261 0.112027
0.165821 0.179478 0.113232
0.167713 0.179478 0.112674
0.170359 0.179909 0.115633
0.172620 0.180124 0.116830
0.175248 0.180553 0.119771
0.177498 0.180766 0.120960
0.179743 0.180980 0.122146
0.182346 0.181405 0.125064
0.184579 0.181617 0.126243
0.186808 0.181828 0.127419
0.189032 0.182039 0.128593
0.191603 0.182460 0.131483
0.193815 0.182670 0.132650
0.196024 0.182879 0.133814
0.198227 0.183088 0.134975
0.200427 0.183297 0.136134
0.202284 0.183297 0.135587
0.204477 0.183505 0.136745
0.210610 0.186172 0.158053
0.215004 0.187779 0.170687
0.218706 0.188968 0.179899
0.222671 0.190337 0.190598
0.226582 0.191688 0.201152
0.230440 0.193021 0.211563
0.234246 0.194335 0.221834
0.238002 0.195632 0.231968
0.241708 0.196912 0.241969
0.245365 0.198175 0.251838
0.248707 0.199245 0.260122
0.252275 0.200478 0.269754
0.255020 0.201175 0.274989
0.256974 0.201349 0.275917
0.258924 0.201522 0.276843
0.260871 0.201695 0.277768
0.262814 0.201867 0.278691
0.264754 0.202039 0.279613
0.266937 0.202383 0.281947
0.268867 0.202554 0.282863
0.270794 0.202725 0.283777
0.272718 0.202896 0.284689
0.274398 0.202896 0.284195
0.276079 0.202896 0.283700
0.277759 0.202896 0.283205
0.279205 0.202725 0.281300
0.280887 0.202725 0.280805
0.282569 0.202725 0.280310
0.284482 0.202896 0.281225
0.286162 0.202896 0.280731
0.288070 0.203066 0.281645
0.289974 0.203236 0.282558
0.291652 0.203236 0.282064
0.293551 0.203406 0.282975
0.295227 0.203406 0.282482
0.297339 0.203745 0.284794
0.299011 0.203745 0.284301
0.300899 0.203913 0.285208
0.302570 0.203913 0.284716
0.304452 0.204082 0.285622
0.306122 0.204082 0.285130
0.307792 0.204082 0.284639
0.309668 0.204250 0.285544
0.311336 0.204250 0.285052
0.313207 0.204418 0.285956
0.314874 0.204418 0.285465
0.316740 0.204585 0.286368
0.318405 0.204585 0.285878
0.320071 0.204585 0.285387
0.321930 0.204753 0.286290
0.323594 0.204753 0.285800
0.325258 0.204753 0.285310
0.327111 0.204920 0.286211
0.328773 0.204920 0.285721
0.330436 0.204920 0.285232
0.332282 0.205086 0.286132
0.333943 0.205086 0.285643
0.335604 0.205086 0.285154
0.337444 0.205253 0.286054
0.339104 0.205253 0.285565
0.340763 0.205253 0.285077
0.342422 0.205253 0.284588
0.344255 0.205419 0.285488
0.345913 0.205419 0.285000
0.347571 0.205419 0.284511
0.349397 0.205585 0.285410
0.351053 0.205585 0.284922
0.352710 0.205585 0.284435
0.354366 0.205585 0.283947
0.356184 0.205750 0.284845
0.357839 0.205750 0.284358
0.359494 0.205750 0.283871
0.361149 0.205750 0.283384
0.362960 0.205915 0.284282
0.364613 0.205915 0.283795
0.366266 0.205915 0.283308
0.367920 0.205915 0.282821
0.369573 0.205915 0.282334
0.371226 0.205915 0.281847
0.372880 0.205915 0.281361
0.374678 0.206080 0.282260
0.376330 0.206080 0.281773
0.377982 0.206080 0.281287
0.379634 0.206080 0.280801
0.381425 0.206245 0.281699
0.383075 0.206245 0.281213
0.384725 0.206245 0.280727
0.386510 0.206409 0.281626
0.388159 0.206409 0.281140
0.389808 0.206409 0.280654
0.391457 0.206409 0.280169
0.393106 0.206409 0.279683
0.394755 0.206409 0.279198
0.396403 0.206409 0.278712
0.398052 0.206409 0.278227
0.399701 0.206409 0.277741
0.401350 0.206409 0.277256
0.402999 0.206409 0.276770
0.404530 0.206245 0.274896
0.406180 0.206245 0.274410
0.407830 0.206245 0.273924
0.409481 0.206245 0.273438
0.411131 0.206245 0.272952
0.412781 0.206245 0.272466
0.414432 0.206245 0.271980
0.416082 0.206245 0.271494
0.417732 0.206245 0.271008
0.419383 0.206245 0.270522
0.420930 0.206080 0.268641
0.422582 0.206080 0.268154
0.424233 0.206080 0.267668
0.425885 0.206080 0.267182
0.427439 0.205915 0.265295
0.429093 0.205915 0.264808
0.430746 0.205915 0.264321
0.432306 0.205750 0.262431
0.433961 0.205750 0.261944
0.435616 0.205750 0.261456
0.437181 0.205585 0.259561
0.438838 0.205585 0.259074
0.440494 0.205585 0.258586
0.442065 0.205419 0.256687
0.443640 0.205253 0.254784
0.445299 0.205253 0.254295
0.446878 0.205086 0.252389
0.448539 0.205086 0.251900
0.450122 0.204920 0.249989
0.451708 0.204753 0.248075
0.453297 0.204585 0.246158
0.454888 0.204418 0.244237
0.456483 0.204250 0.242313
0.458081 0.204082 0.240385
0.459681 0.203913 0.238453
0.461148 0.203406 0.233625
0.462757 0.203236 0.231680
0.464369 0.203066 0.229732
0.465984 0.202896 0.227781
0.467539 0.202554 0.224362
0.469100 0.202211 0.220931
0.470727 0.202039 0.218962
0.472181 0.201349 0.212547
0.473703 0.200827 0.207580
0.475177 0.200127 0.201081
0.476328 0.198355 0.185381
0.477556 0.196731 0.170946
0.478806 0.195079 0.156263
0.480023 0.193209 0.139708
0.481739 0.193021 0.137566
0.483356 0.192452 0.132160
0.485032 0.192071 0.128364
0.486715 0.191688 0.124553
0.488358 0.191111 0.119072
0.490056 0.190725 0.115225
0.491717 0.190143 0.109690
0.493346 0.189361 0.102436
0.494947 0.188375 0.093422
-0.484480 0.112543 -0.252890
-0.479270 0.113286 -0.248042
-0.475444 0.113657 -0.245991
-0.470280 0.114394 -0.241181
-0.466481 0.114761 -0.239147
-0.350283 0.145964 -0.005496
-0.341868 0.147681 0.006759
-0.333571 0.149373 0.018842
-0.325389 0.151041 0.030757
-0.319292 0.152141 0.038400
-0.314227 0.152959 0.043931
-0.309197 0.153771 0.049424
-0.305164 0.154310 0.052859
-0.301148 0.154846 0.056278
-0.297151 0.155379 0.059682
-0.292231 0.156175 0.065065
-0.289211 0.156439 0.066443
-0.285268 0.156966 0.069801
-0.282267 0.157228 0.071168
-0.278353 0.157751 0.074504
-0.274457 0.158271 0.077824
-0.271484 0.158530 0.079175
-0.267616 0.159047 0.082474
-0.263766 0.159562 0.085758
-0.260821 0.159819 0.087093
-0.256999 0.160330 0.090356
-0.254072 0.160584 0.091681
-0.251152 0.160839 0.093003
-0.248238 0.161092 0.094322
-0.245331 0.161345 0.095639
-0.242430 0.161598 0.096952
-0.238678 0.162101 0.100168
-0.235794 0.162352 0.101472
-0.233767 0.162352 0.100875
-0.230891 0.162602 0.102176
-0.228023 0.162852 0.103475
-0.225160 0.163101 0.104771
-0.222304 0.163350 0.106064
-0.219454 0.163598 0.107355
-0.216610 0.163845 0.108642
-0.213773 0.164092 0.109927
-0.211760 0.164092 0.109334
-0.208931 0.164339 0.110617
-0.206108 0.164585 0.111897
-0.203292 0.164830 0.113174
-0.199678 0.165319 0.116308
-0.197677 0.165319 0.115719
-0.194878 0.165563 0.116988
-0.192086 0.165806 0.118254
-0.189300 0.166049 0.119517
-0.186520 0.166291 0.120777
-0.184527 0.166291 0.120190
-0.181755 0.166533 0.121448
-0.178990 0.166774 0.122704
-0.176230 0.167014 0.123957
-0.174244 0.167014 0.123372
-0.171492 0.167254 0.124623
-0.168746 0.167494 0.125871
-0.166764 0.167494 0.125287
-0.164026 0.167733 0.126533
-0.162047 0.167733 0.125950
-0.160067 0.167733 0.125367
-0.157339 0.167971 0.126612
-0.155362 0.167971 0.126029
-0.153384 0.167971 0.125447
-0.150667 0.168209 0.126690
-0.148691 0.168209 0.126108
-0.145982 0.168447 0.127349
-0.144008 0.168447 0.126768
-0.142035 0.168447 0.126187
-0.139335 0.168684 0.127427
-0.137364 0.168684 0.126847
-0.135393 0.168684 0.126266
-0.133422 0.168684 0.125686
-0.130735 0.168920 0.126924
-0.128765 0.168920 0.126345
-0.126796 0.168920 0.125765
-0.124119 0.169156 0.127002
-0.122152 0.169156 0.126423
-0.120185 0.169156 0.125844
-0.117518 0.169392 0.127080
-0.115553 0.169392 0.126501
-0.113588 0.169392 0.125923
-0.111623 0.169392 0.125344
-0.108968 0.169627 0.126579
-0.107005 0.169627 0.126001
-0.105042 0.169627 0.125424
-0.102397 0.169861 0.126657
-0.100436 0.169861 0.126080
-0.098475 0.169861 0.125503
-0.096515 0.169861 0.124925
-0.093881 0.170095 0.126158
-0.091922 0.170095 0.125582
-0.089964 0.170095 0.125005
-0.088005 0.170095 0.124428
-0.085383 0.170329 0.125660
-0.083427 0.170329 0.125084
-0.081471 0.170329 0.124508
-0.078859 0.170562 0.125739
-0.076904 0.170562 0.125164
-0.074950 0.170562 0.124588
-0.072995 0.170562 0.124013
-0.070395 0.170794 0.125243
-0.068443 0.170794 0.124668
-0.066490 0.170794 0.124093
-0.064538 0.170794 0.123518
-0.061950 0.171026 0.124747
-0.059999 0.171026 0.124173
-0.058049 0.171026 0.123599
-0.056099 0.171026 0.123024
-0.054149 0.171026 0.122450
-0.052198 0.171026 0.121876
-0.050248 0.171026 0.121302
-0.047678 0.171258 0.122532
-0.045729 0.171258 0.121958
-0.043781 0.171258 0.121385
-0.041833 0.171258 0.120811
-0.039885 0.171258 0.120237
-0.037937 0.171258 0.119664
-0.035989 0.171258 0.119090
-0.034040 0.171258 0.118516
-0.032092 0.171258 0.117943
-0.029544 0.171489 0.119175
-0.027598 0.171489 0.118602
-0.025651 0.171489 0.118029
-0.023705 0.171489 0.117456
-0.021759 0.171489 0.116883
-0.019813 0.171489 0.116310
-0.017867 0.171489 0.115737
-0.015921 0.171489 0.115164
-0.013975 0.171489 0.114591
-0.012029 0.171489 0.114018
-0.009504 0.171719 0.115253
-0.007560 0.171719 0.114681
-0.005616 0.171719 0.114108
-0.003672 0.171719 0.113536
-0.001728 0.171719 0.112964
-0.000352 0.171489 0.110580
0.002160 0.171719 0.111819
0.004104 0.171719 0.111246
0.006048 0.171719 0.110674
0.007992 0.171719 0.110101
0.009937 0.171719 0.109529
0.011881 0.171719 0.108956
0.013825 0.171719 0.108384
0.015769 0.171719 0.107812
0.017713 0.171719 0.107239
0.019657 0.171719 0.106667
0.021601 0.171719 0.106094
0.024087 0.171949 0.107337
0.026029 0.171949 0.106765
0.027971 0.171949 0.106193
0.029913 0.171949 0.105621
0.031855 0.171949 0.105049
0.033797 0.171949 0.104478
0.035739 0.171949 0.103906
0.038208 0.172179 0.105149
0.040148 0.172179 0.104578
0.042088 0.172179 0.104007
0.044028 0.172179 0.103436
0.045968 0.172179 0.102864
0.047908 0.172179 0.102293
0.049848 0.172179 0.101722
0.051788 0.172179 0.101151
0.053728 0.172179 0.100579
0.056175 0.172408 0.101825
0.058113 0.172408 0.101254
0.060050 0.172408 0.100684
0.061988 0.172408 0.100113
0.063926 0.172408 0.099543
0.065864 0.172408 0.098972
0.067802 0.172408 0.098401
0.070232 0.172636 0.099648
0.072168 0.172636 0.099078
0.074104 0.172636 0.098508
0.076039 0.172636 0.097938
0.077975 0.172636 0.097368
0.079911 0.172636 0.096798
0.081847 0.172636 0.096228
0.083783 0.172636 0.095658
0.085719 0.172636 0.095088
0.087654 0.172636 0.094518
0.089590 0.172636 0.093948
0.091526 0.172636 0.093378
0.093462 0.172636 0.092808
0.095862 0.172865 0.094059
0.097796 0.172865 0.093490
0.099730 0.172865 0.092920
0.101664 0.172865 0.092351
0.103597 0.172865 0.091781
0.105531 0.172865 0.091212
0.107465 0.172865 0.090642
0.109399 0.172865 0.090073
0.111780 0.173092 0.091326
0.113711 0.173092 0.090757
0.115643 0.173092 0.090188
0.117575 0.173092 0.089619
0.119507 0.173092 0.089051
0.121439 0.173092 0.088482
0.123370 0.173092 0.087913
0.125302 0.173092 0.087344
0.127234 0.173092 0.086775
0.130020 0.173546 0.089850
0.132372 0.173772 0.091099
0.134719 0.173998 0.092346
0.137478 0.174448 0.095396
0.139812 0.174672 0.096634
0.142141 0.174896 0.097870
0.144465 0.175119 0.099103
0.147190 0.175565 0.102124
0.149502 0.175786 0.103348
0.151809 0.176008 0.104570
0.154111 0.176229 0.105790
0.156408 0.176450 0.107007
0.158701 0.176670 0.108222
0.161377 0.177109 0.111202
0.163657 0.177327 0.112408
0.165933 0.177546 0.113612
0.168204 0.177764 0.114814
0.170846 0.178198 0.117764
0.173105 0.178414 0.118958
0.175359 0.178631 0.120149
0.177976 0.179061 0.123077
0.180219 0.179276 0.124260
0.182457 0.179490 0.125441
0.184690 0.179704 0.126620
0.187274 0.180131 0.129519
0.189496 0.180343 0.130690
0.191713 0.180555 0.131858
0.193926 0.180767 0.133024
0.196134 0.180978 0.134188
0.198337 0.181189 0.135349
0.200537 0.181400 0.136508
0.202394 0.181400 0.135961
0.207576 0.183481 0.152300
0.211689 0.184913 0.163383
0.216062 0.186525 0.175938
0.220056 0.187915 0.186695
0.223997 0.189287 0.197306
0.227883 0.190639 0.207773
0.231718 0.191974 0.218100
0.235502 0.193290 0.228288
0.239235 0.194590 0.238342
0.242919 0.195872 0.248262
0.246283 0.196957 0.256590
0.249877 0.198208 0.266272
0.253163 0.199268 0.274400
0.255120 0.199443 0.275330
0.257331 0.199793 0.277682
0.259280 0.199967 0.278606
0.261224 0.200142 0.279529
0.263165 0.200315 0.280449
0.265103 0.200489 0.281368
0.267037 0.200662 0.282285
0.268967 0.200835 0.283201
0.270894 0.201007 0.284115
0.272817 0.201180 0.285027
0.274498 0.201180 0.284532
0.276178 0.201180 0.284038
0.277859 0.201180 0.283543
0.279540 0.201180 0.283048
0.280987 0.201007 0.281143
0.282669 0.201007 0.280648
0.284581 0.201180 0.281563
0.286262 0.201180 0.281068
0.288169 0.201352 0.281983
0.290073 0.201523 0.282895
0.291751 0.201523 0.282401
0.293650 0.201695 0.283312
0.295326 0.201695 0.282819
0.297438 0.202036 0.285130
0.299110 0.202036 0.284637
0.300998 0.202207 0.285544
0.302669 0.202207 0.285052
0.304551 0.202377 0.285958
0.306221 0.202377 0.285466
0.308098 0.202546 0.286370
0.309767 0.202546 0.285879
0.311639 0.202716 0.286782
0.313306 0.202716 0.286291
0.314973 0.202716 0.285801
0.316838 0.202885 0.286703
0.318504 0.202885 0.286213
0.320365 0.203054 0.287114
0.322029 0.203054 0.286624
0.323692 0.203054 0.286134
0.325356 0.203054 0.285644
0.327209 0.203222 0.286545
0.328872 0.203222 0.286056
0.330534 0.203222 0.285566
0.332381 0.203390 0.286466
0.334041 0.203390 0.285977
0.335702 0.203390 0.285488
0.337543 0.203558 0.286388
0.339202 0.203558 0.285899
0.340861 0.203558 0.285410
0.342695 0.203726 0.286309
0.344353 0.203726 0.285821
0.346011 0.203726 0.285333
0.347839 0.203893 0.286231
0.349495 0.203893 0.285743
0.351151 0.203893 0.285255
0.352808 0.203893 0.284768
0.354464 0.203893 0.284280
0.356282 0.204060 0.285178
0.357937 0.204060 0.284691
0.359592 0.204060 0.284204
0.361247 0.204060 0.283716
0.363058 0.204227 0.284614
0.364711 0.204227 0.284127
0.366364 0.204227 0.283640
0.368018 0.204227 0.283154
0.369821 0.204393 0.284051
0.371324 0.204227 0.282180
0.373124 0.204393 0.283078
0.374776 0.204393 0.282592
0.376428 0.204393 0.282106
0.378080 0.204393 0.281619
0.379732 0.204393 0.281133
0.381522 0.204559 0.282031
0.383173 0.204559 0.281545
0.384959 0.204725 0.282443
0.386608 0.204725 0.281957
0.388257 0.204725 0.281471
0.389906 0.204725 0.280986
0.391554 0.204725 0.280500
0.393203 0.204725 0.280015
0.394852 0.204725 0.279529
0.396501 0.204725 0.279044
0.398150 0.204725 0.278558
0.399799 0.204725 0.278073
0.401448 0.204725 0.277587
0.403097 0.204725 0.277102
0.404745 0.204725 0.276616
0.406278 0.204559 0.274742
0.407928 0.204559 0.274256
0.409578 0.204559 0.273770
0.411229 0.204559 0.273284
0.412879 0.204559 0.272798
0.414529 0.204559 0.272312
0.416180 0.204559 0.271826
0.417830 0.204559 0.271340
0.419481 0.204559 0.270854
0.421131 0.204559 0.270368
0.422679 0.204393 0.268486
0.424331 0.204393 0.268000
0.425983 0.204393 0.267514
0.427537 0.204227 0.265627
0.429191 0.204227 0.265141
0.430844 0.204227 0.264654
0.432404 0.204060 0.262763
0.434059 0.204060 0.262276
0.435714 0.204060 0.261789
0.437368 0.204060 0.261302
0.438936 0.203893 0.259407
