ply
format ascii 1.0
element vertex 1748
property float x
property float y
property float z
end_header
0.210196 0.225430 0.116864
0.211407 0.223493 0.120961
0.213085 0.222527 0.123123
0.214758 0.221564 0.125280
0.216428 0.220603 0.127433
0.217618 0.218687 0.131482
0.219279 0.217732 0.133621
0.220937 0.216780 0.135754
0.222590 0.215829 0.137883
0.224240 0.214881 0.140007
0.221590 0.205513 0.158855
0.221804 0.201824 0.166420
0.221548 0.197258 0.175724
0.221294 0.192742 0.184926
0.221506 0.189164 0.192262
0.221716 0.185618 0.199535
0.221925 0.182102 0.206745
0.221674 0.177749 0.215614
0.221881 0.174300 0.222687
0.222085 0.170880 0.229699
0.222288 0.167490 0.236652
0.222490 0.164128 0.243547
0.222241 0.159965 0.252028
0.222441 0.156666 0.258794
0.222639 0.153394 0.265503
0.222836 0.150149 0.272157
0.223030 0.146931 0.278757
0.223223 0.143740 0.285302
0.222978 0.139787 0.293354
0.223169 0.136654 0.299779
0.223359 0.133546 0.306153
0.224414 0.132001 0.309429
0.225464 0.130463 0.312691
0.226945 0.129696 0.314425
0.228423 0.128931 0.316156
0.229898 0.128167 0.317883
0.231809 0.128167 0.318098
0.233279 0.127405 0.319821
0.235187 0.127405 0.320035
0.237096 0.127405 0.320250
0.239005 0.127405 0.320465
0.240914 0.127405 0.320679
0.242822 0.127405 0.320894
0.245636 0.128931 0.318092
0.248005 0.129696 0.316794
0.250378 0.130463 0.315493
0.252756 0.131231 0.314190
0.255604 0.132773 0.311360
0.257995 0.133546 0.310049
0.260390 0.134320 0.308735
0.262791 0.135097 0.307418
0.265674 0.136654 0.304560
0.268087 0.137435 0.303235
0.270505 0.138217 0.301908
0.272927 0.139001 0.300577
0.275355 0.139787 0.299245
0.277788 0.140574 0.297909
0.281719 0.143740 0.291881
0.283168 0.142946 0.293666
0.284614 0.142154 0.295448
0.286560 0.142154 0.295667
0.288506 0.142154 0.295886
0.290452 0.142154 0.296105
0.292398 0.142154 0.296324
0.294344 0.142154 0.296542
0.296289 0.142154 0.296761
0.298235 0.142154 0.296980
0.300181 0.142154 0.297199
0.302127 0.142154 0.297418
0.304073 0.142154 0.297637
0.306019 0.142154 0.297856
0.307965 0.142154 0.298074
0.309910 0.142154 0.298293
0.311856 0.142154 0.298512
0.313272 0.141363 0.300287
0.315215 0.141363 0.300506
0.317159 0.141363 0.300725
0.319103 0.141363 0.300943
0.321047 0.141363 0.301162
0.323532 0.142154 0.299825
0.325477 0.142154 0.300044
0.327423 0.142154 0.300263
0.329917 0.142946 0.298924
0.331865 0.142946 0.299143
0.333813 0.142946 0.299363
0.335760 0.142946 0.299582
0.337708 0.142946 0.299801
0.340215 0.143740 0.298460
0.342165 0.143740 0.298680
0.344115 0.143740 0.298899
0.346064 0.143740 0.299118
0.348014 0.143740 0.299337
0.349964 0.143740 0.299557
0.351914 0.143740 0.299776
0.354438 0.144535 0.298434
0.356967 0.145332 0.297089
0.358921 0.145332 0.297309
0.361457 0.146131 0.295962
0.363413 0.146131 0.296182
0.365369 0.146131 0.296402
0.367914 0.146931 0.295052
0.369872 0.146931 0.295272
0.372425 0.147733 0.293920
0.374385 0.147733 0.294141
0.376345 0.147733 0.294361
0.378907 0.148537 0.293007
0.380868 0.148537 0.293227
0.382830 0.148537 0.293448
0.385402 0.149342 0.292091
0.387366 0.149342 0.292312
0.389330 0.149342 0.292533
0.391910 0.150149 0.291174
0.393876 0.150149 0.291395
0.396465 0.150958 0.290033
0.398433 0.150958 0.290255
0.400401 0.150958 0.290476
0.402998 0.151768 0.289112
0.404968 0.151768 0.289333
0.407573 0.152580 0.287967
0.410184 0.153394 0.286597
0.412158 0.153394 0.286819
0.414776 0.154209 0.285447
0.417399 0.155026 0.284072
0.420028 0.155845 0.282694
0.422662 0.156666 0.281313
0.424645 0.156666 0.281536
0.427287 0.157488 0.280153
0.429934 0.158312 0.278767
0.432587 0.159137 0.277377
0.435245 0.159965 0.275985
0.437236 0.159965 0.276209
0.439902 0.160794 0.274814
0.442574 0.161625 0.273417
0.445251 0.162457 0.272016
0.447934 0.163292 0.270612
0.450623 0.164128 0.269206
0.454012 0.165805 0.266158
0.458116 0.168335 0.261450
0.461539 0.170030 0.258369
-0.271706 0.270391 -0.034406
-0.268974 0.263968 -0.020933
-0.266353 0.258684 -0.009810
-0.263969 0.256589 -0.005246
-0.261531 0.253463 0.001434
-0.259110 0.250360 0.008068
-0.256705 0.247278 0.014655
-0.254318 0.244218 0.021196
-0.252001 0.242190 0.025614
-0.249643 0.239165 0.032079
-0.247351 0.237160 0.036447
-0.245023 0.234170 0.042838
-0.242754 0.232187 0.047155
-0.240455 0.229231 0.053473
-0.238247 0.228250 0.055732
-0.236044 0.227272 0.057986
-0.233846 0.226295 0.060234
-0.231683 0.226295 0.060478
-0.229493 0.225321 0.062721
-0.227307 0.224349 0.064959
-0.225127 0.223379 0.067192
-0.222951 0.222412 0.069420
-0.220798 0.222412 0.069662
-0.218630 0.221446 0.071885
-0.216466 0.220483 0.074102
-0.214308 0.219522 0.076315
-0.212162 0.219522 0.076556
-0.210011 0.218563 0.078764
-0.207865 0.217607 0.080966
-0.205724 0.217607 0.081207
-0.203585 0.216652 0.083404
-0.201450 0.215699 0.085596
-0.199314 0.215699 0.085837
-0.197187 0.214749 0.088024
-0.195065 0.213801 0.090206
-0.192933 0.213801 0.090445
-0.190818 0.212855 0.092622
-0.188689 0.212855 0.092862
-0.186581 0.211911 0.095034
-0.184455 0.211911 0.095273
-0.182328 0.211911 0.095512
-0.180202 0.211911 0.095751
-0.178105 0.210969 0.097917
-0.175981 0.210969 0.098156
-0.173857 0.210969 0.098395
-0.171733 0.210969 0.098634
-0.169609 0.210969 0.098873
-0.167485 0.210969 0.099112
-0.165405 0.210030 0.101272
-0.163283 0.210030 0.101511
-0.161161 0.210030 0.101749
-0.159091 0.209092 0.103904
-0.156972 0.209092 0.104142
-0.154796 0.210030 0.102465
-0.152674 0.210030 0.102704
-0.150553 0.210030 0.102943
-0.148431 0.210030 0.103181
-0.146309 0.210030 0.103420
-0.144187 0.210030 0.103658
-0.142065 0.210030 0.103897
-0.139944 0.210030 0.104136
-0.137822 0.210030 0.104374
-0.135622 0.210969 0.102696
-0.133498 0.210969 0.102935
-0.131374 0.210969 0.103173
-0.129250 0.210969 0.103412
-0.127126 0.210969 0.103651
-0.125002 0.210969 0.103890
-0.122878 0.210969 0.104129
-0.120659 0.211911 0.102448
-0.118533 0.211911 0.102687
-0.116406 0.211911 0.102927
-0.114279 0.211911 0.103166
-0.112153 0.211911 0.103405
-0.110026 0.211911 0.103644
-0.107791 0.212855 0.101961
-0.105662 0.212855 0.102200
-0.103419 0.213801 0.100513
-0.101288 0.213801 0.100753
-0.099157 0.213801 0.100993
-0.096904 0.214749 0.099303
-0.094770 0.214749 0.099543
-0.092637 0.214749 0.099783
-0.090503 0.214749 0.100023
-0.088238 0.215699 0.098330
-0.086102 0.215699 0.098570
-0.083966 0.215699 0.098810
-0.081830 0.215699 0.099050
-0.079694 0.215699 0.099291
-0.077414 0.216652 0.097595
-0.075276 0.216652 0.097835
-0.072988 0.217607 0.096136
-0.070848 0.217607 0.096377
-0.068553 0.218563 0.094674
-0.066410 0.218563 0.094915
-0.064107 0.219522 0.093209
-0.061961 0.219522 0.093450
-0.059652 0.220483 0.091740
-0.057503 0.220483 0.091982
-0.055186 0.221446 0.090268
-0.052863 0.222412 0.088550
-0.050710 0.222412 0.088792
-0.048379 0.223379 0.087071
-0.046224 0.223379 0.087314
-0.044068 0.223379 0.087556
-0.041728 0.224349 0.085832
-0.039570 0.224349 0.086074
-0.037221 0.225321 0.084346
-0.034867 0.226295 0.082614
-0.032705 0.226295 0.082857
-0.030343 0.227272 0.081122
-0.027976 0.228250 0.079382
-0.025603 0.229231 0.077638
-0.023225 0.230214 0.075891
-0.020842 0.231200 0.074139
-0.018453 0.232187 0.072383
-0.016059 0.233177 0.070624
-0.013659 0.234170 0.068860
-0.011254 0.235164 0.067092
-0.008843 0.236161 0.065320
-0.006427 0.237160 0.063544
-0.004005 0.238161 0.061764
-0.001577 0.239165 0.059980
0.000856 0.240171 0.058192
0.003536 0.242190 0.054355
0.005984 0.243203 0.052554
0.008686 0.245236 0.048691
0.011400 0.247278 0.044809
0.014127 0.249330 0.040910
0.016867 0.251392 0.036992
0.019619 0.253463 0.033056
0.022385 0.255544 0.029102
0.025163 0.257635 0.025128
0.027955 0.259736 0.021136
0.030760 0.261847 0.017126
0.033578 0.263968 0.013095
0.036698 0.267168 0.006887
0.039547 0.269314 0.002809
0.042410 0.271470 -0.001290
0.045286 0.273637 -0.005407
0.048177 0.275814 -0.009545
0.051081 0.278002 -0.013702
0.054000 0.280200 -0.017880
0.057251 0.283518 -0.024314
0.060202 0.285743 -0.028543
0.063168 0.287979 -0.032793
0.066148 0.290226 -0.037063
0.069142 0.292484 -0.041354
0.072493 0.295892 -0.047962
0.186117 0.256589 0.045377
0.186970 0.253463 0.051879
0.187818 0.250360 0.058335
0.189119 0.248303 0.062697
0.190414 0.246256 0.067039
0.191704 0.244218 0.071361
0.192987 0.242190 0.075663
0.194264 0.240171 0.079945
0.195535 0.238161 0.084207
0.196801 0.236161 0.088450
0.198060 0.234170 0.092673
0.199314 0.232187 0.096876
0.201027 0.231200 0.099093
0.202270 0.229231 0.103268
0.203973 0.228250 0.105470
0.204738 0.225321 0.111560
0.205964 0.223379 0.115678
0.207652 0.222412 0.117851
0.208867 0.220483 0.121941
0.210545 0.219522 0.124100
0.212220 0.218563 0.126253
0.213891 0.217607 0.128402
0.215558 0.216652 0.130546
0.217221 0.215699 0.132686
0.218881 0.214749 0.134820
0.220537 0.213801 0.136950
0.222189 0.212855 0.139075
0.220505 0.205362 0.154243
0.219785 0.199830 0.165502
0.220006 0.196182 0.173005
0.220225 0.192566 0.180441
0.219979 0.188090 0.189588
0.219736 0.183662 0.198636
0.219953 0.180154 0.205850
0.220168 0.176677 0.213002
0.220382 0.173229 0.220093
0.220593 0.169810 0.227124
0.220352 0.165578 0.235773
0.220562 0.162224 0.242671
0.220770 0.158898 0.249511
0.220976 0.155600 0.256295
0.221180 0.152329 0.263022
0.220941 0.148278 0.271297
0.221144 0.145068 0.277900
0.221345 0.141884 0.284448
0.221544 0.138726 0.290943
0.221742 0.135594 0.297386
0.221938 0.132488 0.303776
0.222132 0.129406 0.310114
0.223618 0.128639 0.311852
0.224668 0.127111 0.315103
0.226147 0.126349 0.316831
0.228057 0.126349 0.317046
0.229531 0.125589 0.318770
0.231002 0.124830 0.320491
0.232909 0.124830 0.320706
0.234815 0.124830 0.320920
0.236722 0.124830 0.321135
0.238184 0.124072 0.322852
0.240536 0.124830 0.321564
0.242443 0.124830 0.321778
0.245253 0.126349 0.318980
0.247619 0.127111 0.317685
0.249989 0.127874 0.316386
0.252365 0.128639 0.315086
0.254745 0.129406 0.313782
0.257597 0.130944 0.310951
0.259990 0.131715 0.309639
0.262387 0.132488 0.308325
0.264789 0.133262 0.307008
0.267677 0.134815 0.304149
0.270092 0.135594 0.302824
0.272511 0.136375 0.301496
0.274936 0.137157 0.300165
0.277859 0.138726 0.297277
0.280794 0.140302 0.294378
0.282740 0.140302 0.294596
0.284685 0.140302 0.294815
0.286631 0.140302 0.295034
0.288577 0.140302 0.295253
0.290523 0.140302 0.295472
0.291960 0.139514 0.297250
0.293904 0.139514 0.297469
0.295848 0.139514 0.297687
0.297792 0.139514 0.297906
0.299736 0.139514 0.298125
0.301679 0.139514 0.298343
0.303623 0.139514 0.298562
0.305567 0.139514 0.298780
0.307511 0.139514 0.298999
0.309455 0.139514 0.299218
0.311399 0.139514 0.299436
0.313873 0.140302 0.298098
0.315819 0.140302 0.298317
0.317765 0.140302 0.298536
0.319711 0.140302 0.298755
0.321657 0.140302 0.298974
0.323062 0.139514 0.300748
0.325549 0.140302 0.299411
0.327494 0.140302 0.299630
0.329440 0.140302 0.299849
0.331386 0.140302 0.300068
0.333332 0.140302 0.300287
0.335832 0.141092 0.298948
0.337779 0.141092 0.299167
0.339727 0.141092 0.299386
0.341675 0.141092 0.299605
0.344186 0.141884 0.298265
0.345571 0.141092 0.300043
0.347519 0.141092 0.300262
0.350035 0.141884 0.298922
0.351985 0.141884 0.299142
0.353935 0.141884 0.299361
0.356461 0.142678 0.298019
0.358413 0.142678 0.298238
0.360365 0.142678 0.298458
0.362900 0.143473 0.297113
0.364854 0.143473 0.297333
0.367396 0.144270 0.295986
0.369352 0.144270 0.296206
0.371308 0.144270 0.296426
0.373859 0.145068 0.295076
0.375817 0.145068 0.295296
0.378376 0.145868 0.293944
0.380336 0.145868 0.294164
0.382296 0.145868 0.294385
0.384256 0.145868 0.294605
0.386826 0.146670 0.293251
0.388788 0.146670 0.293472
0.391366 0.147473 0.292115
0.393330 0.147473 0.292336
0.395293 0.147473 0.292557
0.397880 0.148278 0.291198
0.399846 0.148278 0.291419
0.402441 0.149085 0.290057
0.405040 0.149894 0.288693
0.407010 0.149894 0.288914
0.409618 0.150704 0.287547
0.412230 0.151515 0.286177
0.414204 0.151515 0.286399
0.416824 0.152329 0.285026
0.419450 0.153144 0.283651
0.421428 0.153144 0.283874
0.424061 0.153961 0.282495
0.426700 0.154779 0.281114
0.429344 0.155600 0.279731
0.431993 0.156421 0.278344
0.433980 0.156421 0.278567
0.436637 0.157245 0.277178
0.439300 0.158071 0.275786
0.441968 0.158898 0.274390
0.444642 0.159727 0.272992
0.446637 0.159727 0.273216
0.449318 0.160557 0.271816
0.452697 0.162224 0.268780
0.456091 0.163897 0.265732
0.460202 0.166421 0.261021
0.463629 0.168112 0.257940
-0.276086 0.267153 -0.033440
-0.273165 0.258649 -0.015633
-0.270605 0.254458 -0.006730
-0.268143 0.251340 -0.000044
-0.265699 0.248244 0.006594
-0.263272 0.245170 0.013186
-0.260861 0.242117 0.019733
-0.258529 0.240093 0.024154
-0.256208 0.238079 0.028555
-0.253841 0.235076 0.034995
-0.251598 0.234079 0.037296
-0.249258 0.231103 0.043677
-0.246982 0.229130 0.047988
-0.244716 0.227166 0.052279
-0.242418 0.224237 0.058558
-0.240255 0.224237 0.058801
-0.238055 0.223265 0.061046
-0.235860 0.222296 0.063286
-0.233670 0.221328 0.065521
-0.231484 0.220363 0.067751
-0.229331 0.220363 0.067993
-0.227153 0.219400 0.070218
-0.224980 0.218439 0.072437
-0.222812 0.217480 0.074652
-0.220666 0.217480 0.074893
-0.218506 0.216524 0.077102
-0.216350 0.215569 0.079307
-0.214209 0.215569 0.079547
-0.212060 0.214617 0.081746
-0.209916 0.213667 0.083941
-0.207780 0.213667 0.084181
-0.205644 0.212719 0.086370
-0.203512 0.211773 0.088554
-0.201381 0.211773 0.088793
-0.199256 0.210829 0.090972
-0.197136 0.209888 0.093146
-0.195009 0.209888 0.093385
-0.192897 0.208948 0.095554
-0.190789 0.208011 0.097718
-0.188648 0.208948 0.096032
-0.186545 0.208011 0.098195
-0.184446 0.207075 0.100354
-0.182302 0.208011 0.098673
-0.180180 0.208011 0.098911
-0.178058 0.208011 0.099150
-0.175936 0.208011 0.099389
-0.173849 0.207075 0.101546
-0.171730 0.207075 0.101784
-0.169611 0.207075 0.102023
-0.167491 0.207075 0.102261
-0.165372 0.207075 0.102499
-0.163299 0.206142 0.104651
-0.161182 0.206142 0.104889
-0.159065 0.206142 0.105127
-0.156948 0.206142 0.105365
-0.154831 0.206142 0.105603
-0.152714 0.206142 0.105841
-0.150597 0.206142 0.106080
-0.148480 0.206142 0.106318
-0.146363 0.206142 0.106556
-0.144246 0.206142 0.106794
-0.142058 0.207075 0.105122
-0.139939 0.207075 0.105360
-0.137819 0.207075 0.105598
-0.135700 0.207075 0.105837
-0.133581 0.207075 0.106075
-0.131461 0.207075 0.106314
-0.129342 0.207075 0.106552
-0.127135 0.208011 0.104877
-0.125014 0.208011 0.105116
-0.122892 0.208011 0.105355
-0.120676 0.208948 0.103677
-0.118552 0.208948 0.103916
-0.116427 0.208948 0.104155
-0.114303 0.208948 0.104394
-0.112179 0.208948 0.104633
-0.110055 0.208948 0.104872
-0.107931 0.208948 0.105111
-0.105807 0.208948 0.105349
-0.103683 0.208948 0.105588
-0.101443 0.209888 0.103909
-0.099316 0.209888 0.104148
-0.097069 0.210829 0.102466
-0.094940 0.210829 0.102705
-0.092811 0.210829 0.102944
-0.090682 0.210829 0.103184
-0.088422 0.211773 0.101498
-0.086291 0.211773 0.101738
-0.084160 0.211773 0.101978
-0.082028 0.211773 0.102217
-0.079897 0.211773 0.102457
-0.077623 0.212719 0.100768
-0.075343 0.213667 0.099076
-0.073207 0.213667 0.099317
-0.070920 0.214617 0.097621
-0.068782 0.214617 0.097861
-0.066487 0.215569 0.096162
-0.064347 0.215569 0.096403
-0.062045 0.216524 0.094700
-0.059901 0.216524 0.094941
-0.057592 0.217480 0.093235
-0.055446 0.217480 0.093476
-0.053129 0.218439 0.091766
-0.050980 0.218439 0.092008
-0.048655 0.219400 0.090294
-0.046505 0.219400 0.090536
-0.044172 0.220363 0.088819
-0.042019 0.220363 0.089061
-0.039679 0.221328 0.087340
-0.037523 0.221328 0.087582
-0.035175 0.222296 0.085858
-0.033017 0.222296 0.086101
-0.030661 0.223265 0.084372
-0.028300 0.224237 0.082640
-0.026137 0.224237 0.082884
-0.023768 0.225211 0.081148
-0.021393 0.226188 0.079408
-0.019013 0.227166 0.077665
-0.016628 0.228147 0.075917
-0.014237 0.229130 0.074165
-0.011841 0.230115 0.072410
-0.009439 0.231103 0.070650
-0.007258 0.231103 0.070895
-0.004849 0.232093 0.069132
-0.002433 0.233085 0.067364
-0.000012 0.234079 0.065593
0.002414 0.235076 0.063817
0.004847 0.236075 0.062037
0.007530 0.238079 0.058218
0.009977 0.239085 0.056426
0.012681 0.241104 0.052581
0.015142 0.242117 0.050776
0.017868 0.244150 0.046904
0.020607 0.246192 0.043014
0.023626 0.249274 0.037019
0.026395 0.251340 0.033083
0.029176 0.253416 0.029129
0.031971 0.255502 0.025156
0.034779 0.257598 0.021164
0.037600 0.259703 0.017153
0.040434 0.261819 0.013123
0.043282 0.263945 0.009074
0.046144 0.266081 0.005005
0.049019 0.268227 0.000917
0.051908 0.270383 -0.003190
0.054811 0.272550 -0.007317
0.057728 0.274727 -0.011465
0.060659 0.276915 -0.015632
0.063604 0.279113 -0.019819
0.067225 0.283542 -0.028515
0.070208 0.285773 -0.032765
0.073205 0.288014 -0.037035
0.076217 0.290267 -0.041326
0.181302 0.258649 0.035482
0.181265 0.253416 0.046235
0.182135 0.250306 0.052726
0.183452 0.248244 0.057112
0.184764 0.246192 0.061477
0.186069 0.244150 0.065822
0.187368 0.242117 0.070146
0.188661 0.240093 0.074451
0.189949 0.238079 0.078736
0.191688 0.237076 0.080994
0.192505 0.234079 0.087246
0.194233 0.233085 0.089484
0.195498 0.231103 0.093700
0.196756 0.229130 0.097896
0.198009 0.227166 0.102074
0.199717 0.226188 0.104277
0.200958 0.224237 0.108426
0.201732 0.221328 0.114492
0.203424 0.220363 0.116667
0.205113 0.219400 0.118836
0.206797 0.218439 0.121001
0.208478 0.217480 0.123160
0.210155 0.216524 0.125315
0.211828 0.215569 0.127465
0.213498 0.214617 0.129610
0.214692 0.212719 0.133646
0.216352 0.211773 0.135777
0.218009 0.210829 0.137903
0.219662 0.209888 0.140025
0.218942 0.204282 0.151467
0.218232 0.198750 0.162757
0.218460 0.195103 0.170279
0.218686 0.191487 0.177736
0.218449 0.187012 0.186907
0.218673 0.183467 0.194219
0.218438 0.179079 0.203213
0.218660 0.175602 0.210384
0.218879 0.172155 0.217494
0.219097 0.168738 0.224544
0.219314 0.165349 0.231533
0.219080 0.161153 0.240131
0.219295 0.157828 0.246990
0.219507 0.154531 0.253791
0.219718 0.151261 0.260535
0.219927 0.148019 0.267223
0.219695 0.144003 0.275451
0.219902 0.140821 0.282017
0.220108 0.137664 0.288528
0.220311 0.134533 0.294987
0.220513 0.131427 0.301393
0.220714 0.128347 0.307748
0.221342 0.126052 0.312534
0.222825 0.125291 0.314266
0.224306 0.124531 0.315995
0.225783 0.123772 0.317720
0.227258 0.123015 0.319442
0.228730 0.122260 0.321161
0.230634 0.122260 0.321375
0.232101 0.121506 0.323090
0.234004 0.121506 0.323304
0.236349 0.122260 0.322018
0.237810 0.121506 0.323732
0.240159 0.122260 0.322446
0.242513 0.123015 0.321158
0.244871 0.123772 0.319867
0.247234 0.124531 0.318574
0.249601 0.125291 0.317278
0.251974 0.126052 0.315979
0.254815 0.127580 0.313158
0.257200 0.128347 0.311851
0.259590 0.129114 0.310542
0.261984 0.129884 0.309230
0.264860 0.131427 0.306381
0.267267 0.132201 0.305061
0.269679 0.132977 0.303738
0.272096 0.133754 0.302412
0.275007 0.135313 0.299535
0.277437 0.136095 0.298201
0.280368 0.137664 0.295306
0.282811 0.138451 0.293963
0.284757 0.138451 0.294182
0.286200 0.137664 0.295962
0.288143 0.137664 0.296180
0.290087 0.137664 0.296399
0.292031 0.137664 0.296618
0.293975 0.137664 0.296836
0.295919 0.137664 0.297055
0.297863 0.137664 0.297274
0.299807 0.137664 0.297492
0.301751 0.137664 0.297711
0.303694 0.137664 0.297930
0.305638 0.137664 0.298148
0.307058 0.136879 0.299922
0.309000 0.136879 0.300140
0.310942 0.136879 0.300359
0.313414 0.137664 0.299023
0.315358 0.137664 0.299241
0.317302 0.137664 0.299460
0.319245 0.137664 0.299679
0.321189 0.137664 0.299897
0.323133 0.137664 0.300116
0.325077 0.137664 0.300334
0.327021 0.137664 0.300553
0.328965 0.137664 0.300772
0.331457 0.138451 0.299435
0.333403 0.138451 0.299654
0.335349 0.138451 0.299873
0.337295 0.138451 0.300091
0.339799 0.139239 0.298753
0.341746 0.139239 0.298972
0.343694 0.139239 0.299191
0.345642 0.139239 0.299410
0.347590 0.139239 0.299629
0.349538 0.139239 0.299848
0.351486 0.139239 0.300067
0.353434 0.139239 0.300286
0.355956 0.140029 0.298946
0.357906 0.140029 0.299165
0.360436 0.140821 0.297823
0.362388 0.140821 0.298042
0.364925 0.141614 0.296697
0.366879 0.141614 0.296917
0.368833 0.141614 0.297137
0.371379 0.142409 0.295789
0.373335 0.142409 0.296009
0.375889 0.143205 0.294659
0.377847 0.143205 0.294880
0.379805 0.143205 0.295100
0.381763 0.143205 0.295320
0.384328 0.144003 0.293968
0.386287 0.144003 0.294188
0.388860 0.144803 0.292834
0.390822 0.144803 0.293054
0.392784 0.144803 0.293275
0.395365 0.145605 0.291918
0.397329 0.145605 0.292139
0.399918 0.146408 0.290779
0.401884 0.146408 0.291000
0.404481 0.147212 0.289638
0.407083 0.148019 0.288273
0.409053 0.148019 0.288495
0.411662 0.148827 0.287127
0.414277 0.149637 0.285757
0.416897 0.150448 0.284384
0.418873 0.150448 0.284606
0.421501 0.151261 0.283230
0.423479 0.151261 0.283453
0.426114 0.152076 0.282074
0.428755 0.152893 0.280693
0.431401 0.153711 0.279308
0.434052 0.154531 0.277921
0.436039 0.154531 0.278145
0.438698 0.155353 0.276755
0.441363 0.156176 0.275362
0.444034 0.157001 0.273966
0.446710 0.157828 0.272568
0.448705 0.157828 0.272792
0.451388 0.158657 0.271391
0.454772 0.160319 0.268354
0.458870 0.162826 0.263662
0.462287 0.164506 0.260593
-0.280456 0.263922 -0.032475
-0.277326 0.253369 -0.010370
-0.274756 0.249217 -0.001523
-0.272367 0.247155 0.002995
-0.269913 0.244081 0.009607
-0.267549 0.242044 0.014073
-0.265196 0.240016 0.018518
-0.262788 0.236991 0.025023
-0.260459 0.234987 0.029417
-0.258142 0.232991 0.033790
-0.255776 0.230016 0.040190
-0.253483 0.228043 0.044514
-0.251200 0.226079 0.048818
-0.248927 0.224125 0.053103
-0.246665 0.222179 0.057368
-0.244412 0.220242 0.061614
-0.242212 0.219277 0.063850
-0.240018 0.218314 0.066082
-0.237864 0.218314 0.066324
-0.235677 0.217354 0.068551
-0.233494 0.216395 0.070772
-0.231317 0.215438 0.072988
-0.229171 0.215438 0.073230
-0.227001 0.214484 0.075441
-0.224835 0.213532 0.077647
-0.222694 0.213532 0.077888
-0.220536 0.212582 0.080089
-0.218383 0.211634 0.082285
-0.216247 0.211634 0.082525
-0.214100 0.210689 0.084716
-0.211959 0.209745 0.086902
-0.209828 0.209745 0.087141
-0.207694 0.208803 0.089322
-0.205565 0.208803 0.089561
-0.203438 0.207864 0.091737
-0.201316 0.206927 0.093908
-0.199191 0.206927 0.094146
-0.197076 0.205992 0.096312
-0.194966 0.205058 0.098473
-0.192847 0.205058 0.098711
-0.190743 0.204127 0.100867
-0.188626 0.204127 0.101105
-0.186509 0.204127 0.101343
-0.184392 0.204127 0.101581
-0.182275 0.204127 0.101819
-0.180158 0.204127 0.102057
-0.178041 0.204127 0.102296
-0.175924 0.204127 0.102534
-0.173807 0.204127 0.102772
-0.171727 0.203198 0.104920
-0.169612 0.203198 0.105158
-0.167498 0.203198 0.105396
-0.165383 0.203198 0.105634
-0.163268 0.203198 0.105872
-0.161153 0.203198 0.106110
-0.159090 0.202272 0.108252
-0.156978 0.202272 0.108490
-0.154865 0.202272 0.108727
-0.152695 0.203198 0.107061
-0.150580 0.203198 0.107299
-0.148465 0.203198 0.107537
-0.146351 0.203198 0.107775
-0.144236 0.203198 0.108012
-0.142121 0.203198 0.108250
-0.140007 0.203198 0.108488
-0.137892 0.203198 0.108726
-0.135777 0.203198 0.108964
-0.133583 0.204127 0.107296
-0.131466 0.204127 0.107534
-0.129349 0.204127 0.107772
-0.127145 0.205058 0.106101
-0.125025 0.205058 0.106339
-0.122906 0.205058 0.106578
-0.120787 0.205058 0.106816
-0.118667 0.205058 0.107054
-0.116548 0.205058 0.107293
-0.114428 0.205058 0.107531
-0.112309 0.205058 0.107769
-0.110190 0.205058 0.108008
-0.108070 0.205058 0.108246
-0.105840 0.205992 0.106574
-0.103718 0.205992 0.106812
-0.101596 0.205992 0.107051
-0.099475 0.205992 0.107290
-0.097353 0.205992 0.107528
-0.095231 0.205992 0.107767
-0.092984 0.206927 0.106092
-0.090860 0.206927 0.106331
-0.088606 0.207864 0.104652
-0.086479 0.207864 0.104892
-0.084353 0.207864 0.105131
-0.082226 0.207864 0.105370
-0.080100 0.207864 0.105609
-0.077688 0.209745 0.102003
-0.075557 0.209745 0.102243
-0.073277 0.210689 0.100554
-0.071144 0.210689 0.100794
-0.068857 0.211634 0.099102
-0.066721 0.211634 0.099343
-0.064427 0.212582 0.097647
-0.062288 0.212582 0.097887
-0.059986 0.213532 0.096188
-0.057846 0.213532 0.096429
-0.055536 0.214484 0.094726
-0.053393 0.214484 0.094967
-0.051076 0.215438 0.093261
-0.048930 0.215438 0.093502
-0.046605 0.216395 0.091792
-0.044457 0.216395 0.092034
-0.042309 0.216395 0.092275
-0.039974 0.217354 0.090562
-0.037824 0.217354 0.090804
-0.035481 0.218314 0.089087
-0.033133 0.219277 0.087366
-0.030978 0.219277 0.087608
-0.028622 0.220242 0.085884
-0.026464 0.220242 0.086127
-0.024101 0.221210 0.084399
-0.021732 0.222179 0.082667
-0.019569 0.222179 0.082910
-0.017193 0.223151 0.081174
-0.014811 0.224125 0.079435
-0.012423 0.225101 0.077691
-0.010253 0.225101 0.077935
-0.007858 0.226079 0.076188
-0.005457 0.227060 0.074436
-0.003050 0.228043 0.072681
-0.000638 0.229028 0.070922
0.001779 0.230016 0.069158
0.004202 0.231005 0.067391
0.006631 0.231997 0.065619
0.009065 0.232991 0.063844
0.011505 0.233988 0.062064
0.013951 0.234987 0.060280
0.016658 0.236991 0.056453
0.019378 0.239005 0.052608
0.021847 0.240016 0.050802
0.024589 0.242044 0.046930
0.027343 0.244081 0.043041
0.030111 0.246128 0.039132
0.032891 0.248185 0.035206
0.035684 0.250251 0.031261
0.038778 0.253369 0.025183
0.041602 0.255459 0.021191
0.044440 0.257560 0.017180
0.047290 0.259671 0.013150
0.050155 0.261791 0.009101
0.053033 0.263922 0.005033
0.055924 0.266063 0.000945
0.058830 0.268214 -0.003162
0.061750 0.270376 -0.007290
0.064683 0.272548 -0.011437
0.067631 0.274730 -0.015604
0.070593 0.276923 -0.019791
0.073908 0.280233 -0.026240
0.076904 0.282453 -0.030479
0.079914 0.284683 -0.034738
0.083292 0.288050 -0.041298
0.175533 0.253369 0.040564
0.176874 0.251288 0.045004
0.177759 0.248185 0.051500
0.179087 0.246128 0.055888
0.180859 0.245103 0.058200
0.182175 0.243061 0.062557
0.183484 0.241029 0.066894
0.184788 0.239005 0.071212
0.186086 0.236991 0.075509
0.187377 0.234987 0.079786
0.188663 0.232991 0.084044
0.189943 0.231005 0.088282
0.191217 0.229028 0.092500
0.192485 0.227060 0.096700
0.194203 0.226079 0.098914
0.195460 0.224125 0.103084
0.196712 0.222179 0.107236
0.197957 0.220242 0.111368
0.199197 0.218314 0.115482
0.200890 0.217354 0.117653
0.202580 0.216395 0.119819
0.204265 0.215438 0.121980
0.205947 0.214484 0.124136
0.207625 0.213532 0.126287
0.209299 0.212582 0.128434
0.210969 0.211634 0.130575
0.212636 0.210689 0.132712
0.214299 0.209745 0.134844
0.215958 0.208803 0.136971
0.217614 0.207864 0.139094
0.217377 0.203198 0.148684
0.216676 0.197668 0.160005
0.216911 0.194021 0.167548
0.217144 0.190407 0.175025
0.216915 0.185933 0.184221
0.217146 0.182389 0.191552
0.217375 0.178875 0.198821
0.217147 0.174526 0.207761
0.217374 0.171079 0.214889
0.217599 0.167663 0.221957
0.217821 0.164275 0.228966
0.218042 0.160916 0.235914
0.217817 0.156757 0.244462
0.218035 0.153460 0.251281
0.218252 0.150192 0.258043
0.218468 0.146950 0.264749
0.218681 0.143736 0.271399
0.218457 0.139755 0.279580
0.218668 0.136599 0.286108
0.218878 0.133469 0.292583
0.219086 0.130365 0.299006
0.219293 0.127285 0.305376
0.219497 0.124231 0.311696
0.220554 0.122713 0.314944
0.222036 0.121956 0.316670
0.223514 0.121201 0.318393
0.224989 0.120447 0.320112
0.226462 0.119695 0.321829
0.227931 0.118944 0.323541
0.229832 0.118944 0.323755
0.231734 0.118944 0.323969
0.233635 0.118944 0.324183
0.235536 0.118944 0.324397
0.237437 0.118944 0.324610
0.239783 0.119695 0.323327
0.242134 0.120447 0.322041
0.244489 0.121201 0.320752
0.246849 0.121956 0.319461
0.249214 0.122713 0.318167
0.251584 0.123471 0.316871
0.254421 0.124992 0.314054
0.256803 0.125755 0.312750
0.259190 0.126519 0.311443
0.261582 0.127285 0.310133
0.264454 0.128822 0.307289
0.266858 0.129592 0.305971
0.269268 0.130365 0.304650
0.271682 0.131138 0.303327
0.274589 0.132691 0.300454
0.277508 0.134249 0.297570
0.279943 0.135031 0.296232
0.282882 0.136599 0.293330
0.284327 0.135814 0.295111
0.286271 0.135814 0.295330
0.287711 0.135031 0.297106
0.289652 0.135031 0.297324
0.291594 0.135031 0.297543
0.293536 0.135031 0.297761
0.295478 0.135031 0.297980
0.297420 0.135031 0.298198
0.299362 0.135031 0.298416
0.301304 0.135031 0.298635
0.303246 0.135031 0.298853
0.305188 0.135031 0.299072
0.307129 0.135031 0.299290
0.309071 0.135031 0.299508
0.311013 0.135031 0.299727
0.313485 0.135814 0.298390
0.315429 0.135814 0.298609
0.317373 0.135814 0.298828
0.318781 0.135031 0.300601
0.320723 0.135031 0.300819
0.322665 0.135031 0.301037
0.324606 0.135031 0.301256
0.327092 0.135814 0.299921
0.329036 0.135814 0.300139
0.330980 0.135814 0.300358
0.332924 0.135814 0.300577
0.334868 0.135814 0.300795
0.337366 0.136599 0.299459
0.339312 0.136599 0.299677
0.341258 0.136599 0.299896
0.343204 0.136599 0.300115
0.345150 0.136599 0.300334
0.347095 0.136599 0.300553
0.349041 0.136599 0.300772
0.351557 0.137385 0.299433
0.353505 0.137385 0.299653
0.355453 0.137385 0.299872
0.357978 0.138173 0.298531
0.359927 0.138173 0.298750
0.361877 0.138173 0.298970
0.364411 0.138963 0.297627
0.366363 0.138963 0.297847
0.368904 0.139755 0.296501
0.370858 0.139755 0.296721
0.372812 0.139755 0.296941
0.375363 0.140547 0.295593
0.377319 0.140547 0.295813
0.379274 0.140547 0.296033
0.381834 0.141342 0.294683
0.383792 0.141342 0.294903
0.386359 0.142138 0.293551
0.388319 0.142138 0.293771
0.390279 0.142138 0.293992
0.392855 0.142936 0.292637
0.394817 0.142936 0.292857
0.396779 0.142936 0.293078
0.399365 0.143736 0.291721
0.401956 0.144537 0.290361
0.403922 0.144537 0.290582
0.406521 0.145340 0.289219
0.409125 0.146144 0.287854
0.411095 0.146144 0.288076
0.413706 0.146950 0.286708
0.416323 0.147758 0.285337
0.418945 0.148568 0.283963
0.420921 0.148568 0.284185
0.423551 0.149379 0.282809
0.425529 0.149379 0.283032
0.428167 0.150192 0.281653
0.430809 0.151006 0.280271
0.433458 0.151823 0.278886
0.436112 0.152641 0.277498
0.438098 0.152641 0.277722
0.440760 0.153460 0.276331
0.443427 0.154282 0.274938
0.446099 0.155105 0.273542
0.448778 0.155930 0.272143
0.450772 0.155930 0.272367
0.454151 0.157585 0.269336
0.457544 0.159247 0.266292
0.460951 0.160916 0.263235
0.464372 0.162592 0.260165
-0.285197 0.264971 -0.040386
-0.281638 0.250196 -0.009446
-0.279137 0.247093 -0.002751
-0.276654 0.244012 0.003897
-0.274269 0.241970 0.008387
-0.271817 0.238925 0.014957
-0.269457 0.236907 0.019395
-0.267108 0.234898 0.023812
-0.264701 0.231901 0.030276
-0.262376 0.229915 0.034643
-0.259999 0.226954 0.041032
-0.257698 0.224990 0.045350
-0.255408 0.223036 0.049647
-0.253074 0.220121 0.055935
-0.250807 0.218189 0.060183
-0.248551 0.216265 0.064413
-0.246398 0.216265 0.064655
-0.244201 0.215307 0.066884
-0.242008 0.214351 0.069107
-0.239860 0.214351 0.069349
-0.237675 0.213397 0.071566
-0.235495 0.212445 0.073779
-0.233352 0.212445 0.074021
-0.231179 0.211495 0.076228
-0.229012 0.210547 0.078431
-0.226873 0.210547 0.078672
-0.224713 0.209602 0.080869
-0.222557 0.208658 0.083062
-0.220423 0.208658 0.083302
-0.218275 0.207717 0.085489
-0.216144 0.207717 0.085729
-0.214002 0.206778 0.087911
-0.211874 0.206778 0.088151
-0.209740 0.205840 0.090328
-0.207610 0.204905 0.092500
-0.205486 0.203973 0.094667
-0.203364 0.203973 0.094906
-0.201247 0.203042 0.097068
-0.199127 0.203042 0.097307
-0.197017 0.202113 0.099464
-0.194900 0.202113 0.099702
-0.192797 0.201186 0.101854
-0.190682 0.201186 0.102092
-0.188567 0.201186 0.102330
-0.186473 0.200262 0.104477
-0.184361 0.200262 0.104714
-0.182223 0.201186 0.103043
-0.180108 0.201186 0.103281
-0.178024 0.200262 0.105427
-0.175912 0.200262 0.105665
-0.173799 0.200262 0.105902
-0.171687 0.200262 0.106140
-0.169574 0.200262 0.106377
-0.167504 0.199339 0.108517
-0.165394 0.199339 0.108755
-0.163284 0.199339 0.108992
-0.161174 0.199339 0.109229
-0.159064 0.199339 0.109467
-0.156954 0.199339 0.109704
-0.154844 0.199339 0.109941
-0.152734 0.199339 0.110179
-0.150624 0.199339 0.110416
-0.148514 0.199339 0.110653
-0.146404 0.199339 0.110890
-0.144294 0.199339 0.111128
-0.142184 0.199339 0.111365
-0.140002 0.200262 0.109703
-0.137889 0.200262 0.109941
-0.135777 0.200262 0.110179
-0.133585 0.201186 0.108514
-0.131470 0.201186 0.108752
-0.129356 0.201186 0.108989
-0.127241 0.201186 0.109227
-0.125126 0.201186 0.109465
-0.123012 0.201186 0.109703
-0.120897 0.201186 0.109941
-0.118686 0.202113 0.108274
-0.116569 0.202113 0.108512
-0.114553 0.201186 0.110654
-0.112335 0.202113 0.108988
-0.110218 0.202113 0.109226
-0.108101 0.202113 0.109465
-0.105984 0.202113 0.109703
-0.103867 0.202113 0.109941
-0.101750 0.202113 0.110179
-0.099515 0.203042 0.108510
-0.097396 0.203042 0.108749
-0.095276 0.203042 0.108987
-0.093157 0.203042 0.109225
-0.091037 0.203042 0.109464
-0.088918 0.203042 0.109702
-0.086666 0.203973 0.108031
-0.084545 0.203973 0.108270
-0.082423 0.203973 0.108509
-0.080162 0.204905 0.106834
-0.077895 0.205840 0.105157
-0.075769 0.205840 0.105396
-0.073495 0.206778 0.103714
-0.071366 0.206778 0.103954
-0.069085 0.207717 0.102269
-0.066953 0.207717 0.102509
-0.064665 0.208658 0.100820
-0.062531 0.208658 0.101060
-0.060235 0.209602 0.099368
-0.057933 0.210547 0.097673
-0.055795 0.210547 0.097913
-0.053485 0.211495 0.096214
-0.051345 0.211495 0.096455
-0.049028 0.212445 0.094752
-0.046885 0.212445 0.094993
-0.044741 0.212445 0.095234
-0.042414 0.213397 0.093528
-0.040269 0.213397 0.093769
-0.037934 0.214351 0.092060
-0.035786 0.214351 0.092301
-0.033444 0.215307 0.090588
-0.031293 0.215307 0.090830
-0.028943 0.216265 0.089113
-0.026790 0.216265 0.089355
-0.024433 0.217226 0.087635
-0.022070 0.218189 0.085910
-0.019912 0.218189 0.086153
-0.017541 0.219154 0.084425
-0.015381 0.219154 0.084668
-0.013002 0.220121 0.082936
-0.010618 0.221090 0.081201
-0.008452 0.221090 0.081444
-0.006060 0.222062 0.079705
-0.003663 0.223036 0.077961
-0.001260 0.224012 0.076214
0.001149 0.224990 0.074463
0.003563 0.225971 0.072707
0.005982 0.226954 0.070948
0.008407 0.227939 0.069185
0.010838 0.228926 0.067417
0.013274 0.229915 0.065646
0.015716 0.230907 0.063870
0.017906 0.230907 0.064117
0.020617 0.232898 0.060307
0.023340 0.234898 0.056479
0.025807 0.235901 0.054683
0.028552 0.237915 0.050829
0.031309 0.239938 0.046957
0.034079 0.241970 0.043068
0.036863 0.244012 0.039159
0.039659 0.246064 0.035233
0.042468 0.248125 0.031288
0.045291 0.250196 0.027325
0.048127 0.252277 0.023343
0.050976 0.254368 0.019342
0.053839 0.256468 0.015322
0.056715 0.258579 0.011283
0.059605 0.260699 0.007225
0.062509 0.262830 0.003147
0.065427 0.264971 -0.000951
0.068359 0.267122 -0.005068
0.071305 0.269284 -0.009204
0.074266 0.271456 -0.013361
0.077240 0.273638 -0.017538
0.080576 0.276932 -0.023971
0.083584 0.279141 -0.028199
0.086963 0.282475 -0.034710
0.170662 0.255417 0.030635
0.171131 0.251235 0.039331
0.172039 0.248125 0.045862
0.173827 0.247093 0.048196
0.175166 0.245037 0.052597
0.176498 0.242990 0.056978
0.177824 0.240953 0.061338
0.179144 0.238925 0.065678
0.180458 0.236907 0.069998
0.181766 0.234898 0.074298
0.183067 0.232898 0.078578
0.184363 0.230907 0.082839
0.185653 0.228926 0.087079
0.187387 0.227939 0.089315
0.188665 0.225971 0.093526
0.189937 0.224012 0.097719
0.191657 0.223036 0.099930
0.192465 0.220121 0.106046
0.193720 0.218189 0.110181
0.195424 0.217226 0.112363
0.197123 0.216265 0.114539
0.198818 0.215307 0.116711
0.200510 0.214351 0.118878
0.202198 0.213397 0.121040
0.203882 0.212445 0.123198
0.205100 0.210547 0.127257
0.206775 0.209602 0.129400
0.208447 0.208658 0.131538
0.210114 0.207717 0.133671
0.211778 0.206778 0.135800
0.213438 0.205840 0.137924
0.215095 0.204905 0.140043
0.215808 0.202113 0.145895
0.215117 0.196583 0.157248
0.215359 0.192938 0.164811
0.215599 0.189324 0.172308
0.215378 0.184851 0.181529
0.215616 0.181308 0.188880
0.215851 0.177795 0.196168
0.215632 0.173446 0.205131
0.215865 0.170001 0.212279
0.216097 0.166586 0.219366
0.216326 0.163199 0.226392
0.216554 0.159841 0.233360
0.216335 0.155683 0.241930
0.216561 0.152388 0.248766
0.216784 0.149120 0.255546
0.217006 0.145880 0.262269
0.217225 0.142666 0.268936
0.217008 0.138686 0.277138
0.217226 0.135532 0.283683
0.217442 0.132403 0.290175
0.217656 0.129300 0.296614
0.217868 0.126222 0.303000
0.218079 0.123168 0.309336
0.218714 0.120894 0.314107
0.219770 0.119386 0.317344
0.221249 0.118634 0.319064
0.222725 0.117884 0.320782
0.224199 0.117135 0.322495
0.225669 0.116388 0.324205
0.227568 0.116388 0.324419
0.229034 0.115642 0.326126
0.230931 0.115642 0.326339
0.233266 0.116388 0.325060
0.234726 0.115642 0.326766
0.237064 0.116388 0.325487
0.239408 0.117135 0.324206
0.241756 0.117884 0.322922
0.244108 0.118634 0.321635
0.246466 0.119386 0.320346
0.248828 0.120140 0.319055
0.251654 0.121651 0.316248
0.254028 0.122409 0.314949
0.256408 0.123168 0.313646
0.258792 0.123929 0.312342
0.261652 0.125456 0.309508
0.264049 0.126222 0.308194
0.266451 0.126989 0.306879
0.268857 0.127758 0.305560
0.271753 0.129300 0.302698
0.274172 0.130073 0.301371
0.277087 0.131625 0.298492
0.280014 0.133183 0.295601
0.282454 0.133964 0.294260
0.284398 0.133964 0.294479
0.286342 0.133964 0.294697
0.287782 0.133183 0.296474
0.289723 0.133183 0.296693
0.291665 0.133183 0.296911
0.293607 0.133183 0.297130
0.295549 0.133183 0.297348
0.297491 0.133183 0.297566
0.299433 0.133183 0.297785
0.301375 0.133183 0.298003
0.303317 0.133183 0.298222
0.304738 0.132403 0.299993
0.306678 0.132403 0.300212
0.308618 0.132403 0.300430
0.310557 0.132403 0.300648
0.313026 0.133183 0.299314
0.314968 0.133183 0.299532
0.316910 0.133183 0.299750
0.318852 0.133183 0.299969
0.320794 0.133183 0.300187
0.322736 0.133183 0.300406
0.324137 0.132403 0.302175
0.326619 0.133183 0.300843
0.328561 0.133183 0.301061
0.330503 0.133183 0.301279
0.332995 0.133964 0.299944
0.334939 0.133964 0.300163
0.336883 0.133964 0.300382
0.338826 0.133964 0.300600
0.340770 0.133964 0.300819
0.343275 0.134747 0.299482
0.344658 0.133964 0.301256
0.347167 0.134747 0.299920
0.349113 0.134747 0.300139
0.351058 0.134747 0.300358
0.353004 0.134747 0.300576
0.355524 0.135532 0.299238
0.357472 0.135532 0.299457
0.359420 0.135532 0.299676
0.361949 0.136318 0.298336
0.363898 0.136318 0.298555
0.366435 0.137106 0.297212
0.368386 0.137106 0.297431
0.370338 0.137106 0.297651
0.372884 0.137895 0.296305
0.374838 0.137895 0.296525
0.377390 0.138686 0.295177
0.379346 0.138686 0.295397
0.381302 0.138686 0.295617
0.383258 0.138686 0.295837
0.385822 0.139479 0.294487
0.387779 0.139479 0.294707
0.390351 0.140273 0.293354
0.392311 0.140273 0.293575
0.394271 0.140273 0.293795
0.396851 0.141069 0.292440
0.398813 0.141069 0.292661
0.401401 0.141867 0.291303
0.403994 0.142666 0.289943
0.405960 0.142666 0.290164
0.408561 0.143467 0.288801
0.411167 0.144270 0.287435
0.413137 0.144270 0.287656
0.416395 0.145880 0.284695
0.418369 0.145880 0.284917
0.420994 0.146687 0.283543
0.423624 0.147496 0.282166
0.425602 0.147496 0.282388
0.427580 0.147496 0.282611
0.430220 0.148307 0.281231
0.432864 0.149120 0.279849
0.435515 0.149934 0.278464
0.438171 0.150750 0.277076
0.440157 0.150750 0.277299
0.442821 0.151568 0.275908
0.445490 0.152388 0.274515
0.448165 0.153209 0.273118
0.450845 0.154032 0.271719
0.453532 0.154856 0.270316
0.456919 0.156511 0.267277
0.460322 0.158172 0.264226
0.463738 0.159841 0.261161
-0.289870 0.264950 -0.046110
-0.285939 0.247031 -0.008523
-0.283426 0.243943 -0.001839
-0.281020 0.241896 0.002674
-0.278539 0.238844 0.009280
-0.276075 0.235814 0.015840
-0.273708 0.233805 0.020270
-0.271351 0.231805 0.024680
-0.268932 0.228823 0.031134
-0.266601 0.226846 0.035493
-0.264280 0.224879 0.039833
-0.261904 0.221944 0.046183
-0.259607 0.219999 0.050473
-0.257320 0.218063 0.054744
-0.255044 0.216135 0.058996
-0.252832 0.215175 0.061236
-0.250625 0.214217 0.063471
-0.248374 0.212307 0.067683
-0.246180 0.211355 0.069903
-0.244034 0.211355 0.070145
-0.241847 0.210405 0.072359
-0.239665 0.209458 0.074569
-0.237524 0.209458 0.074809
-0.235349 0.208512 0.077014
-0.233179 0.207569 0.079213
-0.231043 0.207569 0.079454
-0.228880 0.206628 0.081648
-0.226722 0.205689 0.083837
-0.224591 0.205689 0.084077
-0.222440 0.204752 0.086261
-0.220294 0.203817 0.088440
-0.218168 0.203817 0.088679
-0.216041 0.203817 0.088918
-0.213895 0.201953 0.093023
-0.211773 0.201953 0.093261
-0.209652 0.201953 0.093500
-0.207527 0.201025 0.095664
-0.205408 0.201025 0.095902
-0.203291 0.200098 0.098061
-0.201174 0.200098 0.098299
-0.199063 0.199174 0.100453
-0.196949 0.199174 0.100690
-0.194845 0.198251 0.102839
-0.192733 0.198251 0.103077
-0.190621 0.198251 0.103314
-0.188527 0.197331 0.105458
-0.186417 0.197331 0.105695
-0.184307 0.197331 0.105932
-0.182222 0.196413 0.108070
-0.180087 0.197331 0.106407
-0.177977 0.197331 0.106644
-0.175899 0.196413 0.108782
-0.173792 0.196413 0.109019
-0.171684 0.196413 0.109256
-0.169576 0.196413 0.109493
-0.167469 0.196413 0.109730
-0.165361 0.196413 0.109967
-0.163300 0.195496 0.112098
-0.161194 0.195496 0.112335
-0.159089 0.195496 0.112572
-0.156984 0.195496 0.112809
-0.154878 0.195496 0.113045
-0.152773 0.195496 0.113282
-0.150668 0.195496 0.113519
-0.148562 0.195496 0.113756
-0.146457 0.195496 0.113992
-0.144284 0.196413 0.112337
-0.142177 0.196413 0.112574
-0.139997 0.197331 0.110916
-0.137887 0.197331 0.111153
-0.135777 0.197331 0.111391
-0.133667 0.197331 0.111628
-0.131557 0.197331 0.111865
-0.129447 0.197331 0.112103
-0.127337 0.197331 0.112340
-0.125138 0.198251 0.110679
-0.123026 0.198251 0.110917
-0.120913 0.198251 0.111155
-0.118801 0.198251 0.111392
-0.116689 0.198251 0.111630
-0.114576 0.198251 0.111867
-0.112464 0.198251 0.112105
-0.110352 0.198251 0.112342
-0.108239 0.198251 0.112580
-0.106017 0.199174 0.110918
-0.103902 0.199174 0.111156
-0.101787 0.199174 0.111394
-0.099673 0.199174 0.111631
-0.097558 0.199174 0.111869
-0.095321 0.200098 0.110205
-0.093204 0.200098 0.110443
-0.091087 0.200098 0.110681
-0.088970 0.200098 0.110919
-0.086853 0.200098 0.111157
-0.084736 0.200098 0.111395
-0.082482 0.201025 0.109728
-0.080363 0.201025 0.109966
-0.078102 0.201953 0.108296
-0.075836 0.202884 0.106621
-0.073711 0.202884 0.106860
-0.071438 0.203817 0.105182
-0.069311 0.203817 0.105422
-0.067030 0.204752 0.103740
-0.064901 0.204752 0.103980
-0.062613 0.205689 0.102295
-0.060482 0.205689 0.102535
-0.058185 0.206628 0.100846
-0.056052 0.206628 0.101086
-0.053748 0.207569 0.099394
-0.051439 0.208512 0.097699
-0.049301 0.208512 0.097939
-0.046984 0.209458 0.096240
-0.044844 0.209458 0.096481
-0.042703 0.209458 0.096722
-0.040376 0.210405 0.095019
-0.038233 0.210405 0.095260
-0.035899 0.211355 0.093554
-0.033753 0.211355 0.093795
-0.031411 0.212307 0.092086
-0.029263 0.212307 0.092327
-0.026914 0.213261 0.090614
-0.024763 0.213261 0.090856
-0.022406 0.214217 0.089139
-0.020253 0.214217 0.089381
-0.017888 0.215175 0.087661
-0.015517 0.216135 0.085936
-0.013359 0.216135 0.086179
-0.010981 0.217098 0.084451
-0.008820 0.217098 0.084694
-0.006434 0.218063 0.082962
-0.004043 0.219030 0.081227
-0.001646 0.219999 0.079487
0.000522 0.219999 0.079731
0.002927 0.220971 0.077988
0.005097 0.220971 0.078232
0.007510 0.221944 0.076485
0.009929 0.222920 0.074734
0.012353 0.223899 0.072979
0.014783 0.224879 0.071220
0.017218 0.225862 0.069457
0.019659 0.226846 0.067690
0.022105 0.227834 0.065919
0.024557 0.228823 0.064143
0.027015 0.229815 0.062364
0.029749 0.231805 0.058546
0.032497 0.233805 0.054710
0.035257 0.235814 0.050856
0.037747 0.236821 0.049047
0.040529 0.238844 0.045166
0.043324 0.240877 0.041268
0.046132 0.242919 0.037351
0.048953 0.244970 0.033416
0.051788 0.247031 0.029462
0.054636 0.249102 0.025489
0.057497 0.251183 0.021498
0.060372 0.253273 0.017488
0.063260 0.255374 0.013459
0.066163 0.257484 0.009411
0.069079 0.259604 0.005343
0.072341 0.262804 -0.000923
0.074953 0.263876 -0.002851
0.077912 0.266027 -0.006977
0.080884 0.268189 -0.011123
0.083871 0.270361 -0.015290
0.086873 0.272543 -0.019476
0.090607 0.276940 -0.028171
0.165745 0.257484 0.020611
0.165361 0.251183 0.033630
0.166729 0.249102 0.038097
0.168091 0.247031 0.042543
0.169446 0.244970 0.046968
0.170795 0.242919 0.051372
0.172137 0.240877 0.055756
0.173474 0.238844 0.060119
0.174804 0.236821 0.064462
0.176128 0.234808 0.068785
0.177445 0.232804 0.073087
0.178757 0.230809 0.077370
0.180063 0.228823 0.081633
0.181807 0.227834 0.083881
0.183101 0.225862 0.088114
0.184389 0.223899 0.092328
0.186119 0.222920 0.094551
0.187396 0.220971 0.098735
0.188219 0.218063 0.104856
0.189932 0.217098 0.107048
0.191192 0.215175 0.111177
0.193347 0.215175 0.111419
0.195049 0.214217 0.113597
0.196292 0.212307 0.117696
0.197985 0.211355 0.119860
0.199674 0.210405 0.122018
0.201359 0.209458 0.124172
0.203040 0.208512 0.126321
0.204717 0.207569 0.128465
0.206391 0.206628 0.130604
0.208061 0.205689 0.132738
0.209727 0.204752 0.134868
0.211390 0.203817 0.136993
0.213048 0.202884 0.139113
0.214235 0.201025 0.143101
0.214018 0.196413 0.152637
0.213803 0.191851 0.162068
0.214051 0.188238 0.169585
0.214296 0.184657 0.177037
0.214082 0.180224 0.186202
0.214325 0.176712 0.193509
0.214565 0.173231 0.200753
0.214354 0.168921 0.209663
0.214592 0.165506 0.216769
0.214828 0.162120 0.223814
0.215062 0.158763 0.230799
0.215294 0.155434 0.237726
0.215083 0.151312 0.246246
0.215313 0.148046 0.253043
0.215541 0.144807 0.259784
0.215767 0.141594 0.266468
0.215991 0.138408 0.273098
0.215781 0.134463 0.281253
0.216003 0.131335 0.287761
0.216223 0.128233 0.294217
0.216441 0.125156 0.300620
0.216658 0.122104 0.306971
0.216873 0.119076 0.313271
0.217933 0.117572 0.316509
0.218989 0.116073 0.319734
0.220466 0.115326 0.321449
0.221940 0.114580 0.323160
0.223411 0.113836 0.324869
0.225308 0.113836 0.325082
0.226775 0.113094 0.326786
0.228670 0.113094 0.326999
0.230565 0.113094 0.327212
0.232461 0.113094 0.327426
0.234356 0.113094 0.327639
0.236692 0.113836 0.326362
0.239033 0.114580 0.325083
0.241378 0.115326 0.323801
0.243728 0.116073 0.322517
0.246083 0.116822 0.321230
0.248898 0.118323 0.318434
0.251265 0.119076 0.317139
0.253637 0.119831 0.315841
0.256013 0.120587 0.314541
0.258394 0.121345 0.313239
0.261251 0.122865 0.310409
0.263645 0.123627 0.309098
0.266044 0.124391 0.307785
0.268447 0.125156 0.306469
0.271339 0.126691 0.303611
0.274243 0.128233 0.300742
0.277158 0.129781 0.297862
0.279590 0.130557 0.296526
0.282525 0.132115 0.293628
0.283969 0.131335 0.295406
0.285911 0.131335 0.295624
0.287853 0.131335 0.295843
0.289289 0.130557 0.297617
0.291229 0.130557 0.297835
0.293169 0.130557 0.298053
0.295109 0.130557 0.298271
0.297049 0.130557 0.298490
0.298989 0.130557 0.298708
0.300929 0.130557 0.298926
0.302869 0.130557 0.299144
0.304809 0.130557 0.299362
0.306749 0.130557 0.299581
0.308689 0.130557 0.299799
0.310628 0.130557 0.300017
0.313097 0.131335 0.298682
0.315039 0.131335 0.298900
0.316448 0.130557 0.300671
0.318388 0.130557 0.300890
0.320328 0.130557 0.301108
0.322268 0.130557 0.301326
0.324208 0.130557 0.301544
0.326148 0.130557 0.301762
0.328088 0.130557 0.301981
0.330574 0.131335 0.300648
0.332516 0.131335 0.300866
0.334458 0.131335 0.301084
0.336400 0.131335 0.301303
0.338897 0.132115 0.299968
0.340841 0.132115 0.300187
0.342785 0.132115 0.300405
0.344729 0.132115 0.300624
0.346673 0.132115 0.300843
0.348617 0.132115 0.301061
0.350561 0.132115 0.301280
0.353075 0.132896 0.299943
0.355021 0.132896 0.300162
0.356967 0.132896 0.300381
0.359491 0.133678 0.299043
0.361439 0.133678 0.299262
0.363970 0.134463 0.297921
0.365920 0.134463 0.298140
0.367870 0.134463 0.298359
0.370410 0.135248 0.297016
0.372362 0.135248 0.297235
0.374909 0.136036 0.295889
0.376863 0.136036 0.296109
0.378817 0.136036 0.296329
0.380771 0.136036 0.296549
0.383329 0.136825 0.295201
0.385285 0.136825 0.295421
0.387851 0.137616 0.294070
0.389809 0.137616 0.294290
0.391767 0.137616 0.294510
0.394342 0.138408 0.293157
0.396302 0.138408 0.293378
0.398885 0.139202 0.292022
0.400847 0.139202 0.292243
0.403437 0.139998 0.290885
0.406032 0.140795 0.289524
0.407998 0.140795 0.289745
0.410601 0.141594 0.288382
0.413209 0.142395 0.287016
0.415823 0.143197 0.285646
0.418442 0.144001 0.284274
0.420416 0.144001 0.284497
0.423042 0.144807 0.283122
0.425674 0.145614 0.281745
0.427652 0.145614 0.281967
0.429631 0.145614 0.282190
0.432272 0.146423 0.280810
0.434919 0.147234 0.279427
0.437572 0.148046 0.278041
0.440230 0.148860 0.276653
0.442217 0.148860 0.276876
0.444882 0.149676 0.275485
0.447554 0.150493 0.274091
0.450231 0.151312 0.272694
0.452913 0.152133 0.271294
0.456296 0.153780 0.268260
0.459694 0.155434 0.265214
0.463105 0.157095 0.262155
0.466531 0.158763 0.259083
