ply
format ascii 1.0
element vertex 1724
property float x
property float y
property float z
end_header
0.036473 0.262735 0.012581
0.036473 0.262390 0.014442
0.035925 0.260508 0.015986
0.035925 0.260163 0.017848
0.035377 0.258276 0.019397
0.035377 0.257931 0.021261
0.034827 0.256040 0.022815
0.034827 0.255694 0.024681
0.034276 0.253800 0.026240
0.034276 0.253453 0.028108
0.033171 0.249999 0.029367
0.033171 0.249652 0.031239
0.032617 0.247746 0.032809
0.032617 0.247399 0.034683
0.032062 0.245488 0.036258
0.031505 0.243574 0.037836
0.031505 0.243226 0.039713
0.030948 0.241308 0.041296
0.030948 0.240959 0.043176
0.030948 0.240611 0.045055
0.030948 0.240262 0.046934
0.030389 0.238339 0.048526
0.030389 0.237990 0.050407
0.029830 0.236063 0.052004
0.029830 0.235714 0.053887
0.029269 0.233782 0.055489
0.028707 0.231847 0.057095
0.028707 0.231497 0.058981
0.028144 0.229557 0.060592
0.027580 0.227613 0.062206
0.027580 0.227263 0.064096
0.027014 0.225315 0.065715
0.026448 0.223363 0.067337
0.025880 0.221407 0.068963
0.025880 0.221056 0.070859
0.025312 0.219096 0.072490
0.024742 0.217132 0.074123
0.024171 0.215164 0.075761
0.023598 0.213192 0.077401
0.023598 0.212839 0.079305
0.023025 0.210862 0.080951
0.022450 0.208882 0.082600
0.021875 0.206897 0.084253
0.021298 0.204909 0.085908
0.020720 0.202917 0.087568
0.019560 0.199275 0.088979
0.018979 0.197271 0.090646
0.018396 0.195262 0.092317
0.017812 0.193250 0.093991
0.017227 0.191233 0.095669
0.016640 0.189212 0.097350
0.015464 0.185516 0.098792
0.014874 0.183483 0.100481
0.014283 0.181446 0.102174
0.013690 0.179405 0.103871
0.012502 0.175670 0.105333
0.011906 0.173616 0.107038
0.011309 0.171558 0.108746
0.010110 0.167791 0.110225
0.008907 0.164009 0.111709
0.007699 0.160210 0.113200
0.006485 0.156396 0.114697
0.005267 0.152566 0.116200
0.004043 0.148720 0.117710
0.002814 0.144857 0.119225
0.000962 0.139217 0.120521
-0.000903 0.133541 0.121825
-0.002779 0.127828 0.123137
-0.005299 0.120279 0.124233
-0.007204 0.114482 0.125563
-0.010405 0.104986 0.126452
-0.014292 0.093530 0.127126
-0.018230 0.081926 0.127809
-0.024909 0.062501 0.127589
-0.033119 0.038697 0.126900
0.033570 0.350783 -0.476392
0.035766 0.356219 -0.471327
0.035766 0.355875 -0.469470
0.036312 0.356970 -0.466821
0.036312 0.356626 -0.464966
0.036312 0.356282 -0.463111
0.036857 0.357375 -0.460470
0.036857 0.357032 -0.458617
0.036857 0.356688 -0.456764
0.036857 0.356345 -0.454911
0.036857 0.356001 -0.453057
0.037401 0.357094 -0.450429
0.037401 0.356750 -0.448578
0.037401 0.356407 -0.446727
0.037401 0.356064 -0.444875
0.037401 0.355721 -0.443024
0.037944 0.356812 -0.440408
0.037944 0.356469 -0.438559
0.037944 0.356126 -0.436709
0.037944 0.355784 -0.434859
0.037944 0.355441 -0.433010
0.037944 0.355098 -0.431160
0.037944 0.354755 -0.429311
0.037944 0.354412 -0.427461
0.037401 0.352631 -0.426361
0.037401 0.352288 -0.424510
0.037401 0.351945 -0.422658
0.037401 0.351602 -0.420807
0.037401 0.351258 -0.418955
0.036857 0.349473 -0.417846
0.037401 0.350572 -0.415252
0.036857 0.348786 -0.414139
0.036857 0.348442 -0.412286
0.036312 0.346652 -0.411169
0.036312 0.346308 -0.409314
0.035766 0.344514 -0.408193
0.035766 0.344170 -0.406336
0.035766 0.343826 -0.404479
0.035219 0.342028 -0.403352
0.035219 0.341683 -0.401493
0.034670 0.339881 -0.400362
0.034670 0.339536 -0.398501
0.034121 0.337730 -0.397366
0.034121 0.337385 -0.395504
0.034121 0.337039 -0.393641
0.033570 0.335229 -0.392500
0.033570 0.334884 -0.390636
0.033019 0.333070 -0.389490
0.032466 0.331252 -0.388343
0.032466 0.330905 -0.386475
0.031358 0.327606 -0.386041
0.030802 0.325777 -0.384886
0.030802 0.325430 -0.383013
0.030245 0.323597 -0.381854
0.029687 0.321761 -0.380693
0.029127 0.319921 -0.379530
0.028567 0.318077 -0.378364
0.028567 0.317728 -0.376483
0.028005 0.315881 -0.375314
0.027443 0.314029 -0.374141
0.026314 0.310666 -0.373679
0.025748 0.308804 -0.372501
0.026879 0.311475 -0.369193
0.027443 0.312632 -0.366602
0.028005 0.313786 -0.364016
0.028567 0.314939 -0.361435
0.028567 0.314590 -0.359554
0.029127 0.315740 -0.356980
0.029127 0.315392 -0.355101
0.029687 0.316540 -0.352534
0.030245 0.317686 -0.349972
0.030245 0.317338 -0.348097
0.030802 0.318482 -0.345542
0.031358 0.319624 -0.342992
0.032466 0.322247 -0.339776
0.032466 0.321901 -0.337908
0.033019 0.323036 -0.335373
0.033019 0.322690 -0.333507
0.033570 0.323823 -0.330979
0.033570 0.323478 -0.329115
0.034121 0.324609 -0.326594
0.034121 0.324264 -0.324732
0.034670 0.325393 -0.322218
0.035219 0.326520 -0.319708
0.035219 0.326175 -0.317850
0.035766 0.327301 -0.315347
0.035766 0.326956 -0.313491
0.036312 0.328080 -0.310995
0.036312 0.327736 -0.309140
0.036857 0.328857 -0.306651
0.037401 0.329976 -0.304167
0.037401 0.329633 -0.302316
0.037401 0.329290 -0.300464
0.037944 0.330408 -0.297989
0.037944 0.330065 -0.296140
0.038485 0.331181 -0.293671
0.038485 0.330838 -0.291823
0.038485 0.330495 -0.289975
0.039026 0.331610 -0.287515
0.039026 0.331268 -0.285669
0.039566 0.332380 -0.283216
0.039566 0.332038 -0.281371
0.040105 0.333149 -0.278924
0.040105 0.332807 -0.277082
0.040642 0.333916 -0.274642
0.041179 0.335023 -0.272206
0.041179 0.334682 -0.270367
0.041714 0.335787 -0.267938
0.041714 0.335446 -0.266101
0.042249 0.336549 -0.263679
0.042249 0.336209 -0.261844
0.042782 0.337310 -0.259428
0.042782 0.336970 -0.257594
0.043314 0.338069 -0.255185
0.043314 0.337730 -0.253353
0.043846 0.338827 -0.250950
0.043846 0.338488 -0.249120
0.043314 0.336711 -0.247858
0.043846 0.337810 -0.245461
0.043846 0.337470 -0.243631
0.044376 0.338567 -0.241240
0.044376 0.338228 -0.239412
0.044376 0.337889 -0.237584
0.044905 0.338985 -0.235201
0.044905 0.338646 -0.233374
0.045433 0.339739 -0.230998
0.045961 0.340831 -0.228626
0.046487 0.341920 -0.226258
0.046487 0.341582 -0.224437
0.047012 0.342670 -0.222076
0.047536 0.343755 -0.219719
0.048059 0.344839 -0.217367
0.048581 0.345920 -0.215020
0.048581 0.345583 -0.213206
0.049103 0.346663 -0.210865
0.049623 0.347740 -0.208528
0.050142 0.348815 -0.206196
0.050660 0.349889 -0.203868
0.050660 0.349554 -0.202061
0.051177 0.350625 -0.199740
0.051693 0.351695 -0.197423
0.051693 0.351360 -0.195619
0.052208 0.352428 -0.193308
0.052208 0.352094 -0.191506
0.052723 0.353160 -0.189202
0.052723 0.352826 -0.187402
0.052723 0.352492 -0.185602
0.052723 0.352158 -0.183802
0.053236 0.353223 -0.181506
0.053236 0.352890 -0.179708
0.053236 0.352557 -0.177910
0.053236 0.352223 -0.176111
0.053236 0.351890 -0.174313
0.053748 0.352954 -0.172029
0.053748 0.352621 -0.170233
0.054259 0.353683 -0.167955
0.054259 0.353350 -0.166160
0.054259 0.353018 -0.164365
0.054259 0.352685 -0.162570
0.054259 0.352352 -0.160775
0.054769 0.353414 -0.158508
0.054769 0.353081 -0.156715
0.054769 0.352749 -0.154922
0.054769 0.352416 -0.153129
0.054769 0.352084 -0.151336
0.054769 0.351751 -0.149543
0.054769 0.351419 -0.147749
0.054769 0.351086 -0.145956
0.054769 0.350754 -0.144163
0.054259 0.349024 -0.142826
0.054259 0.348692 -0.141031
0.054769 0.349757 -0.138783
0.054259 0.348026 -0.137442
0.054259 0.347693 -0.135647
0.054259 0.347360 -0.133852
0.054259 0.347028 -0.132057
0.054259 0.346695 -0.130262
0.053748 0.344960 -0.128911
0.053748 0.344627 -0.127114
0.053748 0.344293 -0.125317
0.053748 0.343960 -0.123521
0.053236 0.342221 -0.122162
0.053236 0.341887 -0.120364
0.053236 0.341554 -0.118565
0.053236 0.341221 -0.116767
0.053236 0.340887 -0.114969
0.052723 0.339143 -0.113600
0.052723 0.338809 -0.111800
0.052723 0.338476 -0.110000
0.052208 0.336727 -0.108625
0.052208 0.336393 -0.106824
0.052208 0.336059 -0.105022
0.051693 0.334307 -0.103641
0.051693 0.333973 -0.101838
0.051693 0.333639 -0.100034
0.051177 0.331882 -0.098647
0.051177 0.331548 -0.096842
0.050660 0.329788 -0.095451
0.050660 0.329453 -0.093644
0.050660 0.329118 -0.091837
0.050142 0.327354 -0.090439
0.050142 0.327019 -0.088631
0.049623 0.325251 -0.087229
0.049623 0.324915 -0.085419
0.049623 0.324580 -0.083608
0.049103 0.322808 -0.082200
0.049103 0.322472 -0.080388
0.049103 0.322136 -0.078576
0.048581 0.320361 -0.077162
0.048581 0.320024 -0.075348
0.048059 0.318245 -0.073929
0.048059 0.317908 -0.072113
0.047536 0.316125 -0.070690
0.047536 0.315788 -0.068873
0.047012 0.314001 -0.067445
0.047012 0.313664 -0.065626
0.047012 0.313327 -0.063807
0.046487 0.311536 -0.062373
0.046487 0.311198 -0.060552
0.046487 0.310860 -0.058731
0.045961 0.309065 -0.057290
0.045961 0.308727 -0.055468
0.045433 0.306928 -0.054023
0.045433 0.306590 -0.052198
0.044905 0.304787 -0.050749
0.044905 0.304448 -0.048923
0.044376 0.302642 -0.047469
0.044376 0.302303 -0.045641
0.043846 0.300492 -0.044182
0.043846 0.300153 -0.042352
0.043314 0.298339 -0.040889
0.043314 0.297999 -0.039057
0.042782 0.296181 -0.037589
0.042782 0.295841 -0.035756
0.042249 0.294019 -0.034284
0.042249 0.293679 -0.032448
0.041714 0.291853 -0.030971
0.041714 0.291512 -0.029134
0.041179 0.289682 -0.027652
0.041179 0.289341 -0.025814
0.040642 0.287507 -0.024327
0.040642 0.287166 -0.022486
0.040105 0.285328 -0.020995
0.040105 0.284987 -0.019153
0.039566 0.283145 -0.017657
0.039566 0.282803 -0.015813
0.039026 0.280958 -0.014312
0.039026 0.280615 -0.012466
0.038485 0.278766 -0.010960
0.038485 0.278423 -0.009113
0.037944 0.276570 -0.007602
0.037944 0.276227 -0.005753
0.037401 0.274369 -0.004237
0.037401 0.274026 -0.002386
0.036857 0.272164 -0.000866
0.036857 0.271821 0.000987
0.036312 0.269955 0.002512
0.036312 0.269611 0.004367
0.035766 0.267742 0.005897
0.035766 0.267397 0.007753
0.035219 0.265524 0.009288
0.035219 0.265179 0.011147
0.034670 0.263301 0.012686
0.034670 0.262957 0.014547
0.034121 0.261075 0.016091
0.034121 0.260729 0.017953
0.033570 0.258844 0.019502
0.033570 0.258498 0.021367
0.033019 0.256608 0.022921
0.033019 0.256262 0.024787
0.032466 0.254368 0.026346
0.032466 0.254022 0.028214
0.031358 0.250569 0.029473
0.031358 0.250222 0.031345
0.030802 0.248316 0.032915
0.030802 0.247969 0.034788
0.030245 0.246059 0.036363
0.029687 0.244145 0.037942
0.029687 0.243797 0.039819
0.029127 0.241879 0.041402
0.029127 0.241531 0.043282
0.029127 0.241183 0.045161
0.029127 0.240834 0.047040
0.028567 0.238912 0.048632
0.028567 0.238563 0.050513
0.028005 0.236636 0.052110
0.028005 0.236287 0.053993
0.027443 0.234356 0.055596
0.026879 0.232421 0.057201
0.026879 0.232071 0.059088
0.026314 0.230132 0.060698
0.025748 0.228189 0.062312
0.025181 0.226242 0.063929
0.025181 0.225891 0.065822
0.024613 0.223940 0.067444
0.024043 0.221984 0.069070
0.023473 0.220025 0.070698
0.023473 0.219673 0.072597
0.022901 0.217710 0.074231
0.022328 0.215742 0.075868
0.021754 0.213771 0.077509
0.021754 0.213418 0.079413
0.021179 0.211442 0.081059
0.020602 0.209462 0.082708
0.020025 0.207479 0.084360
0.019446 0.205491 0.086016
0.018285 0.201858 0.087423
0.017703 0.199858 0.089087
0.017119 0.197855 0.090755
0.016534 0.195847 0.092426
0.015949 0.193835 0.094100
0.015361 0.191819 0.095778
0.014773 0.189799 0.097459
0.013593 0.186104 0.098900
0.013001 0.184072 0.100590
0.012408 0.182035 0.102283
0.011218 0.178309 0.103741
0.010621 0.176261 0.105442
0.010023 0.174208 0.107147
0.009424 0.172150 0.108856
0.008222 0.168385 0.110335
0.007014 0.164603 0.111819
0.005802 0.160806 0.113310
0.004585 0.156993 0.114808
0.003362 0.153164 0.116311
0.002135 0.149319 0.117821
0.000902 0.145458 0.119337
-0.000957 0.139820 0.120633
-0.002827 0.134145 0.121937
-0.004710 0.128435 0.123250
-0.007238 0.120888 0.124346
-0.009149 0.115092 0.125676
-0.012360 0.105600 0.126566
-0.015607 0.096005 0.127466
-0.020211 0.082548 0.127925
-0.026235 0.065052 0.127934
-0.034454 0.041309 0.127250
0.033418 0.355344 -0.472020
0.033967 0.356440 -0.469366
0.033967 0.356096 -0.467509
0.033967 0.355752 -0.465652
0.034515 0.356847 -0.463006
0.034515 0.356503 -0.461151
0.035061 0.357596 -0.458513
0.035061 0.357252 -0.456659
0.035061 0.356909 -0.454806
0.035061 0.356565 -0.452953
0.035061 0.356221 -0.451100
0.035061 0.355878 -0.449246
0.035607 0.356971 -0.446622
0.035607 0.356627 -0.444771
0.035607 0.356284 -0.442919
0.035607 0.355941 -0.441068
0.035607 0.355598 -0.439216
0.036152 0.356689 -0.436605
0.036152 0.356346 -0.434755
0.036152 0.356004 -0.432905
0.036152 0.355661 -0.431056
0.036152 0.355318 -0.429206
0.035607 0.353538 -0.428108
0.035607 0.353195 -0.426256
0.035607 0.352852 -0.424405
0.035607 0.352508 -0.422554
0.035607 0.352165 -0.420702
0.035607 0.351822 -0.418851
0.035061 0.350037 -0.417741
0.035061 0.349693 -0.415888
0.035061 0.349350 -0.414035
0.035061 0.349006 -0.412181
0.034515 0.347217 -0.411064
0.034515 0.346873 -0.409209
0.033967 0.345079 -0.408088
0.033967 0.344735 -0.406231
0.033967 0.344391 -0.404374
0.033418 0.342593 -0.403247
0.033418 0.342249 -0.401388
0.032868 0.340447 -0.400257
0.032868 0.340102 -0.398396
0.032317 0.338297 -0.397261
0.032317 0.337952 -0.395398
0.031764 0.336142 -0.394259
0.031764 0.335797 -0.392395
0.031764 0.335451 -0.390530
0.031211 0.333637 -0.389385
0.030657 0.331820 -0.388237
0.030657 0.331474 -0.386369
0.029544 0.328175 -0.385935
0.028987 0.326347 -0.384781
0.028987 0.326000 -0.382907
0.028428 0.324168 -0.381748
0.027868 0.322332 -0.380587
0.027307 0.320493 -0.379424
0.026745 0.318650 -0.378258
0.026745 0.318301 -0.376377
0.026181 0.316454 -0.375207
0.025617 0.314603 -0.374035
0.024484 0.311241 -0.373572
0.024484 0.310890 -0.371683
0.025051 0.312049 -0.369087
0.025617 0.313205 -0.366496
0.026181 0.314359 -0.363910
0.026745 0.315511 -0.361329
0.027307 0.316660 -0.358753
0.027307 0.316312 -0.356874
0.027868 0.317459 -0.354305
0.027868 0.317111 -0.352428
0.028428 0.318257 -0.349866
0.028428 0.317909 -0.347991
0.028987 0.319053 -0.345436
0.029544 0.320194 -0.342886
0.030657 0.322816 -0.339670
0.030657 0.322470 -0.337802
0.031211 0.323604 -0.335268
0.031764 0.324736 -0.332738
0.031764 0.324391 -0.330874
0.032317 0.325521 -0.328351
0.032317 0.325176 -0.326489
0.032868 0.326304 -0.323973
0.032868 0.325959 -0.322113
0.033418 0.327086 -0.319604
0.033418 0.326741 -0.317745
0.033967 0.327866 -0.315243
0.033967 0.327521 -0.313386
0.034515 0.328644 -0.310890
0.035061 0.329765 -0.308400
0.035061 0.329421 -0.306547
0.035607 0.330540 -0.304063
0.035607 0.330197 -0.302211
0.035607 0.329853 -0.300360
0.036152 0.330971 -0.297885
0.036152 0.330628 -0.296035
0.036695 0.331743 -0.293567
0.036695 0.331400 -0.291719
0.037238 0.332514 -0.289257
0.037238 0.332172 -0.287411
0.037779 0.333283 -0.284956
0.037779 0.332941 -0.283112
0.038320 0.334051 -0.280663
0.038320 0.333709 -0.278820
0.038859 0.334817 -0.276378
0.038859 0.334476 -0.274538
0.039397 0.335582 -0.272102
0.039935 0.336686 -0.269672
0.039935 0.336346 -0.267835
0.040471 0.337448 -0.265410
0.040471 0.337107 -0.263575
0.041006 0.338208 -0.261158
0.041006 0.337868 -0.259324
0.041540 0.338966 -0.256913
0.041540 0.338627 -0.255081
0.041540 0.338287 -0.253250
0.042073 0.339384 -0.250847
0.042073 0.339045 -0.249017
0.042605 0.340140 -0.246621
0.042073 0.338366 -0.245358
0.042073 0.338027 -0.243528
0.042605 0.339123 -0.241137
0.042605 0.338784 -0.239309
0.043136 0.339879 -0.236924
0.043136 0.339540 -0.235098
0.043666 0.340633 -0.232719
0.043666 0.340295 -0.230895
0.044195 0.341386 -0.228523
0.044723 0.342474 -0.226155
0.045250 0.343561 -0.223793
0.045775 0.344645 -0.221434
0.045775 0.344308 -0.219617
0.046300 0.345391 -0.217265
0.046824 0.346472 -0.214918
0.047347 0.347550 -0.212575
0.047869 0.348627 -0.210236
0.048390 0.349701 -0.207903
0.048390 0.349366 -0.206094
0.048909 0.350438 -0.203766
0.049428 0.351509 -0.201443
0.049946 0.352578 -0.199124
0.050463 0.353644 -0.196810
0.050463 0.353310 -0.195008
0.050463 0.352976 -0.193207
0.050979 0.354041 -0.190900
0.050979 0.353707 -0.189100
0.050979 0.353374 -0.187300
0.051494 0.354437 -0.185002
0.051494 0.354104 -0.183203
0.051494 0.353771 -0.181405
0.051494 0.353437 -0.179607
0.052007 0.354500 -0.177318
0.052007 0.354167 -0.175521
0.052520 0.355228 -0.173238
0.052520 0.354895 -0.171443
0.052520 0.354562 -0.169648
0.052520 0.354229 -0.167853
0.052520 0.353897 -0.166058
0.053032 0.354957 -0.163787
0.053032 0.354624 -0.161994
0.053032 0.354292 -0.160200
0.053032 0.353959 -0.158407
0.053032 0.353627 -0.156614
0.053032 0.353294 -0.154821
0.053543 0.354354 -0.152562
0.053032 0.352630 -0.151235
0.053032 0.352297 -0.149441
0.053032 0.351965 -0.147648
0.053032 0.351632 -0.145855
0.053032 0.351300 -0.144062
0.053032 0.350967 -0.142269
0.053032 0.350635 -0.140475
0.053032 0.350302 -0.138682
0.053032 0.349970 -0.136889
0.052520 0.348239 -0.135545
0.052520 0.347907 -0.133751
0.052520 0.347574 -0.131956
0.052520 0.347241 -0.130161
0.052520 0.346908 -0.128366
0.052007 0.345173 -0.127013
0.052007 0.344840 -0.125216
0.052007 0.344507 -0.123420
0.052007 0.344174 -0.121623
0.052007 0.343841 -0.119826
0.051494 0.342101 -0.118464
0.051494 0.341768 -0.116665
0.051494 0.341434 -0.114867
0.050979 0.339691 -0.113498
0.050979 0.339357 -0.111698
0.050979 0.339023 -0.109898
0.050463 0.337276 -0.108524
0.050463 0.336942 -0.106722
0.050463 0.336608 -0.104920
0.049946 0.334856 -0.103539
0.049946 0.334522 -0.101736
0.049946 0.334187 -0.099932
0.049428 0.332432 -0.098545
0.049428 0.332097 -0.096740
0.049428 0.331762 -0.094935
0.048909 0.330003 -0.093542
0.048909 0.329668 -0.091735
0.048909 0.329333 -0.089928
0.048390 0.327569 -0.088529
0.047869 0.325802 -0.087127
0.047869 0.325466 -0.085316
0.047869 0.325131 -0.083506
0.047347 0.323360 -0.082098
0.047347 0.323024 -0.080286
0.047347 0.322688 -0.078474
0.046824 0.320913 -0.077059
0.046824 0.320576 -0.075245
0.046300 0.318797 -0.073826
0.046300 0.318461 -0.072011
0.045775 0.316678 -0.070588
0.045775 0.316341 -0.068770
0.045250 0.314555 -0.067342
0.045250 0.314218 -0.065523
0.044723 0.312427 -0.064091
0.044723 0.312090 -0.062270
0.044723 0.311752 -0.060449
0.044723 0.311414 -0.058628
0.044195 0.309620 -0.057188
0.044195 0.309282 -0.055365
0.043666 0.307483 -0.053920
0.043666 0.307145 -0.052095
0.043136 0.305343 -0.050646
0.043136 0.305004 -0.048820
0.042605 0.303198 -0.047366
0.042605 0.302859 -0.045537
0.042073 0.301049 -0.044079
0.042073 0.300710 -0.042249
0.041540 0.298896 -0.040786
0.041540 0.298556 -0.038954
0.041006 0.296739 -0.037486
0.041006 0.296399 -0.035653
0.040471 0.294577 -0.034180
0.040471 0.294237 -0.032345
0.039935 0.292412 -0.030868
0.039935 0.292071 -0.029031
0.039397 0.290242 -0.027549
0.039397 0.289901 -0.025710
0.038859 0.288068 -0.024223
0.038859 0.287726 -0.022383
0.038320 0.285889 -0.020891
0.038320 0.285547 -0.019049
0.037779 0.283706 -0.017553
0.037779 0.283364 -0.015709
0.037238 0.281519 -0.014208
0.037238 0.281177 -0.012362
0.036695 0.279328 -0.010856
0.036695 0.278985 -0.009008
0.036152 0.277132 -0.007498
0.036152 0.276790 -0.005648
0.035607 0.274933 -0.004133
0.035607 0.274589 -0.002282
0.035061 0.272728 -0.000762
0.035061 0.272385 0.001092
0.034515 0.270520 0.002617
0.034515 0.270176 0.004472
0.033967 0.268307 0.006001
0.033967 0.267962 0.007858
0.033418 0.266089 0.009393
0.033418 0.265745 0.011251
0.032868 0.263868 0.012791
0.032868 0.263523 0.014651
0.032317 0.261641 0.016196
0.032317 0.261296 0.018058
0.031764 0.259411 0.019607
0.031764 0.259065 0.021472
0.031211 0.257176 0.023026
0.031211 0.256830 0.024892
0.030657 0.254937 0.026451
0.030657 0.254590 0.028319
0.029544 0.251138 0.029579
0.029544 0.250791 0.031450
0.028987 0.248886 0.033020
0.028987 0.248539 0.034894
0.028428 0.246630 0.036469
0.027868 0.244717 0.038048
0.027868 0.244369 0.039925
0.027307 0.242451 0.041508
0.027307 0.242103 0.043388
0.027307 0.241755 0.045267
0.026745 0.239833 0.046857
0.026745 0.239484 0.048738
0.026745 0.239135 0.050619
0.026181 0.237209 0.052217
0.025617 0.235279 0.053817
0.025617 0.234929 0.055702
0.025051 0.232995 0.057308
0.025051 0.232645 0.059194
0.024484 0.230707 0.060805
0.023917 0.228764 0.062419
0.023348 0.226818 0.064036
0.023348 0.226467 0.065929
0.022777 0.224516 0.067551
0.022206 0.222561 0.069177
0.021634 0.220603 0.070806
0.021634 0.220251 0.072704
0.021060 0.218288 0.074338
0.020485 0.216321 0.075975
0.019909 0.214350 0.077616
0.019332 0.212376 0.079260
0.019332 0.212022 0.081166
0.018754 0.210043 0.082815
0.018175 0.208060 0.084468
0.017012 0.204436 0.085870
0.016429 0.202441 0.087531
0.015845 0.200442 0.089195
0.015260 0.198439 0.090863
0.014673 0.196432 0.092534
0.014085 0.194420 0.094208
0.013496 0.192405 0.095886
0.012906 0.190385 0.097568
0.011722 0.186692 0.099009
0.011128 0.184660 0.100699
0.010533 0.182624 0.102392
0.009339 0.178899 0.103850
0.008741 0.176851 0.105552
0.008141 0.174799 0.107257
0.006937 0.171043 0.108731
0.006333 0.168978 0.110445
0.005122 0.165198 0.111930
0.003906 0.161402 0.113421
0.002685 0.157590 0.114918
0.001458 0.153762 0.116422
0.000227 0.149919 0.117932
-0.001010 0.146059 0.119448
-0.002252 0.142183 0.120971
-0.004751 0.134750 0.122049
-0.006640 0.129041 0.123362
-0.009177 0.121497 0.124459
-0.011094 0.115703 0.125789
-0.014316 0.106214 0.126680
-0.017573 0.096622 0.127581
-0.022192 0.083170 0.128040
-0.028235 0.065681 0.128051
-0.035785 0.043916 0.127600
0.031617 0.355910 -0.471915
0.031617 0.355565 -0.470056
0.032168 0.356661 -0.467404
0.032168 0.356317 -0.465547
0.032168 0.355973 -0.463690
0.032168 0.355628 -0.461833
0.032717 0.356723 -0.459191
0.032717 0.356379 -0.457336
0.033266 0.357473 -0.454702
0.033266 0.357129 -0.452848
0.033266 0.356785 -0.450995
0.033266 0.356442 -0.449142
0.033266 0.356098 -0.447289
0.033813 0.357191 -0.444666
0.033813 0.356847 -0.442815
0.033813 0.356504 -0.440963
0.033813 0.356161 -0.439112
0.033813 0.355818 -0.437261
0.033813 0.355474 -0.435409
0.034360 0.356566 -0.432801
0.034360 0.356223 -0.430952
0.033813 0.354445 -0.429855
0.033813 0.354101 -0.428003
0.033813 0.353758 -0.426152
0.033813 0.353415 -0.424301
0.033813 0.353072 -0.422449
0.033813 0.352728 -0.420598
0.033813 0.352385 -0.418746
0.033813 0.352042 -0.416895
0.033266 0.350257 -0.415783
0.033266 0.349914 -0.413930
0.033266 0.349570 -0.412077
0.032717 0.347781 -0.410960
0.032717 0.347437 -0.409104
0.032168 0.345644 -0.407983
0.032168 0.345300 -0.406126
0.031617 0.343504 -0.405001
0.031617 0.343159 -0.403142
0.031617 0.342814 -0.401283
0.031065 0.341013 -0.400152
0.031065 0.340668 -0.398291
0.030512 0.338864 -0.397156
0.030512 0.338518 -0.395293
0.029958 0.336710 -0.394154
0.029958 0.336364 -0.392290
0.029958 0.336018 -0.390425
0.029403 0.334205 -0.389280
0.028847 0.332389 -0.388132
0.028847 0.332042 -0.386264
0.027731 0.328745 -0.385830
0.027172 0.326917 -0.384675
0.027172 0.326570 -0.382801
0.026611 0.324738 -0.381642
0.026049 0.322903 -0.380481
0.025486 0.321065 -0.379318
0.024922 0.319222 -0.378152
0.024922 0.318873 -0.376271
0.024357 0.317027 -0.375101
0.023791 0.315177 -0.373929
0.022085 0.310305 -0.374178
0.022655 0.311465 -0.371577
0.023223 0.312623 -0.368981
0.023791 0.313779 -0.366389
0.024922 0.316432 -0.363104
0.024922 0.316083 -0.361223
0.025486 0.317232 -0.358647
0.025486 0.316884 -0.356768
0.026049 0.318031 -0.354199
0.026611 0.319175 -0.351636
0.026611 0.318827 -0.349760
0.027172 0.319970 -0.347204
0.027172 0.319623 -0.345330
0.028847 0.323731 -0.341433
0.028847 0.323384 -0.339565
0.029403 0.324518 -0.337029
0.029403 0.324172 -0.335162
0.029958 0.325304 -0.332633
0.029958 0.324958 -0.330769
0.030512 0.326088 -0.328246
0.030512 0.325742 -0.326384
0.031065 0.326870 -0.323868
0.031617 0.327996 -0.321357
0.031617 0.327651 -0.319499
0.032168 0.328775 -0.316995
0.032168 0.328431 -0.315138
0.032717 0.329553 -0.312641
0.032717 0.329209 -0.310786
0.033266 0.330329 -0.308295
0.033266 0.329985 -0.306442
0.033813 0.331103 -0.303958
0.034360 0.332219 -0.301480
0.034360 0.331876 -0.299630
0.034360 0.331533 -0.297780
0.034905 0.332648 -0.295310
0.034905 0.332305 -0.293462
0.035449 0.333418 -0.290999
0.035449 0.333076 -0.289153
0.035993 0.334186 -0.286696
0.035993 0.333844 -0.284852
0.036535 0.334953 -0.282401
0.036535 0.334612 -0.280559
0.036535 0.334270 -0.278717
0.037076 0.335378 -0.276275
0.037076 0.335036 -0.274434
0.037616 0.336142 -0.271999
0.038155 0.337245 -0.269568
0.038155 0.336905 -0.267731
0.038693 0.338006 -0.265307
0.038693 0.337666 -0.263472
0.039230 0.338766 -0.261054
0.039230 0.338426 -0.259221
0.039765 0.339524 -0.256810
0.039765 0.339184 -0.254978
0.040300 0.340280 -0.252574
0.040300 0.339941 -0.250744
0.040834 0.341035 -0.248346
0.040834 0.340696 -0.246518
0.040834 0.340358 -0.244689
0.040834 0.340019 -0.242861
0.040834 0.339680 -0.241033
0.041367 0.340773 -0.238647
0.041367 0.340435 -0.236821
0.041898 0.341526 -0.234441
0.041898 0.341188 -0.232616
0.042429 0.342278 -0.230243
0.042959 0.343366 -0.227874
0.043487 0.344452 -0.225509
0.043487 0.344114 -0.223690
0.044015 0.345198 -0.221332
0.044541 0.346280 -0.218978
0.045067 0.347360 -0.216629
0.045591 0.348438 -0.214285
0.045591 0.348102 -0.212472
0.046115 0.349178 -0.210134
0.046637 0.350252 -0.207800
0.047159 0.351323 -0.205471
0.047679 0.352393 -0.203146
0.047679 0.352059 -0.201341
0.048199 0.353127 -0.199023
0.048717 0.354192 -0.196708
0.049235 0.355256 -0.194399
0.049235 0.354923 -0.192599
0.049235 0.354589 -0.190799
0.049751 0.355652 -0.188497
0.049751 0.355318 -0.186698
0.049751 0.354985 -0.184900
0.049751 0.354651 -0.183102
0.050267 0.355713 -0.180809
0.050267 0.355380 -0.179013
0.050267 0.355047 -0.177216
0.050781 0.356107 -0.174932
0.050781 0.355774 -0.173137
0.050781 0.355441 -0.171342
0.050781 0.355108 -0.169547
0.051295 0.356167 -0.167272
0.051295 0.355835 -0.165479
0.051295 0.355502 -0.163686
0.051295 0.355170 -0.161892
0.051295 0.354838 -0.160099
0.051808 0.355896 -0.157835
0.051808 0.355564 -0.156044
0.051808 0.355232 -0.154252
0.051808 0.354899 -0.152461
0.051808 0.354567 -0.150670
0.051808 0.354235 -0.148878
0.051808 0.353903 -0.147087
0.051295 0.352178 -0.145754
0.051295 0.351845 -0.143961
0.051295 0.351513 -0.142167
0.051295 0.351181 -0.140374
0.051295 0.350848 -0.138581
0.051295 0.350516 -0.136788
0.051295 0.350183 -0.134995
0.050781 0.348453 -0.133649
0.050781 0.348120 -0.131854
0.050781 0.347787 -0.130059
0.050781 0.347455 -0.128265
0.050267 0.345720 -0.126911
0.050267 0.345387 -0.125115
0.050267 0.345054 -0.123318
0.050267 0.344721 -0.121522
0.050267 0.344388 -0.119725
0.049751 0.342649 -0.118362
0.049751 0.342315 -0.116564
0.049751 0.341982 -0.114766
0.049235 0.340239 -0.113397
0.049235 0.339905 -0.111597
0.049235 0.339571 -0.109797
0.049235 0.339237 -0.107997
0.048717 0.337490 -0.106620
0.048717 0.337156 -0.104818
0.048199 0.335405 -0.103438
0.048199 0.335071 -0.101634
0.048199 0.334736 -0.099831
0.047679 0.332981 -0.098444
0.047679 0.332647 -0.096638
0.047679 0.332312 -0.094833
0.047159 0.330553 -0.093440
0.047159 0.330218 -0.091633
0.047159 0.329883 -0.089826
0.046637 0.328120 -0.088427
0.046637 0.327784 -0.086618
0.046115 0.326017 -0.085214
0.046115 0.325682 -0.083404
0.045591 0.323911 -0.081996
0.045591 0.323575 -0.080183
0.045591 0.323239 -0.078371
0.045067 0.321465 -0.076957
0.045067 0.321128 -0.075143
0.044541 0.319350 -0.073724
0.044541 0.319013 -0.071908
0.044015 0.317231 -0.070485
0.044015 0.316894 -0.068668
0.043487 0.315108 -0.067240
0.043487 0.314771 -0.065420
0.042959 0.312981 -0.063988
0.042959 0.312644 -0.062167
0.042959 0.312306 -0.060346
0.042429 0.310512 -0.058907
0.042429 0.310174 -0.057085
0.041898 0.308377 -0.055641
0.041898 0.308039 -0.053817
0.041367 0.306237 -0.052369
0.041367 0.305899 -0.050543
0.040834 0.304093 -0.049090
0.040834 0.303754 -0.047262
0.040300 0.301945 -0.045805
0.040300 0.301606 -0.043976
0.040300 0.301267 -0.042146
0.039765 0.299453 -0.040682
0.039765 0.299114 -0.038851
0.039230 0.297297 -0.037383
0.038693 0.295476 -0.035912
0.038693 0.295136 -0.034076
0.038155 0.293311 -0.032601
0.038155 0.292971 -0.030764
0.037616 0.291142 -0.029284
0.037616 0.290801 -0.027445
0.037076 0.288969 -0.025960
0.037076 0.288628 -0.024119
0.036535 0.286791 -0.022630
0.036535 0.286450 -0.020787
0.035993 0.284609 -0.019293
0.035993 0.284268 -0.017449
0.035993 0.283926 -0.015605
0.035449 0.282081 -0.014104
0.035449 0.281739 -0.012258
0.034905 0.279890 -0.010752
0.034360 0.278038 -0.009243
0.034360 0.277695 -0.007393
0.033813 0.275839 -0.005880
0.033813 0.275496 -0.004029
0.033266 0.273636 -0.002510
0.033266 0.273292 -0.000657
0.032717 0.271428 0.000866
0.032717 0.271084 0.002721
0.032168 0.269216 0.004249
0.032168 0.268872 0.006106
0.031617 0.267000 0.007639
0.031617 0.266655 0.009498
0.031617 0.266310 0.011356
0.031065 0.264434 0.012896
0.031065 0.264089 0.014756
0.030512 0.262208 0.016301
0.029958 0.260324 0.017848
0.029958 0.259978 0.019713
0.029403 0.258090 0.021265
0.029403 0.257744 0.023131
0.028847 0.255851 0.024688
0.028847 0.255505 0.026556
0.027731 0.252055 0.027812
0.027731 0.251708 0.029684
0.027172 0.249804 0.031253
0.027172 0.249456 0.033126
0.026611 0.247548 0.034700
0.026611 0.247200 0.036575
0.026049 0.245288 0.038154
0.026049 0.244940 0.040031
0.025486 0.243023 0.041614
0.025486 0.242675 0.043494
0.025486 0.242326 0.045373
0.024922 0.240405 0.046963
0.024922 0.240056 0.048844
0.024922 0.239708 0.050725
0.024357 0.237782 0.052323
0.023791 0.235852 0.053923
0.023791 0.235503 0.055808
0.023223 0.233569 0.057414
0.023223 0.233219 0.059301
0.022655 0.231281 0.060912
0.022085 0.229339 0.062526
0.021514 0.227394 0.064143
0.020942 0.225444 0.065764
0.020942 0.225093 0.067658
0.020369 0.223139 0.069284
0.019795 0.221181 0.070913
0.019219 0.219219 0.072545
0.019219 0.218866 0.074445
0.018643 0.216900 0.076083
0.018065 0.214930 0.077724
0.017486 0.212956 0.079368
0.017486 0.212602 0.081274
0.016906 0.210624 0.082923
0.015742 0.207009 0.084320
0.015158 0.205018 0.085978
0.014573 0.203024 0.087639
0.013987 0.201026 0.089303
0.013400 0.199023 0.090971
0.012812 0.197016 0.092642
0.012222 0.195006 0.094317
0.011631 0.192991 0.095995
0.011039 0.190972 0.097676
0.009851 0.187280 0.099118
0.009255 0.185248 0.100808
0.008658 0.183213 0.102502
0.007461 0.179490 0.103960
0.006860 0.177442 0.105661
0.006258 0.175390 0.107367
0.005050 0.171635 0.108841
0.004445 0.169571 0.110555
0.003230 0.165792 0.112040
0.002010 0.161997 0.113531
0.000784 0.158187 0.115029
-0.000446 0.154361 0.116533
-0.001682 0.150518 0.118043
-0.002922 0.146659 0.119560
-0.004168 0.142785 0.121082
-0.006676 0.135354 0.122161
-0.008570 0.129648 0.123475
-0.011116 0.122106 0.124572
-0.013039 0.116314 0.125902
-0.015622 0.108659 0.127018
-0.019539 0.097240 0.127695
-0.023506 0.085672 0.128381
-0.029556 0.068226 0.128395
-0.037810 0.044552 0.127718
0.029263 0.355033 -0.472609
0.029816 0.356131 -0.469952
0.029816 0.355786 -0.468093
0.029816 0.355441 -0.466234
0.030369 0.356538 -0.463585
0.030369 0.356193 -0.461728
0.030369 0.355849 -0.459872
0.030920 0.356944 -0.457232
0.030920 0.356600 -0.455377
0.030920 0.356256 -0.453522
0.031471 0.357349 -0.450890
0.031471 0.357006 -0.449037
0.031471 0.356662 -0.447184
0.031471 0.356319 -0.445331
0.031471 0.355975 -0.443478
0.032020 0.357068 -0.440859
0.032020 0.356724 -0.439007
0.032020 0.356381 -0.437156
0.032020 0.356038 -0.435305
0.032020 0.355695 -0.433453
0.032568 0.356786 -0.430847
0.032020 0.355008 -0.429750
0.032020 0.354665 -0.427899
0.032020 0.354322 -0.426048
0.032020 0.353978 -0.424196
0.032020 0.353635 -0.422345
0.032020 0.353292 -0.420493
0.032020 0.352949 -0.418642
0.032020 0.352605 -0.416790
0.031471 0.350821 -0.415679
0.031471 0.350478 -0.413826
0.030920 0.348690 -0.412710
0.030920 0.348346 -0.410855
0.030920 0.348002 -0.409000
0.030369 0.346209 -0.407878
0.030369 0.345865 -0.406021
0.029816 0.344069 -0.404896
0.029816 0.343725 -0.403037
0.029816 0.343380 -0.401178
0.029263 0.341580 -0.400047
0.028708 0.339776 -0.398913
0.028708 0.339430 -0.397051
0.028708 0.339085 -0.395188
0.028152 0.337277 -0.394049
0.028152 0.336931 -0.392184
0.028152 0.336586 -0.390320
0.027595 0.334773 -0.389174
0.027037 0.332957 -0.388027
0.027037 0.332611 -0.386159
0.025918 0.329314 -0.385724
0.025357 0.327487 -0.384569
0.025357 0.327140 -0.382696
0.024794 0.325309 -0.381537
0.024230 0.323475 -0.380375
0.023666 0.321636 -0.379212
0.023100 0.319795 -0.378046
0.023100 0.319446 -0.376165
0.022533 0.317600 -0.374995
0.021965 0.315750 -0.373822
0.020254 0.310880 -0.374072
0.020825 0.312040 -0.371470
0.021965 0.314702 -0.368168
0.022533 0.315854 -0.365580
0.023100 0.317005 -0.362998
0.023100 0.316656 -0.361117
0.023666 0.317804 -0.358541
0.024230 0.318950 -0.355971
0.024230 0.318602 -0.354093
0.024794 0.319746 -0.351530
0.024794 0.319398 -0.349655
0.025357 0.320540 -0.347098
0.025918 0.321680 -0.344547
0.027037 0.324299 -0.341327
0.027037 0.323953 -0.339459
0.027595 0.325086 -0.336923
0.028152 0.326217 -0.334392
0.028152 0.325871 -0.332528
0.028708 0.327000 -0.330004
0.028708 0.326654 -0.328141
0.029263 0.327781 -0.325624
0.029263 0.327437 -0.323763
0.029816 0.328562 -0.321253
0.029816 0.328217 -0.319394
0.030369 0.329340 -0.316890
0.030369 0.328996 -0.315033
0.030920 0.330117 -0.312536
0.031471 0.331236 -0.310044
0.031471 0.330893 -0.308191
0.032020 0.332010 -0.305705
0.032020 0.331667 -0.303854
0.032568 0.332782 -0.301375
0.032568 0.332439 -0.299526
0.032568 0.332096 -0.297676
0.033115 0.333210 -0.295206
0.033115 0.332868 -0.293358
0.033661 0.333980 -0.290895
0.033661 0.333637 -0.289049
0.034206 0.334747 -0.286592
0.034206 0.334406 -0.284748
0.034750 0.335514 -0.282297
0.034750 0.335172 -0.280455
0.035293 0.336279 -0.278011
0.035293 0.335938 -0.276171
0.035835 0.337042 -0.273734
0.036375 0.338145 -0.271301
0.036375 0.337804 -0.269464
0.036915 0.338905 -0.267039
0.036915 0.338565 -0.265203
0.037453 0.339664 -0.262784
0.037453 0.339324 -0.260951
0.037991 0.340421 -0.258538
0.037991 0.340081 -0.256706
0.038528 0.341176 -0.254300
0.038528 0.340837 -0.252470
0.039063 0.341931 -0.250070
0.039063 0.341592 -0.248242
0.039063 0.341253 -0.246414
0.039063 0.340914 -0.244586
0.039063 0.340575 -0.242758
0.039597 0.341668 -0.240370
0.039597 0.341329 -0.238544
0.040131 0.342420 -0.236162
0.040131 0.342082 -0.234338
0.040663 0.343171 -0.231962
0.040663 0.342833 -0.230140
0.041194 0.343920 -0.227771
0.041725 0.345005 -0.225406
0.042254 0.346088 -0.223047
0.042782 0.347169 -0.220691
0.042782 0.346833 -0.218876
0.043309 0.347912 -0.216527
0.043836 0.348989 -0.214182
0.044361 0.350064 -0.211843
0.044885 0.351137 -0.209507
0.045408 0.352208 -0.207176
0.045408 0.351873 -0.205369
0.045930 0.352943 -0.203045
0.046452 0.354010 -0.200724
0.046972 0.355075 -0.198409
0.047491 0.356138 -0.196097
0.047491 0.355804 -0.194297
0.047491 0.355470 -0.192497
0.048009 0.356532 -0.190194
0.048009 0.356199 -0.188395
0.048009 0.355865 -0.186597
0.048526 0.356926 -0.184301
0.048526 0.356593 -0.182505
0.048526 0.356259 -0.180708
0.048526 0.355926 -0.178911
0.049043 0.356986 -0.176625
0.049043 0.356653 -0.174830
0.049558 0.357710 -0.172550
0.049558 0.357378 -0.170757
0.049558 0.357046 -0.168964
0.049558 0.356713 -0.167171
0.049558 0.356381 -0.165378
0.049558 0.356048 -0.163584
0.050072 0.357105 -0.161317
0.050072 0.356773 -0.159526
0.050072 0.356441 -0.157734
0.050072 0.356109 -0.155943
0.050072 0.355777 -0.154151
0.050072 0.355445 -0.152360
0.050072 0.355112 -0.150568
0.050072 0.354780 -0.148777
0.050072 0.354448 -0.146985
0.050072 0.354116 -0.145194
0.050072 0.353784 -0.143403
0.050072 0.353452 -0.141611
0.049558 0.351726 -0.140273
0.049558 0.351394 -0.138480
0.049558 0.351061 -0.136687
0.049558 0.350729 -0.134894
0.049558 0.350396 -0.133100
0.049043 0.348666 -0.131753
0.049043 0.348334 -0.129958
0.049043 0.348001 -0.128163
0.049043 0.347668 -0.126368
0.048526 0.345934 -0.125013
0.048526 0.345601 -0.123217
0.048526 0.345267 -0.121420
0.048526 0.344934 -0.119624
0.048009 0.343196 -0.118261
0.048009 0.342862 -0.116462
0.048009 0.342529 -0.114664
0.048009 0.342196 -0.112866
0.047491 0.340453 -0.111495
0.047491 0.340119 -0.109695
0.047491 0.339785 -0.107895
0.046972 0.338038 -0.106519
0.046972 0.337704 -0.104717
0.046452 0.335954 -0.103336
0.046452 0.335619 -0.101532
0.046452 0.335285 -0.099729
0.045930 0.333531 -0.098342
0.045930 0.333196 -0.096536
0.045930 0.332861 -0.094731
0.045408 0.331103 -0.093338
0.045408 0.330768 -0.091531
0.045408 0.330433 -0.089724
0.044885 0.328670 -0.088325
0.044885 0.328335 -0.086516
0.044361 0.326568 -0.085112
0.044361 0.326233 -0.083302
0.043836 0.324463 -0.081893
0.043836 0.324127 -0.080081
0.043836 0.323791 -0.078269
0.043309 0.322017 -0.076855
0.043309 0.321680 -0.075041
0.042782 0.319903 -0.073622
0.042782 0.319566 -0.071806
0.042254 0.317784 -0.070382
0.042254 0.317447 -0.068565
0.041725 0.315662 -0.067137
0.041725 0.315325 -0.065318
0.041725 0.314987 -0.063499
0.041194 0.313198 -0.062064
0.041194 0.312860 -0.060243
0.040663 0.311067 -0.058805
0.040663 0.310729 -0.056982
0.040131 0.308932 -0.055538
0.040131 0.308594 -0.053714
0.039597 0.306793 -0.052266
0.039597 0.306454 -0.050440
0.039063 0.304650 -0.048987
0.039063 0.304311 -0.047159
0.038528 0.302502 -0.045702
0.038528 0.302163 -0.043872
0.037991 0.300350 -0.042411
0.037991 0.300011 -0.040579
0.037453 0.298195 -0.039113
0.037453 0.297855 -0.037279
0.036915 0.296035 -0.035808
0.036915 0.295694 -0.033973
0.036375 0.293870 -0.032497
0.036375 0.293530 -0.030660
0.035835 0.291702 -0.029180
0.035835 0.291361 -0.027341
0.035293 0.289529 -0.025856
0.035293 0.289188 -0.024015
0.034750 0.287352 -0.022526
0.034750 0.287010 -0.020683
0.034206 0.285171 -0.019189
0.034206 0.284829 -0.017345
0.033661 0.282985 -0.015845
0.033661 0.282643 -0.013999
0.033115 0.280795 -0.012495
0.033115 0.280453 -0.010648
0.032568 0.278601 -0.009139
0.032568 0.278258 -0.007289
0.032020 0.276403 -0.005776
0.032020 0.276059 -0.003924
0.031471 0.274200 -0.002406
0.031471 0.273856 -0.000552
0.030920 0.271993 0.000971
0.030920 0.271649 0.002826
0.030369 0.269781 0.004354
0.030369 0.269437 0.006211
0.029816 0.267565 0.007744
0.029816 0.267221 0.009602
0.029263 0.265345 0.011140
0.029263 0.265000 0.013001
0.028708 0.263120 0.014544
0.028708 0.262775 0.016406
0.028152 0.260891 0.017954
0.028152 0.260546 0.019818
0.027595 0.258658 0.021370
0.027595 0.258312 0.023236
0.027037 0.256420 0.024794
0.027037 0.256073 0.026662
0.025918 0.252625 0.027918
0.025918 0.252278 0.029790
0.025357 0.250374 0.031358
0.025357 0.250027 0.033232
0.024794 0.248119 0.034806
0.024794 0.247771 0.036681
0.024230 0.245859 0.038260
0.023666 0.243943 0.039841
0.023666 0.243595 0.041721
0.023666 0.243247 0.043600
0.023666 0.242898 0.045479
0.023100 0.240978 0.047069
0.023100 0.240629 0.048950
0.022533 0.238704 0.050546
0.022533 0.238355 0.052429
0.021965 0.236426 0.054030
0.021965 0.236077 0.055915
0.021396 0.234143 0.057520
0.020825 0.232206 0.059129
0.020825 0.231856 0.061018
0.020254 0.229915 0.062632
0.019681 0.227969 0.064250
0.019107 0.226020 0.065870
0.019107 0.225669 0.067765
0.018532 0.223716 0.069391
0.017956 0.221758 0.071020
0.017379 0.219797 0.072652
0.017379 0.219445 0.074552
0.016800 0.217479 0.076190
0.016220 0.215509 0.077831
0.015640 0.213536 0.079475
0.015640 0.213182 0.081381
0.015058 0.211204 0.083031
0.013890 0.207590 0.084428
0.013304 0.205601 0.086086
0.012718 0.203607 0.087747
0.012130 0.201609 0.089412
0.011540 0.199607 0.091079
0.010950 0.197601 0.092751
0.010358 0.195591 0.094425
0.009766 0.193577 0.096104
0.009172 0.191558 0.097785
0.007980 0.187867 0.099227
0.007382 0.185837 0.100917
0.006183 0.182122 0.102371
0.005582 0.180080 0.104069
0.004979 0.178033 0.105771
0.004375 0.175982 0.107476
0.003164 0.172228 0.108951
0.002556 0.170164 0.110665
0.001337 0.166387 0.112150
0.000113 0.162593 0.113642
-0.001116 0.158784 0.115140
-0.002350 0.154959 0.116644
-0.003590 0.151117 0.118154
-0.004834 0.147260 0.119671
-0.006084 0.143387 0.121194
-0.008600 0.135959 0.122273
-0.010501 0.130254 0.123587
-0.013054 0.122715 0.124685
-0.014983 0.116925 0.126016
-0.017575 0.109272 0.127132
-0.021504 0.097857 0.127810
-0.025485 0.086294 0.128496
-0.031554 0.068854 0.128512
-0.039136 0.047152 0.128067
0.026904 0.354154 -0.473305
0.027460 0.355254 -0.470644
0.028016 0.356352 -0.467988
0.028016 0.356007 -0.466129
0.028016 0.355662 -0.464270
0.028570 0.356758 -0.461624
0.028570 0.356414 -0.459767
0.028570 0.356070 -0.457910
0.029123 0.357165 -0.455272
0.029123 0.356821 -0.453417
0.029123 0.356477 -0.451562
0.029123 0.356133 -0.449707
0.029675 0.357226 -0.447079
0.029675 0.356883 -0.445226
0.029675 0.356539 -0.443373
0.029675 0.356195 -0.441520
0.029675 0.355852 -0.439666
0.030226 0.356945 -0.437052
0.030226 0.356601 -0.435200
0.030226 0.356258 -0.433349
0.030226 0.355915 -0.431497
0.030226 0.355572 -0.429646
0.030226 0.355228 -0.427795
0.030226 0.354885 -0.425943
0.030226 0.354542 -0.424092
0.030226 0.354199 -0.422240
0.030226 0.353855 -0.420389
0.030226 0.353512 -0.418537
0.029675 0.351729 -0.417428
0.029675 0.351385 -0.415574
0.029675 0.351042 -0.413721
0.029123 0.349254 -0.412605
0.029123 0.348910 -0.410750
0.029123 0.348566 -0.408895
0.028570 0.346775 -0.407774
0.028570 0.346430 -0.405917
0.028016 0.344635 -0.404791
0.028016 0.344290 -0.402932
0.027460 0.342491 -0.401802
0.027460 0.342146 -0.399942
0.026904 0.340342 -0.398808
0.026904 0.339997 -0.396946
0.026904 0.339652 -0.395083
0.026346 0.337844 -0.393943
0.026346 0.337499 -0.392079
0.025787 0.335687 -0.390935
0.025787 0.335341 -0.389069
0.025787 0.334995 -0.387203
0.025228 0.333179 -0.386053
0.024105 0.329884 -0.385618
0.023541 0.328058 -0.384463
0.023541 0.327710 -0.382590
0.022977 0.325880 -0.381431
0.022412 0.324046 -0.380269
0.021845 0.322208 -0.379106
0.021278 0.320367 -0.377940
0.021278 0.320018 -0.376059
0.020709 0.318173 -0.374889
0.020139 0.316324 -0.373716
0.018422 0.311456 -0.373965
0.019568 0.314121 -0.370654
0.020139 0.315276 -0.368062
0.020709 0.316427 -0.365474
0.021278 0.317577 -0.362891
0.021845 0.318724 -0.360314
0.021845 0.318376 -0.358435
0.022412 0.319521 -0.355865
0.022977 0.320664 -0.353300
0.022977 0.320317 -0.351424
0.023541 0.321458 -0.348866
0.023541 0.321110 -0.346992
0.024105 0.322250 -0.344441
0.025228 0.324868 -0.341222
0.025787 0.326000 -0.338684
0.025787 0.325654 -0.336818
0.026346 0.326784 -0.334287
0.026346 0.326438 -0.332423
0.026904 0.327567 -0.329899
0.027460 0.328693 -0.327379
0.027460 0.328348 -0.325519
0.028016 0.329472 -0.323006
0.028016 0.329127 -0.321148
0.028570 0.330250 -0.318642
0.028570 0.329905 -0.316785
0.029123 0.331026 -0.314287
0.029123 0.330682 -0.312431
0.029675 0.331800 -0.309939
0.029675 0.331457 -0.308086
0.030226 0.332573 -0.305601
0.030776 0.333688 -0.303120
0.030776 0.333345 -0.301271
0.031325 0.334458 -0.298797
0.031325 0.334115 -0.296949
0.031325 0.333772 -0.295102
0.031873 0.334884 -0.292636
0.031873 0.334541 -0.290790
0.032419 0.335651 -0.288332
0.032419 0.335309 -0.286488
0.032965 0.336416 -0.284036
0.032965 0.336075 -0.282193
0.033510 0.337180 -0.279748
0.033510 0.336839 -0.277907
0.034053 0.337943 -0.275469
0.034053 0.337602 -0.273630
0.034596 0.338704 -0.271198
0.034596 0.338363 -0.269361
0.035137 0.339463 -0.266935
0.035137 0.339123 -0.265100
0.035677 0.340222 -0.262681
0.035677 0.339882 -0.260847
0.036217 0.340978 -0.258435
0.036217 0.340639 -0.256603
0.036755 0.341733 -0.254197
0.037292 0.342826 -0.251795
0.037292 0.342487 -0.249967
0.037292 0.342148 -0.248139
0.037828 0.343239 -0.245746
0.037828 0.342901 -0.243920
0.037828 0.342562 -0.242093
0.037828 0.342223 -0.240267
0.038363 0.343313 -0.237884
0.038363 0.342975 -0.236059
0.038363 0.342637 -0.234235
0.038897 0.343725 -0.231860
0.039430 0.344812 -0.229489
0.039962 0.345896 -0.227123
0.039962 0.345559 -0.225304
0.040493 0.346642 -0.222944
0.041023 0.347722 -0.220589
0.041552 0.348800 -0.218238
0.042080 0.349877 -0.215892
0.042607 0.350951 -0.213551
0.042607 0.350615 -0.211740
0.043133 0.351688 -0.209405
0.043658 0.352758 -0.207074
0.044182 0.353827 -0.204748
0.044704 0.354893 -0.202426
0.044704 0.354559 -0.200623
0.045226 0.355623 -0.198307
0.045747 0.356686 -0.195996
0.046267 0.357746 -0.193689
0.046267 0.357413 -0.191890
0.046267 0.357079 -0.190092
0.046786 0.358139 -0.187793
0.046786 0.357806 -0.185996
0.046786 0.357472 -0.184200
0.046786 0.357139 -0.182403
0.047304 0.358198 -0.180114
0.047304 0.357865 -0.178319
0.047821 0.358921 -0.176035
0.047821 0.358589 -0.174242
0.047821 0.358256 -0.172449
0.047821 0.357924 -0.170656
0.047821 0.357591 -0.168863
0.048336 0.358647 -0.166591
0.048336 0.358315 -0.164799
0.048336 0.357983 -0.163008
0.048336 0.357650 -0.161216
0.048336 0.357318 -0.159425
0.048851 0.358373 -0.157164
0.048851 0.358041 -0.155374
0.048851 0.357710 -0.153584
0.048336 0.355990 -0.152259
0.048336 0.355658 -0.150467
0.048336 0.355325 -0.148676
0.048336 0.354993 -0.146884
0.048851 0.356050 -0.144635
0.048336 0.354329 -0.143301
0.048336 0.353997 -0.141510
0.048336 0.353665 -0.139719
0.047821 0.351939 -0.138379
0.047821 0.351607 -0.136586
0.047821 0.351275 -0.134792
0.047821 0.350942 -0.132999
0.047304 0.349213 -0.131652
0.047304 0.348880 -0.129857
0.047304 0.348547 -0.128062
0.047304 0.348214 -0.126267
0.047304 0.347881 -0.124472
0.046786 0.346147 -0.123115
0.046786 0.345814 -0.121319
0.046786 0.345481 -0.119522
0.046786 0.345148 -0.117726
0.046267 0.343410 -0.116361
0.046267 0.343076 -0.114563
0.046267 0.342743 -0.112764
0.045747 0.341000 -0.111394
0.045747 0.340667 -0.109594
0.045747 0.340333 -0.107794
0.045226 0.338587 -0.106417
0.045226 0.338253 -0.104615
0.045226 0.337919 -0.102813
0.044704 0.336168 -0.101430
0.044704 0.335834 -0.099627
0.044704 0.335500 -0.097824
0.044182 0.333745 -0.096435
0.044182 0.333411 -0.094629
0.043658 0.331652 -0.093236
0.043658 0.331317 -0.091429
0.043658 0.330982 -0.089622
0.043133 0.329220 -0.088223
0.043133 0.328885 -0.086414
0.042607 0.327119 -0.085010
0.042607 0.326784 -0.083200
0.042607 0.326448 -0.081389
0.042080 0.324678 -0.079979
0.042080 0.324342 -0.078167
0.041552 0.322569 -0.076752
0.041552 0.322232 -0.074938
0.041023 0.320455 -0.073519
0.041023 0.320118 -0.071703
0.040493 0.318337 -0.070280
0.040493 0.318000 -0.068462
0.039962 0.316216 -0.067034
0.039962 0.315878 -0.065215
0.039962 0.315541 -0.063396
0.039430 0.313752 -0.061962
0.039430 0.313415 -0.060141
0.038897 0.311622 -0.058702
0.038897 0.311284 -0.056879
0.038363 0.309487 -0.055436
0.038363 0.309149 -0.053611
0.037828 0.307349 -0.052163
0.037828 0.307010 -0.050337
0.037292 0.305206 -0.048884
0.037292 0.304867 -0.047056
0.036755 0.303059 -0.045599
0.036755 0.302720 -0.043769
0.036217 0.300908 -0.042307
0.036217 0.300568 -0.040476
0.035677 0.298753 -0.039009
0.035677 0.298413 -0.037176
0.035137 0.296593 -0.035705
0.035137 0.296253 -0.033869
0.034596 0.294429 -0.032394
0.034596 0.294089 -0.030557
0.034053 0.292261 -0.029076
0.034053 0.291920 -0.027237
0.033510 0.290089 -0.025752
0.033510 0.289748 -0.023912
0.032965 0.287913 -0.022422
0.032965 0.287571 -0.020579
0.032419 0.285732 -0.019085
0.032419 0.285390 -0.017241
0.031873 0.283547 -0.015741
0.031873 0.283205 -0.013895
0.031325 0.281358 -0.012391
0.031325 0.281015 -0.010543
0.030776 0.279164 -0.009034
0.030776 0.278821 -0.007185
0.030226 0.276966 -0.005671
0.030226 0.276623 -0.003820
0.029675 0.274764 -0.002301
0.029675 0.274420 -0.000448
0.029123 0.272557 0.001075
0.029123 0.272213 0.002931
0.028570 0.270346 0.004459
0.028570 0.270002 0.006316
0.028016 0.268131 0.007849
0.028016 0.267786 0.009707
0.027460 0.265911 0.011245
0.027460 0.265566 0.013106
0.026904 0.263687 0.014649
0.026904 0.263342 0.016511
0.026346 0.261459 0.018059
0.026346 0.261113 0.019923
0.025787 0.259226 0.021476
0.025787 0.258880 0.023342
0.025228 0.256988 0.024899
0.025228 0.256642 0.026767
0.024105 0.253194 0.028024
0.024105 0.252847 0.029895
0.023541 0.250944 0.031464
0.023541 0.250597 0.033338
0.022977 0.248690 0.034911
0.022977 0.248342 0.036787
0.022412 0.246431 0.038365
0.021845 0.244515 0.039947
0.021845 0.244167 0.041827
0.021845 0.243819 0.043706
0.021845 0.243470 0.045585
0.021278 0.241550 0.047176
0.021278 0.241201 0.049057
0.020709 0.239277 0.050652
0.020709 0.238928 0.052535
0.020139 0.237000 0.054136
0.020139 0.236650 0.056021
0.019568 0.234717 0.057627
0.018995 0.232781 0.059236
0.018995 0.232431 0.061125
0.018422 0.230490 0.062739
0.017848 0.228545 0.064357
0.017272 0.226597 0.065977
0.017272 0.226246 0.067872
0.016695 0.224293 0.069498
0.016117 0.222336 0.071127
0.015538 0.220375 0.072759
0.015538 0.220023 0.074659
0.014957 0.218058 0.076297
0.014376 0.216089 0.077938
0.013793 0.214116 0.079583
0.013793 0.213762 0.081489
0.012624 0.210157 0.082882
0.012038 0.208172 0.084536
