ply
format ascii 1.0
element vertex 1735
property float x
property float y
property float z
end_header
0.317858 0.304476 0.008077
0.315988 0.307946 0.009303
0.315988 0.308306 0.011240
0.315988 0.308665 0.013177
0.315056 0.310573 0.014752
0.315056 0.310932 0.016687
0.314125 0.312836 0.018257
0.314125 0.313194 0.020190
0.313197 0.315094 0.021755
0.313197 0.315452 0.023686
0.312270 0.317347 0.025245
0.312270 0.317705 0.027174
0.312270 0.318063 0.029103
0.311346 0.319954 0.030655
0.311346 0.320311 0.032583
0.311346 0.320668 0.034510
0.311346 0.321025 0.036437
0.311346 0.321383 0.038365
0.311346 0.321740 0.040292
0.311346 0.322097 0.042219
0.311346 0.322455 0.044147
0.310423 0.324339 0.045682
0.310423 0.324696 0.047607
0.310423 0.325053 0.049532
0.310423 0.325410 0.051458
0.310423 0.325767 0.053383
0.310423 0.326124 0.055308
0.310423 0.326481 0.057233
0.310423 0.326838 0.059159
0.309502 0.328716 0.060677
0.309502 0.329072 0.062600
0.309502 0.329429 0.064524
0.310423 0.328266 0.066860
0.310423 0.328623 0.068785
0.310423 0.328980 0.070711
0.310423 0.329337 0.072636
0.310423 0.329693 0.074561
0.311346 0.328529 0.076911
0.311346 0.328887 0.078838
0.311346 0.329244 0.080765
0.312270 0.328078 0.083123
0.312270 0.328436 0.085052
0.313197 0.327268 0.087417
0.313197 0.327626 0.089348
0.313197 0.327984 0.091280
0.314125 0.326814 0.093653
0.314125 0.327173 0.095587
0.315056 0.326001 0.097967
0.315988 0.324827 0.100352
0.315988 0.325186 0.102290
0.316922 0.324010 0.104682
0.317858 0.322831 0.107079
0.317858 0.323191 0.109020
0.318796 0.322011 0.111424
0.319736 0.320828 0.113834
0.320678 0.319642 0.116248
0.321622 0.318454 0.118667
0.321622 0.318816 0.120616
0.322568 0.317626 0.123042
0.323516 0.316433 0.125474
0.324465 0.315238 0.127910
0.324465 0.315601 0.129865
0.325417 0.314404 0.132309
0.326371 0.313204 0.134757
0.326371 0.313567 0.136717
0.329244 0.309226 0.140168
0.329244 0.309590 0.142133
0.329244 0.309955 0.144099
0.329244 0.310319 0.146064
0.329244 0.310683 0.148030
0.330206 0.309475 0.150505
0.330206 0.309840 0.152473
0.330206 0.310204 0.154440
0.330206 0.310569 0.156408
0.329244 0.312505 0.157858
0.330206 0.311299 0.160343
0.330206 0.311664 0.162311
0.331169 0.310455 0.164804
0.331169 0.310820 0.166773
0.332135 0.309609 0.169273
0.332135 0.309975 0.171245
0.333103 0.308762 0.173752
0.333103 0.309128 0.175726
0.334073 0.307912 0.178241
0.334073 0.308279 0.180217
0.334073 0.308645 0.182193
0.335045 0.307428 0.184717
0.335045 0.307795 0.186695
0.336994 0.304986 0.189781
0.337972 0.303762 0.192321
0.337972 0.304130 0.194305
0.338952 0.302903 0.196853
0.339935 0.301673 0.199406
0.340919 0.300441 0.201964
0.340919 0.300810 0.203955
0.341905 0.299576 0.206520
0.342893 0.298339 0.209092
0.342893 0.298709 0.211086
0.344877 0.295857 0.214251
0.345871 0.294612 0.216838
0.346868 0.293365 0.219432
0.347867 0.292114 0.222031
0.348868 0.290862 0.224635
0.350877 0.287975 0.227848
0.352894 0.285076 0.231076
0.353906 0.283809 0.233704
0.355936 0.280891 0.236954
0.357975 0.277961 0.240219
0.361050 0.273354 0.244125
0.365181 0.267038 0.248692
0.371446 0.257270 0.254589
0.383146 0.238704 0.263871
0.271516 0.289722 -0.485020
0.266472 0.298989 -0.482320
0.263972 0.303752 -0.480066
0.263972 0.304091 -0.478237
0.263972 0.304430 -0.476407
0.263972 0.304770 -0.474577
0.263142 0.306576 -0.472615
0.263142 0.306915 -0.470787
0.263142 0.307254 -0.468959
0.262314 0.309056 -0.467005
0.262314 0.309395 -0.465179
0.262314 0.309733 -0.463353
0.262314 0.310072 -0.461526
0.262314 0.310410 -0.459700
0.262314 0.310749 -0.457874
0.263142 0.309626 -0.456163
0.263972 0.308501 -0.454449
0.263972 0.308841 -0.452619
0.264804 0.307714 -0.450900
0.266472 0.305113 -0.449287
0.267309 0.303980 -0.447559
0.268147 0.302844 -0.445828
0.268987 0.301706 -0.444094
0.269828 0.300565 -0.442357
0.270671 0.299423 -0.440615
0.272362 0.296788 -0.438971
0.273210 0.295639 -0.437221
0.274912 0.292989 -0.435565
0.275765 0.291832 -0.433807
0.277476 0.289167 -0.432139
0.278334 0.288003 -0.430373
0.279194 0.286836 -0.428603
0.280919 0.284151 -0.426918
0.281784 0.282977 -0.425139
0.284389 0.278747 -0.423528
0.340961 0.208234 -0.273523
0.337028 0.215387 -0.271806
0.333128 0.222481 -0.270103
0.330225 0.227854 -0.268342
0.327340 0.233193 -0.266592
0.325426 0.236855 -0.264778
0.324473 0.238862 -0.262894
0.322571 0.242501 -0.261093
0.322571 0.242863 -0.259138
0.321623 0.244858 -0.257266
0.320677 0.246848 -0.255397
0.320677 0.247210 -0.253446
0.319734 0.249196 -0.251584
0.318792 0.251177 -0.249725
0.318792 0.251538 -0.247778
0.317852 0.253516 -0.245925
0.317852 0.253876 -0.243980
0.316914 0.255849 -0.242133
0.315978 0.257818 -0.240290
0.315043 0.259782 -0.238450
0.315043 0.260142 -0.236511
0.314111 0.262102 -0.234678
0.314111 0.262461 -0.232740
0.313181 0.264417 -0.230913
0.312253 0.266369 -0.229089
0.312253 0.266727 -0.227155
0.311326 0.268675 -0.225337
0.311326 0.269033 -0.223406
0.310401 0.270976 -0.221593
0.309479 0.272915 -0.219784
0.309479 0.273272 -0.217857
0.308558 0.275207 -0.216054
0.308558 0.275564 -0.214129
0.307639 0.277494 -0.212331
0.307639 0.277851 -0.210408
0.305807 0.281344 -0.208747
0.305807 0.281699 -0.206828
0.306722 0.280490 -0.204773
0.305807 0.282411 -0.202989
0.305807 0.282767 -0.201069
0.305807 0.283123 -0.199150
0.305807 0.283479 -0.197230
0.305807 0.283835 -0.195311
0.304893 0.285751 -0.193538
0.304893 0.286106 -0.191621
0.304893 0.286462 -0.189703
0.304893 0.286817 -0.187786
0.304893 0.287173 -0.185868
0.303982 0.289083 -0.184107
0.303982 0.289438 -0.182191
0.303982 0.289794 -0.180276
0.303982 0.290149 -0.178360
0.303982 0.290504 -0.176445
0.303982 0.290859 -0.174529
0.303982 0.291214 -0.172614
0.303982 0.291569 -0.170698
0.303982 0.291924 -0.168783
0.303982 0.292280 -0.166867
0.303982 0.292635 -0.164952
0.303982 0.292990 -0.163036
0.303982 0.293345 -0.161121
0.303982 0.293700 -0.159205
0.303982 0.294055 -0.157290
0.303982 0.294410 -0.155374
0.303982 0.294766 -0.153458
0.303982 0.295121 -0.151543
0.303072 0.297021 -0.149818
0.303072 0.297376 -0.147905
0.303072 0.297731 -0.145991
0.303072 0.298086 -0.144078
0.303072 0.298440 -0.142164
0.303982 0.297252 -0.140050
0.303982 0.297607 -0.138134
0.303982 0.297962 -0.136219
0.303982 0.298317 -0.134303
0.303982 0.298672 -0.132388
0.304893 0.297482 -0.130262
0.305807 0.296290 -0.128131
0.305807 0.296646 -0.126212
0.306722 0.295451 -0.124075
0.306722 0.295807 -0.122153
0.307639 0.294611 -0.120010
0.308558 0.293412 -0.117862
0.308558 0.293769 -0.115937
0.309479 0.292568 -0.113783
0.309479 0.292925 -0.111856
0.310401 0.291722 -0.109695
0.310401 0.292080 -0.107766
0.311326 0.290874 -0.105599
0.311326 0.291232 -0.103668
0.312253 0.290025 -0.101495
0.312253 0.290383 -0.099562
0.313181 0.289174 -0.097382
0.313181 0.289533 -0.095447
0.314111 0.288321 -0.093260
0.315043 0.287107 -0.091070
0.315043 0.287466 -0.089131
0.315978 0.286250 -0.086933
0.316914 0.285032 -0.084732
0.316914 0.285392 -0.082788
0.317852 0.284171 -0.080580
0.317852 0.284532 -0.078635
0.318792 0.283308 -0.076420
0.319734 0.282083 -0.074200
0.319734 0.282444 -0.072251
0.320677 0.281217 -0.070025
0.321623 0.279986 -0.067794
0.321623 0.280348 -0.065841
0.322571 0.279116 -0.063604
0.323521 0.277881 -0.061361
0.324473 0.276643 -0.059115
0.324473 0.277006 -0.057155
0.325426 0.275767 -0.054902
0.326382 0.274524 -0.052644
0.327340 0.273279 -0.050381
0.327340 0.273643 -0.048415
0.328299 0.272396 -0.046146
0.329261 0.271146 -0.043871
0.330225 0.269894 -0.041592
0.330225 0.270259 -0.039620
0.331191 0.269005 -0.037334
0.332158 0.267747 -0.035043
0.333128 0.266487 -0.032748
0.334100 0.265225 -0.030447
0.334100 0.265592 -0.028467
0.335074 0.264327 -0.026160
0.336050 0.263059 -0.023847
0.338008 0.260147 -0.021196
0.338990 0.258871 -0.018871
0.339975 0.257592 -0.016542
0.339975 0.257962 -0.014549
0.338008 0.261622 -0.013243
0.336050 0.265267 -0.011942
0.333128 0.270521 -0.010990
0.331191 0.274128 -0.009701
0.329261 0.277720 -0.008417
0.328299 0.279692 -0.006793
0.327340 0.281661 -0.005173
0.325426 0.285222 -0.003904
0.324473 0.287178 -0.002292
0.322571 0.290717 -0.001033
0.321623 0.292661 0.000572
0.319734 0.296177 0.001821
0.318792 0.298110 0.003417
0.316914 0.301604 0.004657
0.315978 0.303526 0.006245
0.315043 0.305443 0.007830
0.315043 0.305803 0.009770
0.314111 0.307716 0.011349
0.314111 0.308075 0.013287
0.313181 0.309984 0.014861
0.313181 0.310343 0.016797
0.312253 0.312247 0.018366
0.312253 0.312606 0.020299
0.311326 0.314506 0.021863
0.311326 0.314864 0.023795
0.310401 0.316760 0.025354
0.310401 0.317118 0.027283
0.310401 0.317476 0.029212
0.310401 0.317833 0.031142
0.310401 0.318191 0.033071
0.310401 0.318549 0.035000
0.309479 0.320439 0.036546
0.309479 0.320796 0.038473
0.309479 0.321154 0.040401
0.309479 0.321511 0.042328
0.309479 0.321868 0.044255
0.309479 0.322226 0.046183
0.309479 0.322583 0.048110
0.309479 0.322940 0.050037
0.309479 0.323298 0.051964
0.308558 0.325181 0.053491
0.308558 0.325538 0.055417
0.308558 0.325895 0.057342
0.308558 0.326252 0.059267
0.308558 0.326609 0.061193
0.308558 0.326966 0.063118
0.308558 0.327323 0.065043
0.308558 0.327680 0.066969
0.309479 0.326513 0.069310
0.308558 0.328394 0.070819
0.309479 0.327228 0.073165
0.309479 0.327585 0.075092
0.309479 0.327943 0.077019
0.310401 0.326776 0.079373
0.310401 0.327133 0.081303
0.311326 0.325964 0.083664
0.311326 0.326322 0.085595
0.311326 0.326680 0.087526
0.312253 0.325509 0.089896
0.312253 0.325867 0.091829
0.312253 0.326226 0.093762
0.313181 0.325053 0.096141
0.314111 0.323878 0.098524
0.315043 0.322701 0.100913
0.315043 0.323060 0.102852
0.315978 0.321881 0.105247
0.315978 0.322241 0.107189
0.316914 0.321059 0.109591
0.317852 0.319875 0.111998
0.318792 0.318689 0.114410
0.318792 0.319050 0.116358
0.319734 0.317861 0.118777
0.320677 0.316670 0.121201
0.321623 0.315477 0.123631
0.321623 0.315839 0.125584
0.322571 0.314643 0.128020
0.323521 0.313445 0.130462
0.324473 0.312244 0.132908
0.325426 0.311041 0.135360
0.325426 0.311405 0.137321
0.327340 0.308628 0.140279
0.327340 0.308992 0.142244
0.328299 0.307782 0.144713
0.328299 0.308146 0.146681
0.328299 0.308511 0.148649
0.328299 0.308876 0.150616
0.329261 0.307664 0.153097
0.329261 0.308030 0.155066
0.329261 0.308395 0.157036
0.329261 0.308760 0.159006
0.328299 0.310700 0.160454
0.329261 0.309490 0.162945
0.329261 0.309855 0.164915
0.330225 0.308644 0.167413
0.330225 0.309009 0.169384
0.331191 0.307795 0.171890
0.331191 0.308161 0.173864
0.332158 0.306945 0.176376
0.332158 0.307311 0.178352
0.333128 0.306093 0.180872
0.333128 0.306459 0.182850
0.333128 0.306826 0.184828
0.334100 0.305606 0.187358
0.335074 0.304383 0.189893
0.336050 0.303158 0.192433
0.337028 0.301930 0.194978
0.337028 0.302298 0.196965
0.338008 0.301068 0.199518
0.338990 0.299835 0.202076
0.339975 0.298600 0.204640
0.339975 0.298969 0.206633
0.340961 0.297732 0.209204
0.341949 0.296492 0.211781
0.342940 0.295249 0.214364
0.343933 0.294003 0.216951
0.344927 0.292755 0.219545
0.345924 0.291504 0.222144
0.346923 0.290251 0.224748
0.348928 0.287363 0.227962
0.350941 0.284462 0.231190
0.351950 0.283195 0.233818
0.353976 0.280276 0.237068
0.354993 0.278999 0.239711
0.358055 0.274401 0.243612
0.363202 0.266417 0.248807
0.367361 0.260043 0.253415
0.377918 0.243286 0.262000
0.268043 0.292149 -0.484627
0.263861 0.299909 -0.482075
0.261371 0.304664 -0.479824
0.261371 0.305003 -0.477996
0.261371 0.305342 -0.476168
0.261371 0.305681 -0.474340
0.260544 0.307484 -0.472381
0.260544 0.307823 -0.470555
0.260544 0.308162 -0.468728
0.260544 0.308500 -0.466902
0.259719 0.310299 -0.464952
0.259719 0.310638 -0.463127
0.259719 0.310976 -0.461303
0.259719 0.311314 -0.459478
0.260544 0.310193 -0.457771
0.260544 0.310532 -0.455945
0.261371 0.309409 -0.454232
0.262200 0.308284 -0.452516
0.263029 0.307156 -0.450797
0.263029 0.307496 -0.448965
0.263861 0.306367 -0.447241
0.264694 0.305235 -0.445513
0.265529 0.304102 -0.443782
0.266365 0.302966 -0.442047
0.268043 0.300346 -0.440410
0.268885 0.299203 -0.438667
0.270572 0.296569 -0.437019
0.271419 0.295419 -0.435267
0.272267 0.294267 -0.433513
0.273968 0.291611 -0.431847
0.274821 0.290452 -0.430084
0.276532 0.287782 -0.428407
0.277390 0.286615 -0.426635
0.279111 0.283929 -0.424946
0.281706 0.279706 -0.423337
0.282574 0.278525 -0.421549
0.338044 0.208959 -0.275471
0.334128 0.216103 -0.273747
0.330244 0.223186 -0.272038
0.327353 0.228551 -0.270273
0.324480 0.233882 -0.268519
0.322574 0.237539 -0.266703
0.321624 0.239543 -0.264818
0.319731 0.243177 -0.263015
0.319731 0.243539 -0.261062
0.318787 0.245531 -0.259190
0.317845 0.247518 -0.257321
0.317845 0.247880 -0.255372
0.316905 0.249863 -0.253510
0.315967 0.251842 -0.251651
0.315967 0.252202 -0.249706
0.315031 0.254177 -0.247853
0.315031 0.254537 -0.245910
0.314097 0.256507 -0.244063
0.313165 0.258473 -0.242219
0.312234 0.260435 -0.240380
0.312234 0.260794 -0.238443
0.311306 0.262752 -0.236609
0.311306 0.263111 -0.234674
0.310380 0.265064 -0.232846
0.309455 0.267013 -0.231022
0.309455 0.267371 -0.229091
0.308532 0.269316 -0.227272
0.308532 0.269673 -0.225343
0.307612 0.271614 -0.223530
0.306693 0.273550 -0.221721
0.306693 0.273907 -0.219796
0.305776 0.275839 -0.217993
0.305776 0.276196 -0.216069
0.304860 0.278124 -0.214272
0.304860 0.278480 -0.212350
0.303947 0.280404 -0.210558
0.303947 0.280759 -0.208639
0.303947 0.281115 -0.206719
0.303947 0.281471 -0.204800
0.303947 0.281827 -0.202880
0.303036 0.283745 -0.201100
0.303036 0.284101 -0.199182
0.303036 0.284456 -0.197265
0.303036 0.284812 -0.195347
0.303036 0.285167 -0.193430
0.302126 0.287080 -0.191661
0.302126 0.287435 -0.189745
0.302126 0.287790 -0.187830
0.302126 0.288145 -0.185914
0.302126 0.288500 -0.183999
0.301219 0.290408 -0.182241
0.301219 0.290763 -0.180327
0.301219 0.291117 -0.178414
0.301219 0.291472 -0.176500
0.301219 0.291827 -0.174587
0.301219 0.292182 -0.172673
0.301219 0.292536 -0.170760
0.301219 0.292891 -0.168846
0.301219 0.293246 -0.166932
0.301219 0.293601 -0.165019
0.301219 0.293956 -0.163105
0.301219 0.294310 -0.161192
0.301219 0.294665 -0.159278
0.301219 0.295020 -0.157365
0.301219 0.295375 -0.155451
0.301219 0.295729 -0.153537
0.301219 0.296084 -0.151624
0.300313 0.297982 -0.149901
0.300313 0.298337 -0.147989
0.300313 0.298691 -0.146078
0.300313 0.299045 -0.144166
0.300313 0.299400 -0.142254
0.301219 0.298213 -0.140142
0.301219 0.298568 -0.138229
0.301219 0.298922 -0.136315
0.301219 0.299277 -0.134402
0.302126 0.298089 -0.132280
0.302126 0.298444 -0.130364
0.303036 0.297254 -0.128236
0.303036 0.297610 -0.126318
0.303947 0.296417 -0.124184
0.303947 0.296773 -0.122264
0.304860 0.295579 -0.120123
0.305776 0.294382 -0.117978
0.305776 0.294739 -0.116055
0.306693 0.293540 -0.113903
0.306693 0.293897 -0.111978
0.307612 0.292696 -0.109820
0.307612 0.293053 -0.107892
0.308532 0.291850 -0.105728
0.308532 0.292208 -0.103799
0.309455 0.291003 -0.101628
0.309455 0.291361 -0.099697
0.310380 0.290154 -0.097519
0.310380 0.290512 -0.095586
0.311306 0.289303 -0.093402
0.312234 0.288091 -0.091214
0.312234 0.288450 -0.089277
0.313165 0.287236 -0.087082
0.314097 0.286019 -0.084883
0.314097 0.286379 -0.082941
0.315031 0.285161 -0.080735
0.315031 0.285521 -0.078792
0.315967 0.284300 -0.076580
0.316905 0.283077 -0.074363
0.317845 0.281851 -0.072141
0.317845 0.282212 -0.070192
0.318787 0.280984 -0.067964
0.319731 0.279754 -0.065731
0.320677 0.278521 -0.063493
0.320677 0.278883 -0.061538
0.321624 0.277648 -0.059294
0.322574 0.276410 -0.057045
0.323526 0.275170 -0.054791
0.323526 0.275533 -0.052830
0.324480 0.274291 -0.050569
0.325435 0.273045 -0.048304
0.326393 0.271797 -0.046035
0.326393 0.272162 -0.044067
0.327353 0.270912 -0.041790
0.328315 0.269659 -0.039509
0.329278 0.268404 -0.037223
0.329278 0.268770 -0.035249
0.330244 0.267512 -0.032956
0.331212 0.266252 -0.030658
0.332182 0.264989 -0.028355
0.332182 0.265356 -0.026375
0.334128 0.262455 -0.023735
0.335104 0.261184 -0.021418
0.336082 0.259911 -0.019096
0.338044 0.256986 -0.016429
0.337062 0.259004 -0.014778
0.335104 0.262657 -0.013473
0.333154 0.266296 -0.012173
0.331212 0.269919 -0.010878
0.329278 0.273527 -0.009589
0.327353 0.277120 -0.008306
0.326393 0.279093 -0.006682
0.325435 0.281063 -0.005062
0.323526 0.284625 -0.003793
0.322574 0.286582 -0.002181
0.320677 0.290121 -0.000922
0.318787 0.293646 0.000331
0.317845 0.295584 0.001931
0.315967 0.299087 0.003175
0.315031 0.301013 0.004766
0.314097 0.302935 0.006355
0.313165 0.304853 0.007940
0.313165 0.305213 0.009879
0.312234 0.307126 0.011459
0.312234 0.307486 0.013396
0.311306 0.309395 0.014971
0.311306 0.309754 0.016906
0.310380 0.311659 0.018475
0.310380 0.312017 0.020408
0.309455 0.313918 0.021972
0.309455 0.314276 0.023904
0.309455 0.314635 0.025835
0.309455 0.314993 0.027766
0.309455 0.315351 0.029697
0.308532 0.317246 0.031250
0.308532 0.317604 0.033180
0.308532 0.317962 0.035109
0.308532 0.318319 0.037038
0.308532 0.318677 0.038968
0.308532 0.319035 0.040897
0.308532 0.319392 0.042826
0.307612 0.321282 0.044364
0.307612 0.321639 0.046291
0.307612 0.321996 0.048219
0.307612 0.322354 0.050146
0.307612 0.322711 0.052073
0.307612 0.323068 0.054001
0.306693 0.324952 0.055525
0.306693 0.325309 0.057451
0.306693 0.325666 0.059376
0.306693 0.326023 0.061301
0.307612 0.324855 0.063637
0.307612 0.325212 0.065564
0.307612 0.325570 0.067492
0.308532 0.324400 0.069836
0.308532 0.324758 0.071765
0.307612 0.326642 0.073273
0.308532 0.325473 0.075624
0.308532 0.325831 0.077553
0.308532 0.326188 0.079482
0.309455 0.325018 0.081841
0.309455 0.325376 0.083773
0.310380 0.324204 0.086138
0.310380 0.324562 0.088072
0.310380 0.324921 0.090005
0.311306 0.323747 0.092380
0.311306 0.324106 0.094315
0.312234 0.322930 0.096696
0.312234 0.323289 0.098634
0.313165 0.322111 0.101022
0.313165 0.322470 0.102961
0.314097 0.321290 0.105357
0.315031 0.320108 0.107757
0.315967 0.318922 0.110163
0.316905 0.317735 0.112573
0.316905 0.318096 0.114520
0.317845 0.316906 0.116938
0.318787 0.315714 0.119360
0.319731 0.314520 0.121787
0.319731 0.314882 0.123741
0.320677 0.313685 0.126175
0.321624 0.312486 0.128615
0.322574 0.311285 0.131059
0.322574 0.311648 0.133019
0.323526 0.310444 0.135471
0.324480 0.309238 0.137927
0.326393 0.306453 0.140889
0.326393 0.306818 0.142857
0.326393 0.307183 0.144824
0.326393 0.307548 0.146792
0.327353 0.306335 0.149268
0.327353 0.306700 0.151238
0.327353 0.307065 0.153208
0.327353 0.307430 0.155177
0.328315 0.306216 0.157665
0.328315 0.306581 0.159637
0.328315 0.306947 0.161609
0.327353 0.308891 0.163056
0.328315 0.307678 0.165552
0.328315 0.308044 0.167524
0.328315 0.308409 0.169496
0.329278 0.307194 0.172001
0.330244 0.305977 0.174512
0.330244 0.306343 0.176488
0.331212 0.305124 0.179006
0.331212 0.305491 0.180984
0.331212 0.305857 0.182962
0.332182 0.304636 0.185489
0.332182 0.305003 0.187469
0.333154 0.303780 0.190004
0.334128 0.302554 0.192545
0.335104 0.301325 0.195091
0.336082 0.300094 0.197642
0.336082 0.300463 0.199630
0.337062 0.299229 0.202189
0.338044 0.297993 0.204753
0.339028 0.296755 0.207322
0.339028 0.297125 0.209317
0.340015 0.295884 0.211894
0.341003 0.294640 0.214476
0.341994 0.293394 0.217064
0.342987 0.292145 0.219658
0.343981 0.290894 0.222257
0.344978 0.289640 0.224861
0.346979 0.286750 0.228075
0.347982 0.285488 0.230695
0.349995 0.282580 0.233932
0.352017 0.279660 0.237182
0.353031 0.278383 0.239825
0.355066 0.275445 0.243100
0.360192 0.267475 0.248287
0.364333 0.261113 0.252887
0.371667 0.249558 0.259486
0.385591 0.227287 0.270218
0.265420 0.293078 -0.484379
0.260427 0.302299 -0.481690
0.259600 0.304108 -0.479721
0.258775 0.305913 -0.477757
0.258775 0.306251 -0.475930
0.258775 0.306590 -0.474104
0.258775 0.306929 -0.472278
0.257952 0.308729 -0.470322
0.257952 0.309068 -0.468498
0.257952 0.309406 -0.466673
0.257952 0.309744 -0.464849
0.257130 0.311541 -0.462902
0.257130 0.311879 -0.461080
0.257130 0.312216 -0.459257
0.257952 0.311097 -0.457551
0.258775 0.309976 -0.455842
0.258775 0.310315 -0.454015
0.259600 0.309191 -0.452301
0.260427 0.308066 -0.450583
0.261255 0.306939 -0.448862
0.261255 0.307278 -0.447030
0.262085 0.306149 -0.445304
0.262916 0.305017 -0.443574
0.262916 0.305357 -0.441739
0.264584 0.302747 -0.440105
0.265420 0.301609 -0.438365
0.266258 0.300469 -0.436622
0.267939 0.297839 -0.434971
0.269627 0.295199 -0.433313
0.270473 0.294046 -0.431557
0.272170 0.291391 -0.429888
0.273022 0.290231 -0.428122
0.274729 0.287560 -0.426442
0.275586 0.286394 -0.424668
0.277303 0.283707 -0.422975
0.278165 0.282533 -0.421192
0.281628 0.276770 -0.419652
0.345030 0.192144 -0.278787
0.334155 0.211381 -0.277478
0.330264 0.218499 -0.275749
0.326404 0.225557 -0.274035
0.323531 0.230904 -0.272267
0.321626 0.234570 -0.270441
0.319728 0.238222 -0.268623
0.318782 0.240223 -0.266739
0.316897 0.243852 -0.264934
0.316897 0.244214 -0.262982
0.315957 0.246202 -0.261110
0.315019 0.248187 -0.259241
0.315019 0.248548 -0.257294
0.314083 0.250529 -0.255432
0.314083 0.250889 -0.253486
0.313148 0.252865 -0.251630
0.312216 0.254837 -0.249777
0.312216 0.255197 -0.247835
0.311286 0.257164 -0.245988
0.311286 0.257524 -0.244049
0.310358 0.259487 -0.242208
0.309431 0.261445 -0.240370
0.308507 0.263400 -0.238537
0.308507 0.263759 -0.236603
0.307584 0.265709 -0.234775
0.307584 0.266067 -0.232844
0.306663 0.268013 -0.231022
0.305744 0.269955 -0.229203
0.305744 0.270313 -0.227276
0.304827 0.272250 -0.225463
0.304827 0.272607 -0.223538
0.303912 0.274541 -0.221731
0.302999 0.276470 -0.219927
0.302999 0.276827 -0.218006
0.302999 0.277183 -0.216085
0.302088 0.279108 -0.214289
0.302088 0.279464 -0.212369
0.302088 0.279819 -0.210450
0.301178 0.281740 -0.208662
0.301178 0.282095 -0.206744
0.301178 0.282451 -0.204827
0.301178 0.282806 -0.202909
0.301178 0.283162 -0.200992
0.300270 0.285076 -0.199215
0.300270 0.285431 -0.197299
0.300270 0.285787 -0.195384
0.300270 0.286142 -0.193468
0.300270 0.286497 -0.191553
0.299365 0.288406 -0.189787
0.299365 0.288761 -0.187874
0.299365 0.289116 -0.185960
0.299365 0.289471 -0.184047
0.299365 0.289825 -0.182133
0.299365 0.290180 -0.180219
0.299365 0.290535 -0.178306
0.299365 0.290890 -0.176392
0.299365 0.291245 -0.174479
0.299365 0.291599 -0.172565
0.299365 0.291954 -0.170652
0.299365 0.292309 -0.168738
0.299365 0.292664 -0.166824
0.299365 0.293018 -0.164911
0.299365 0.293373 -0.162997
0.299365 0.293728 -0.161084
0.299365 0.294083 -0.159170
0.298461 0.295983 -0.157439
0.298461 0.296337 -0.155528
0.298461 0.296692 -0.153616
0.298461 0.297046 -0.151705
0.298461 0.297400 -0.149793
0.298461 0.297755 -0.147881
0.298461 0.298109 -0.145970
0.298461 0.298464 -0.144058
0.298461 0.298818 -0.142146
0.298461 0.299172 -0.140235
0.299365 0.297985 -0.138121
0.299365 0.298340 -0.136207
0.299365 0.298695 -0.134294
0.299365 0.299050 -0.132380
0.299365 0.299404 -0.130467
0.300270 0.298216 -0.128341
0.300270 0.298572 -0.126425
0.301178 0.297382 -0.124293
0.301178 0.297737 -0.122375
0.302088 0.296545 -0.120237
0.302999 0.295350 -0.118094
0.302999 0.295707 -0.116172
0.303912 0.294510 -0.114023
0.303912 0.294867 -0.112100
0.304827 0.293668 -0.109944
0.304827 0.294025 -0.108018
0.305744 0.292824 -0.105856
0.305744 0.293181 -0.103929
0.306663 0.291978 -0.101761
0.306663 0.292336 -0.099831
0.307584 0.291131 -0.097656
0.308507 0.289924 -0.095477
0.308507 0.290282 -0.093544
0.309431 0.289073 -0.091358
0.309431 0.289431 -0.089423
0.310358 0.288220 -0.087230
0.311286 0.287005 -0.085033
0.311286 0.287365 -0.083094
0.312216 0.286148 -0.080891
0.313148 0.284930 -0.078683
0.313148 0.285290 -0.076739
0.314083 0.284069 -0.074525
0.315019 0.282845 -0.072306
0.315957 0.281619 -0.070082
0.315957 0.281981 -0.068133
0.316897 0.280752 -0.065902
0.317838 0.279522 -0.063667
0.318782 0.278288 -0.061428
0.318782 0.278651 -0.059472
0.319728 0.277415 -0.057226
0.320676 0.276177 -0.054975
0.321626 0.274936 -0.052719
0.321626 0.275300 -0.050758
0.322577 0.274057 -0.048495
0.323531 0.272812 -0.046228
0.324487 0.271563 -0.043956
0.324487 0.271928 -0.041988
0.325445 0.270678 -0.039709
0.326404 0.269425 -0.037426
0.327366 0.268169 -0.035138
0.328330 0.266911 -0.032844
0.328330 0.267277 -0.030868
0.329296 0.266017 -0.028568
0.330264 0.264754 -0.026264
0.332205 0.261852 -0.023623
0.333179 0.260580 -0.021306
0.334155 0.259306 -0.018984
0.335133 0.258029 -0.016656
0.335133 0.258398 -0.014666
0.333179 0.262053 -0.013361
0.331233 0.265693 -0.012061
0.328330 0.270941 -0.011110
0.326404 0.274543 -0.009822
0.325445 0.276521 -0.008195
0.323531 0.280100 -0.006917
0.322577 0.282066 -0.005298
0.321626 0.284028 -0.003683
0.319728 0.287576 -0.002419
0.318782 0.289526 -0.000812
0.316897 0.293053 0.000442
0.315019 0.296564 0.001690
0.314083 0.298495 0.003285
0.313148 0.300422 0.004876
0.312216 0.302344 0.006464
0.312216 0.302704 0.008405
0.311286 0.304622 0.009988
0.311286 0.304982 0.011928
0.310358 0.306896 0.013505
0.310358 0.307255 0.015443
0.309431 0.309165 0.017015
0.308507 0.311071 0.018584
0.308507 0.311429 0.020517
0.308507 0.311788 0.022451
0.307584 0.313689 0.024013
0.307584 0.314047 0.025944
0.307584 0.314405 0.027875
0.307584 0.314763 0.029806
0.307584 0.315121 0.031738
0.307584 0.315479 0.033669
0.307584 0.315837 0.035600
0.306663 0.317732 0.037147
0.306663 0.318090 0.039076
0.306663 0.318448 0.041006
0.306663 0.318805 0.042935
0.306663 0.319163 0.044864
0.306663 0.319521 0.046793
0.306663 0.319878 0.048723
0.306663 0.320236 0.050652
0.305744 0.322124 0.052182
0.305744 0.322482 0.054109
0.305744 0.322839 0.056037
0.305744 0.323196 0.057964
0.305744 0.323554 0.059891
0.305744 0.323911 0.061818
0.305744 0.324268 0.063746
0.305744 0.324626 0.065673
0.306663 0.323455 0.068015
0.306663 0.323813 0.069945
0.307584 0.322640 0.072294
0.306663 0.324528 0.073803
0.306663 0.324886 0.075733
0.307584 0.323714 0.078088
0.307584 0.324072 0.080019
0.308507 0.322899 0.082381
0.308507 0.323257 0.084314
0.308507 0.323616 0.086248
0.309431 0.322440 0.088618
0.309431 0.322799 0.090554
0.309431 0.323158 0.092489
0.310358 0.321981 0.094869
0.310358 0.322340 0.096806
0.311286 0.321161 0.099192
0.312216 0.319979 0.101584
0.313148 0.318796 0.103980
0.313148 0.319156 0.105924
0.314083 0.317970 0.108327
0.314083 0.318331 0.110272
0.315019 0.317142 0.112683
0.315957 0.315952 0.115098
0.316897 0.314759 0.117519
0.317838 0.313563 0.119944
0.317838 0.313925 0.121898
0.318782 0.312728 0.124330
0.319728 0.311528 0.126768
0.320676 0.310325 0.129211
0.320676 0.310688 0.131170
0.321626 0.309484 0.133620
0.322577 0.308277 0.136075
0.324487 0.305490 0.139032
0.324487 0.305854 0.141000
0.325445 0.304640 0.143470
0.325445 0.305005 0.145440
0.325445 0.305370 0.147410
0.325445 0.305735 0.149380
0.326404 0.304519 0.151861
0.326404 0.304885 0.153833
0.326404 0.305250 0.155805
0.326404 0.305616 0.157777
0.326404 0.305981 0.159748
0.327366 0.304764 0.162244
0.327366 0.305130 0.164217
0.326404 0.307078 0.165663
0.327366 0.305862 0.168165
0.327366 0.306228 0.170139
0.328330 0.305010 0.172648
0.328330 0.305376 0.174623
0.329296 0.304155 0.177140
0.329296 0.304522 0.179118
0.329296 0.304889 0.181096
0.330264 0.303667 0.183621
0.330264 0.304034 0.185601
0.331233 0.302809 0.188134
0.331233 0.303177 0.190116
0.331233 0.303544 0.192098
0.332205 0.302318 0.194641
0.334155 0.299489 0.197754
0.335133 0.298255 0.200310
0.335133 0.298624 0.202301
0.336114 0.297387 0.204865
0.337096 0.296148 0.207435
0.337096 0.296518 0.209429
0.338080 0.295276 0.212006
0.339067 0.294032 0.214589
0.340055 0.292785 0.217177
0.341046 0.291536 0.219771
0.342039 0.290284 0.222370
0.343033 0.289029 0.224975
0.345030 0.286138 0.228189
0.346031 0.284875 0.230808
0.348040 0.281966 0.234045
0.349048 0.280694 0.236679
0.351069 0.277767 0.239940
0.353100 0.274827 0.243214
0.357188 0.268532 0.247767
0.361311 0.262181 0.252360
0.366516 0.254069 0.257643
0.379243 0.233693 0.267642
0.262803 0.294006 -0.484131
0.257829 0.303212 -0.481446
0.257006 0.305019 -0.479480
0.257006 0.305357 -0.477654
0.256184 0.307159 -0.475693
0.256184 0.307498 -0.473868
0.256184 0.307836 -0.472044
0.256184 0.308174 -0.470219
0.255364 0.309972 -0.468268
0.255364 0.310310 -0.466445
0.255364 0.310648 -0.464622
0.254546 0.312442 -0.462678
0.254546 0.312779 -0.460857
0.254546 0.313117 -0.459036
0.255364 0.312000 -0.457331
0.256184 0.310880 -0.455624
0.256184 0.311219 -0.453799
0.257006 0.310097 -0.452086
0.257829 0.308974 -0.450370
0.258654 0.307848 -0.448650
0.259481 0.306721 -0.446927
0.259481 0.307060 -0.445095
0.260309 0.305931 -0.443367
0.261138 0.304799 -0.441635
0.261970 0.303665 -0.439901
0.262803 0.302529 -0.438162
0.263637 0.301390 -0.436420
0.264473 0.300250 -0.434675
0.266151 0.297619 -0.433021
0.266992 0.296472 -0.431267
0.268679 0.293826 -0.429601
0.270373 0.291170 -0.427928
0.271223 0.290010 -0.426161
0.272927 0.287339 -0.424476
0.274637 0.284657 -0.422785
0.275495 0.283485 -0.421004
0.278079 0.279261 -0.419382
0.280679 0.275012 -0.417751
0.339105 0.198075 -0.280926
0.331255 0.212101 -0.279415
0.327379 0.219209 -0.277680
0.323536 0.226257 -0.275960
0.320675 0.231595 -0.274188
0.317832 0.236900 -0.272427
0.316888 0.238903 -0.270539
0.315946 0.240902 -0.268655
0.315006 0.242896 -0.266775
0.314068 0.244886 -0.264898
0.313132 0.246873 -0.263026
0.313132 0.247234 -0.261079
0.312198 0.249215 -0.259212
0.311266 0.251193 -0.257350
0.311266 0.251553 -0.255406
0.310336 0.253526 -0.253550
0.310336 0.253886 -0.251608
0.309407 0.255855 -0.249757
0.308481 0.257820 -0.247910
0.308481 0.258179 -0.245973
0.307556 0.260139 -0.244132
0.307556 0.260498 -0.242196
0.306634 0.262453 -0.240361
0.305713 0.264405 -0.238529
0.304794 0.266353 -0.236701
0.304794 0.266711 -0.234772
0.303877 0.268654 -0.232949
0.303877 0.269011 -0.231022
0.302962 0.270951 -0.229205
0.302049 0.272886 -0.227392
0.302049 0.273242 -0.225469
0.301138 0.275173 -0.223662
0.301138 0.275529 -0.221740
0.300228 0.277456 -0.219939
0.300228 0.277812 -0.218019
0.300228 0.278168 -0.216100
0.299320 0.280089 -0.214306
0.299320 0.280445 -0.212388
0.299320 0.280800 -0.210471
0.299320 0.281156 -0.208553
0.298415 0.283073 -0.206769
0.298415 0.283428 -0.204853
0.298415 0.283783 -0.202938
0.298415 0.284138 -0.201022
0.298415 0.284493 -0.199107
0.297511 0.286405 -0.197334
0.297511 0.286760 -0.195420
0.297511 0.287114 -0.193507
0.297511 0.287469 -0.191593
0.297511 0.287824 -0.189679
0.296609 0.289730 -0.187918
0.296609 0.290085 -0.186006
0.296609 0.290439 -0.184094
0.296609 0.290794 -0.182183
0.296609 0.291148 -0.180271
0.296609 0.291502 -0.178360
0.296609 0.291857 -0.176448
0.296609 0.292211 -0.174536
0.296609 0.292566 -0.172625
0.296609 0.292920 -0.170713
0.296609 0.293274 -0.168801
0.296609 0.293629 -0.166890
0.296609 0.293983 -0.164978
0.296609 0.294338 -0.163066
0.296609 0.294692 -0.161155
0.296609 0.295047 -0.159243
0.296609 0.295401 -0.157332
0.296609 0.295755 -0.155420
0.296609 0.296110 -0.153508
0.296609 0.296464 -0.151597
0.295708 0.298360 -0.149875
0.295708 0.298714 -0.147966
0.295708 0.299068 -0.146056
0.295708 0.299422 -0.144146
0.295708 0.299776 -0.142237
0.296609 0.298591 -0.140127
0.296609 0.298945 -0.138215
0.297511 0.297758 -0.136099
0.297511 0.298113 -0.134186
0.297511 0.298467 -0.132272
0.297511 0.298822 -0.130359
0.297511 0.299177 -0.128445
0.298415 0.297989 -0.126317
0.298415 0.298344 -0.124401
0.298415 0.298699 -0.122486
0.299320 0.297509 -0.120350
0.300228 0.296317 -0.118209
0.300228 0.296673 -0.116289
0.301138 0.295478 -0.114142
0.301138 0.295834 -0.112221
0.302049 0.294638 -0.110068
0.302049 0.294995 -0.108144
0.302962 0.293796 -0.105985
0.302962 0.294153 -0.104059
0.303877 0.292952 -0.101893
0.303877 0.293309 -0.099966
0.304794 0.292107 -0.097793
0.305713 0.290902 -0.095616
0.305713 0.291260 -0.093685
0.306634 0.290052 -0.091501
0.306634 0.290411 -0.089568
0.307556 0.289201 -0.087378
0.308481 0.287989 -0.085184
0.309407 0.286775 -0.082985
0.309407 0.287134 -0.081045
0.310336 0.285918 -0.078840
0.311266 0.284699 -0.076630
0.312198 0.283477 -0.074415
0.312198 0.283838 -0.072470
0.313132 0.282614 -0.070249
0.314068 0.281387 -0.068023
0.315006 0.280159 -0.065792
0.315006 0.280520 -0.063841
0.315946 0.279289 -0.061604
0.316888 0.278056 -0.059362
0.317832 0.276820 -0.057115
0.317832 0.277182 -0.055158
0.318778 0.275944 -0.052905
0.319725 0.274703 -0.050647
0.320675 0.273460 -0.048384
0.320675 0.273824 -0.046421
0.321627 0.272578 -0.044151
0.322581 0.271329 -0.041877
0.323536 0.270078 -0.039598
0.323536 0.270444 -0.037629
0.324494 0.269190 -0.035343
0.325454 0.267935 -0.033052
0.326416 0.266676 -0.030757
0.327379 0.265415 -0.028457
0.327379 0.265782 -0.026479
0.329313 0.262885 -0.023842
0.330283 0.261616 -0.021527
0.331255 0.260344 -0.019208
0.333205 0.257423 -0.016544
0.332229 0.259438 -0.014895
0.330283 0.263087 -0.013590
0.328345 0.266721 -0.012292
0.326416 0.270339 -0.010998
0.324494 0.273943 -0.009710
0.322581 0.277531 -0.008428
0.321627 0.279502 -0.006806
0.320675 0.281468 -0.005187
0.318778 0.285026 -0.003919
0.317832 0.286981 -0.002309
0.315946 0.290516 -0.001051
0.314068 0.294036 0.000202
0.313132 0.295972 0.001800
0.312198 0.297903 0.003394
0.311266 0.299830 0.004986
0.310336 0.301753 0.006574
0.310336 0.302113 0.008515
0.309407 0.304032 0.010098
0.309407 0.304392 0.012037
0.308481 0.306307 0.013615
0.308481 0.306666 0.015552
0.307556 0.308576 0.017124
0.307556 0.308935 0.019059
0.306634 0.310841 0.020626
0.306634 0.311199 0.022560
0.306634 0.311558 0.024493
0.306634 0.311916 0.026426
0.306634 0.312274 0.028359
0.306634 0.312633 0.030293
0.305713 0.314533 0.031847
0.305713 0.314891 0.033778
0.305713 0.315249 0.035709
0.305713 0.315607 0.037640
0.305713 0.315965 0.039572
0.305713 0.316324 0.041503
0.305713 0.316682 0.043434
0.304794 0.318576 0.044973
0.304794 0.318933 0.046902
0.304794 0.319291 0.048832
0.304794 0.319649 0.050761
0.304794 0.320007 0.052690
0.304794 0.320364 0.054619
0.304794 0.320722 0.056549
0.304794 0.321080 0.058478
0.304794 0.321437 0.060407
0.304794 0.321795 0.062337
0.304794 0.322153 0.064266
0.304794 0.322510 0.066195
0.304794 0.322868 0.068124
0.305713 0.321694 0.070472
0.305713 0.322052 0.072403
0.305713 0.322410 0.074334
0.305713 0.322769 0.076265
0.305713 0.323127 0.078197
0.306634 0.321952 0.080557
0.306634 0.322310 0.082490
0.307556 0.321134 0.084857
0.307556 0.321493 0.086792
0.307556 0.321851 0.088728
0.308481 0.320673 0.091103
0.308481 0.321032 0.093041
0.308481 0.321391 0.094978
0.309407 0.320211 0.097363
0.310336 0.319029 0.099752
0.311266 0.317844 0.102147
0.311266 0.318204 0.104090
0.312198 0.317017 0.106492
0.312198 0.317378 0.108437
0.313132 0.316189 0.110846
0.314068 0.314997 0.113259
0.315006 0.313803 0.115678
0.315006 0.314165 0.117629
0.315946 0.312969 0.120055
0.316888 0.311770 0.122485
0.317832 0.310569 0.124921
0.317832 0.310932 0.126878
0.318778 0.309729 0.129321
0.319725 0.308523 0.131769
0.320675 0.307315 0.134222
0.321627 0.306104 0.136680
0.323536 0.303310 0.139642
0.323536 0.303675 0.141612
0.323536 0.304040 0.143582
0.323536 0.304405 0.145551
0.324494 0.303188 0.148029
0.324494 0.303553 0.150001
0.324494 0.303919 0.151973
0.324494 0.304284 0.153944
0.325454 0.303065 0.156433
0.325454 0.303431 0.158407
0.325454 0.303797 0.160381
0.325454 0.304163 0.162355
0.325454 0.304529 0.164329
0.325454 0.304895 0.166303
0.325454 0.305261 0.168276
0.325454 0.305627 0.170250
0.326416 0.304408 0.172759
0.327379 0.303187 0.175273
0.327379 0.303553 0.177251
0.328345 0.302330 0.179773
0.328345 0.302697 0.181753
0.328345 0.303064 0.183733
0.329313 0.301839 0.186264
0.329313 0.302206 0.188246
0.330283 0.300978 0.190784
0.330283 0.301346 0.192769
0.330283 0.301714 0.194753
0.331255 0.300485 0.197301
0.332229 0.299253 0.199854
0.333205 0.298018 0.202413
0.333205 0.298387 0.204404
0.335163 0.295541 0.207547
0.335163 0.295911 0.209542
0.336146 0.294668 0.212119
0.337130 0.293424 0.214702
0.338116 0.292176 0.217290
0.339105 0.290926 0.219884
0.340096 0.289673 0.222483
0.342083 0.286787 0.225689
0.342083 0.287160 0.227698
0.344080 0.284262 0.230922
0.346084 0.281352 0.234159
0.347090 0.280079 0.236793
0.349108 0.277151 0.240054
0.351134 0.274210 0.243328
0.354190 0.269585 0.247249
0.358296 0.263246 0.251835
0.363479 0.255149 0.257109
0.372952 0.240041 0.265089
0.264362 0.287133 -0.486450
0.259360 0.296415 -0.483741
0.255237 0.304124 -0.481203
0.254417 0.305928 -0.479239
0.254417 0.306266 -0.477414
0.253598 0.308066 -0.475456
0.253598 0.308404 -0.473633
0.253598 0.308742 -0.471810
0.253598 0.309079 -0.469988
0.252781 0.310875 -0.468038
0.252781 0.311212 -0.466217
0.252781 0.311550 -0.464396
0.252781 0.311887 -0.462575
0.252781 0.312225 -0.460754
0.252781 0.312563 -0.458933
0.252781 0.312900 -0.457112
0.253598 0.311783 -0.455406
0.254417 0.310663 -0.453696
0.254417 0.311002 -0.451872
0.255237 0.309880 -0.450157
0.256058 0.308757 -0.448438
0.256881 0.307631 -0.446717
0.256881 0.307970 -0.444887
0.257706 0.306843 -0.443160
0.258532 0.305713 -0.441430
0.259360 0.304581 -0.439697
0.260190 0.303447 -0.437960
0.261854 0.300830 -0.436317
0.262689 0.299689 -0.434571
0.263525 0.298546 -0.432823
0.264362 0.297400 -0.431071
0.265202 0.296252 -0.429315
0.266886 0.293606 -0.427645
0.267730 0.292451 -0.425881
0.269424 0.289790 -0.424199
0.271124 0.287118 -0.422511
0.271977 0.285951 -0.420733
0.273688 0.283263 -0.419032
0.277129 0.277509 -0.417485
0.281470 0.270164 -0.416004
0.333231 0.203956 -0.283047
0.327393 0.214508 -0.281407
0.323542 0.221591 -0.279667
0.320674 0.226955 -0.277880
0.317825 0.232286 -0.276104
0.314994 0.237583 -0.274339
0.314054 0.239583 -0.272451
0.313116 0.241579 -0.270567
0.312180 0.243570 -0.268687
0.311246 0.245558 -0.266811
0.310313 0.247541 -0.264938
0.310313 0.247902 -0.262993
0.309383 0.249881 -0.261126
0.308455 0.251856 -0.259264
0.308455 0.252216 -0.257323
0.307529 0.254186 -0.255466
0.307529 0.254546 -0.253526
0.306604 0.256512 -0.251675
0.305681 0.258474 -0.249828
0.305681 0.258832 -0.247893
0.304761 0.260790 -0.246051
0.304761 0.261148 -0.244118
0.303842 0.263101 -0.242282
0.302925 0.265051 -0.240451
0.302010 0.266996 -0.238622
0.302010 0.267353 -0.236695
0.301097 0.269294 -0.234873
0.301097 0.269651 -0.232947
0.300186 0.271587 -0.231131
0.299276 0.273520 -0.229317
0.299276 0.273876 -0.227396
0.298369 0.275804 -0.225589
0.298369 0.276160 -0.223669
0.298369 0.276516 -0.221750
0.297463 0.278439 -0.219950
0.297463 0.278795 -0.218033
0.296559 0.280714 -0.216238
0.296559 0.281069 -0.214323
0.296559 0.281424 -0.212407
0.296559 0.281780 -0.210492
0.296559 0.282135 -0.208576
0.296559 0.282490 -0.206661
0.295657 0.284403 -0.204880
0.295657 0.284758 -0.202966
0.295657 0.285113 -0.201053
0.295657 0.285468 -0.199139
0.295657 0.285823 -0.197226
0.294757 0.287731 -0.195456
0.294757 0.288085 -0.193545
0.294757 0.288440 -0.191633
0.294757 0.288794 -0.189721
0.294757 0.289149 -0.187810
0.294757 0.289503 -0.185898
0.294757 0.289857 -0.183987
0.293858 0.291759 -0.182232
0.294757 0.290566 -0.180163
0.294757 0.290921 -0.178252
0.294757 0.291275 -0.176340
0.294757 0.291629 -0.174428
0.294757 0.291984 -0.172517
0.294757 0.292338 -0.170605
0.294757 0.292693 -0.168694
0.293858 0.294592 -0.166955
0.293858 0.294946 -0.165045
0.293858 0.295300 -0.163136
0.293858 0.295654 -0.161226
0.293858 0.296008 -0.159316
0.293858 0.296362 -0.157406
0.293858 0.296716 -0.155497
0.293858 0.297070 -0.153587
0.293858 0.297424 -0.151677
0.293858 0.297778 -0.149768
0.293858 0.298133 -0.147858
0.293858 0.298487 -0.145948
0.293858 0.298841 -0.144039
0.293858 0.299195 -0.142129
0.293858 0.299549 -0.140219
0.294757 0.298363 -0.138107
0.294757 0.298718 -0.136196
0.294757 0.299072 -0.134284
0.295657 0.297885 -0.132164
0.294757 0.299781 -0.130461
0.295657 0.298595 -0.128337
0.295657 0.298949 -0.126424
0.295657 0.299304 -0.124510
0.296559 0.298116 -0.122378
0.296559 0.298471 -0.120462
0.297463 0.297281 -0.118324
0.297463 0.297637 -0.116406
0.298369 0.296444 -0.114262
0.298369 0.296800 -0.112342
0.299276 0.295606 -0.110191
0.300186 0.294409 -0.108036
0.300186 0.294766 -0.106112
0.300186 0.295122 -0.104189
0.301097 0.293924 -0.102025
0.301097 0.294281 -0.100100
0.302010 0.293080 -0.097930
0.302925 0.291877 -0.095755
0.302925 0.292235 -0.093826
0.303842 0.291030 -0.091645
0.304761 0.289822 -0.089459
0.305681 0.288612 -0.087269
0.305681 0.288971 -0.085334
0.306604 0.287759 -0.083137
0.307529 0.286544 -0.080936
0.308455 0.285327 -0.078730
0.308455 0.285687 -0.076789
0.309383 0.284467 -0.074577
0.310313 0.283246 -0.072360
0.311246 0.282021 -0.070139
0.311246 0.282382 -0.068191
0.312180 0.281156 -0.065963
0.313116 0.279927 -0.063731
0.314054 0.278695 -0.061493
0.314054 0.279057 -0.059540
0.314994 0.277823 -0.057296
0.315935 0.276587 -0.055048
0.316879 0.275348 -0.052794
0.316879 0.275711 -0.050835
0.317825 0.274470 -0.048575
0.318773 0.273226 -0.046310
0.319723 0.271980 -0.044040
0.319723 0.272344 -0.042075
0.320674 0.271095 -0.039799
0.321628 0.269844 -0.037518
0.322584 0.268590 -0.035232
0.322584 0.268956 -0.033260
0.323542 0.267700 -0.030967
0.324501 0.266441 -0.028670
0.325463 0.265180 -0.026367
0.327393 0.262282 -0.023730
0.328361 0.261012 -0.021415
0.329331 0.259739 -0.019095
0.330303 0.258464 -0.016771
0.330303 0.258833 -0.014782
0.328361 0.262483 -0.013478
0.326427 0.266118 -0.012180
0.323542 0.271359 -0.011229
0.321628 0.274957 -0.009942
0.320674 0.276932 -0.008317
0.319723 0.278904 -0.006695
0.317825 0.282470 -0.005423
0.316879 0.284430 -0.003809
0.314994 0.287974 -0.002547
0.313116 0.291503 -0.001290
0.312180 0.293443 0.000312
0.311246 0.295379 0.001910
0.310313 0.297311 0.003504
0.308455 0.300803 0.004742
0.308455 0.301163 0.006683
0.308455 0.301523 0.008625
0.307529 0.303442 0.010207
0.307529 0.303802 0.012146
0.306604 0.305717 0.013724
0.306604 0.306076 0.015661
0.305681 0.307987 0.017233
0.305681 0.308346 0.019169
0.305681 0.308705 0.021104
0.304761 0.310611 0.022669
0.304761 0.310969 0.024602
0.304761 0.311328 0.026535
0.304761 0.311686 0.028469
0.304761 0.312045 0.030402
0.304761 0.312403 0.032335
0.304761 0.312761 0.034268
0.304761 0.313120 0.036201
0.303842 0.315020 0.037749
0.303842 0.315378 0.039681
0.303842 0.315736 0.041612
0.303842 0.316094 0.043543
0.303842 0.316452 0.045474
0.302925 0.318346 0.047011
0.302925 0.318704 0.048940
0.302925 0.319062 0.050870
0.302925 0.319419 0.052799
0.302925 0.319777 0.054728
0.302925 0.320135 0.056658
0.303842 0.318958 0.058993
0.303842 0.319316 0.060924
0.303842 0.319674 0.062856
0.303842 0.320033 0.064787
0.303842 0.320391 0.066718
0.303842 0.320749 0.068649
0.304761 0.319571 0.071000
0.304761 0.319930 0.072933
0.303842 0.321823 0.074443
0.304761 0.320647 0.076800
0.304761 0.321005 0.078733
0.305681 0.319827 0.081096
0.305681 0.320186 0.083031
0.305681 0.320545 0.084966
0.306604 0.319365 0.087338
0.306604 0.319724 0.089276
0.306604 0.320083 0.091213
0.307529 0.318902 0.093594
0.307529 0.319262 0.095533
0.308455 0.318078 0.097921
0.308455 0.318438 0.099862
0.309383 0.317253 0.102257
0.310313 0.316065 0.104656
0.310313 0.316425 0.106601
0.311246 0.315235 0.109008
0.312180 0.314043 0.111420
0.313116 0.312848 0.113836
0.313116 0.313209 0.115788
0.314054 0.312012 0.118211
0.314994 0.310813 0.120640
0.315935 0.309611 0.123074
0.315935 0.309974 0.125031
0.316879 0.308769 0.127472
0.317825 0.307563 0.129918
0.318773 0.306353 0.132369
0.318773 0.306717 0.134333
0.319723 0.305506 0.136791
0.321628 0.302710 0.139753
0.322584 0.301491 0.142225
0.322584 0.301857 0.144197
0.322584 0.302222 0.146169
0.322584 0.302588 0.148140
0.323542 0.301367 0.150623
0.323542 0.301733 0.152597
0.323542 0.302099 0.154571
0.323542 0.302465 0.156545
0.323542 0.302831 0.158519
0.324501 0.301609 0.161015
0.324501 0.301975 0.162991
0.324501 0.302342 0.164967
0.324501 0.302708 0.166943
0.323542 0.304660 0.168388
0.324501 0.303441 0.170895
0.325463 0.302218 0.173407
0.325463 0.302585 0.175385
0.326427 0.301360 0.177904
0.326427 0.301727 0.179884
0.326427 0.302094 0.181865
0.327393 0.300868 0.184394
0.327393 0.301235 0.186376
0.328361 0.300007 0.188912
0.328361 0.300375 0.190896
0.328361 0.300742 0.192881
0.329331 0.299512 0.195427
0.330303 0.298279 0.197978
0.330303 0.298647 0.199967
0.331277 0.297412 0.202526
0.332253 0.296174 0.205090
0.333231 0.294934 0.207660
0.333231 0.295304 0.209654
0.334211 0.294061 0.212232
0.335193 0.292815 0.214815
0.336178 0.291567 0.217403
0.337164 0.290316 0.219997
0.339144 0.287435 0.223194
0.340137 0.286176 0.225802
0.341131 0.284914 0.228416
0.342129 0.283649 0.231036
0.343128 0.282382 0.233661
0.345133 0.279465 0.236907
0.347146 0.276535 0.240168
0.349168 0.273592 0.243443
0.352218 0.268966 0.247364
0.355288 0.264309 0.251310
0.359412 0.257926 0.255929
0.367769 0.244609 0.263218
0.261738 0.288069 -0.486199
0.256756 0.297337 -0.483494
0.252649 0.305034 -0.480960
0.251832 0.306835 -0.478998
0.251832 0.307173 -0.477176
0.251832 0.307511 -0.475353
0.251017 0.309308 -0.473398
0.251017 0.309645 -0.471577
0.251017 0.309983 -0.469756
0.251017 0.310320 -0.467935
0.250204 0.312113 -0.465990
0.250204 0.312450 -0.464171
0.250204 0.312787 -0.462351
0.250204 0.313125 -0.460532
0.250204 0.313462 -0.458713
0.251017 0.312346 -0.457010
0.251017 0.312684 -0.455189
0.251832 0.311566 -0.453480
0.252649 0.310446 -0.451769
0.253467 0.309324 -0.450054
0.253467 0.309663 -0.448227
0.254287 0.308539 -0.446507
0.255109 0.307413 -0.444784
0.255109 0.307753 -0.442954
0.255932 0.306625 -0.441225
0.256756 0.305495 -0.439493
0.258410 0.302888 -0.437856
0.259240 0.301751 -0.436116
0.260071 0.300611 -0.434372
0.260904 0.299470 -0.432625
0.261738 0.298326 -0.430874
0.263412 0.295690 -0.429211
0.264251 0.294539 -0.427452
0.265092 0.293386 -0.425689
0.265935 0.292230 -0.423923
0.267625 0.289569 -0.422237
0.269322 0.286897 -0.420545
0.270173 0.285729 -0.418765
0.272736 0.281520 -0.417140
0.276177 0.275753 -0.415584
0.290221 0.251158 -0.414949
0.328376 0.208091 -0.285095
0.323547 0.216905 -0.283391
0.319720 0.223962 -0.281646
0.316871 0.229308 -0.279857
0.314039 0.234620 -0.278078
0.312161 0.238264 -0.276248
0.311225 0.240261 -0.274360
0.310291 0.242254 -0.272476
0.309359 0.244243 -0.270595
0.308429 0.246228 -0.268719
0.307501 0.248209 -0.266846
0.307501 0.248569 -0.264903
0.306574 0.250545 -0.263037
0.306574 0.250905 -0.261095
0.305650 0.252877 -0.259235
0.304727 0.254845 -0.257378
0.304727 0.255204 -0.255441
0.303807 0.257167 -0.253589
0.303807 0.257526 -0.251654
0.302888 0.259485 -0.249809
0.301971 0.261440 -0.247967
0.301971 0.261798 -0.246036
0.301056 0.263748 -0.244200
0.301056 0.264106 -0.242271
0.300143 0.266052 -0.240441
0.299232 0.267994 -0.238615
0.298322 0.269932 -0.236792
0.298322 0.270289 -0.234869
0.297415 0.272223 -0.233052
0.297415 0.272579 -0.231130
0.296509 0.274508 -0.229319
0.295605 0.276434 -0.227512
0.296509 0.275220 -0.225480
0.295605 0.277145 -0.223677
0.295605 0.277500 -0.221759
0.294703 0.279421 -0.219961
0.294703 0.279776 -0.218046
0.294703 0.280131 -0.216130
0.293803 0.282047 -0.214340
0.293803 0.282402 -0.212426
0.293803 0.282757 -0.210513
0.293803 0.283112 -0.208599
0.293803 0.283466 -0.206686
0.293803 0.283821 -0.204772
0.292905 0.285731 -0.202995
0.292905 0.286086 -0.201083
0.292905 0.286440 -0.199172
0.292905 0.286795 -0.197260
0.292905 0.287149 -0.195348
0.292008 0.289054 -0.193583
0.292008 0.289408 -0.191673
0.292008 0.289762 -0.189763
0.292008 0.290116 -0.187854
0.292008 0.290470 -0.185944
0.292008 0.290824 -0.184034
0.292008 0.291178 -0.182125
0.292008 0.291532 -0.180215
0.292008 0.291886 -0.178305
0.292008 0.292241 -0.176396
0.292008 0.292595 -0.174486
0.292008 0.292949 -0.172576
0.292008 0.293303 -0.170667
0.292008 0.293657 -0.168757
0.292008 0.294011 -0.166847
0.292008 0.294365 -0.164937
0.292008 0.294719 -0.163028
0.292008 0.295073 -0.161118
0.292008 0.295427 -0.159208
0.292008 0.295781 -0.157299
0.292008 0.296135 -0.155389
0.291113 0.298029 -0.153666
0.291113 0.298383 -0.151758
0.291113 0.298736 -0.149850
0.291113 0.299090 -0.147942
0.291113 0.299444 -0.146035
0.291113 0.299798 -0.144127
0.291113 0.300151 -0.142219
0.292008 0.298968 -0.140112
0.292008 0.299322 -0.138202
0.292905 0.298136 -0.136088
0.292905 0.298490 -0.134176
0.292905 0.298845 -0.132265
0.292905 0.299199 -0.130353
0.292905 0.299554 -0.128441
0.293803 0.298367 -0.126316
0.293803 0.298722 -0.124402
0.293803 0.299077 -0.122488
0.293803 0.299431 -0.120575
0.294703 0.298243 -0.118439
