ply
format ascii 1.0
element vertex 1710
property float x
property float y
property float z
end_header
0.288502 -0.276767 0.327877
-0.021753 -0.171110 0.461170
-0.023092 -0.173724 0.455535
-0.024424 -0.176325 0.449928
-0.026804 -0.176325 0.449311
-0.028653 -0.177620 0.446211
-0.031030 -0.177620 0.445594
-0.033408 -0.177620 0.444978
-0.035246 -0.178912 0.441887
-0.039250 -0.175026 0.448711
0.399898 -0.261408 0.392869
0.397684 -0.263582 0.387884
0.395480 -0.265746 0.382924
0.393276 -0.268973 0.375807
0.391102 -0.270043 0.373071
0.388929 -0.272177 0.368180
0.386766 -0.274301 0.363311
0.384612 -0.275359 0.360606
0.382464 -0.276415 0.357907
0.380326 -0.278519 0.353085
0.378190 -0.279567 0.350404
0.376069 -0.281657 0.345616
0.373945 -0.282698 0.342953
0.371842 -0.284773 0.338198
0.369747 -0.286839 0.333465
0.367643 -0.287868 0.330832
0.365566 -0.289920 0.326131
0.363473 -0.290942 0.323515
0.361413 -0.292980 0.318848
0.359332 -0.293995 0.316249
0.357288 -0.296019 0.311614
0.355253 -0.298033 0.307000
0.353191 -0.299037 0.304430
0.351134 -0.300038 0.301864
0.349122 -0.302035 0.297293
0.347076 -0.303030 0.294745
0.345036 -0.304022 0.292203
0.342999 -0.305013 0.289666
0.341017 -0.306986 0.285148
0.338941 -0.306986 0.284609
0.336865 -0.306986 0.284071
0.334789 -0.306986 0.283533
0.332713 -0.306986 0.282994
0.330636 -0.306986 0.282456
0.328560 -0.306986 0.281918
0.326419 -0.306001 0.283362
0.324273 -0.305013 0.284810
0.322122 -0.304022 0.286261
0.320039 -0.304022 0.285721
0.317881 -0.303030 0.287175
0.315717 -0.302035 0.288632
0.313549 -0.301038 0.290092
0.311377 -0.300038 0.291556
0.309199 -0.299037 0.293023
0.306928 -0.297027 0.296511
0.304738 -0.296019 0.297988
0.302543 -0.295008 0.299469
0.300246 -0.292980 0.302988
0.297940 -0.290942 0.306523
0.295724 -0.289920 0.308022
0.293295 -0.286839 0.313641
0.290740 -0.282698 0.321378
0.288050 -0.277468 0.331290
-0.025857 -0.175675 0.456375
-0.027182 -0.178271 0.450766
-0.029562 -0.178271 0.450149
-0.031942 -0.178271 0.449531
0.399552 -0.263193 0.394204
0.397338 -0.265363 0.389216
0.395135 -0.267523 0.384252
0.392932 -0.270743 0.377131
0.390752 -0.272878 0.372224
0.388587 -0.273942 0.369499
0.386426 -0.275003 0.366781
0.384271 -0.276061 0.364069
0.382124 -0.278171 0.359221
0.379986 -0.280271 0.354395
0.377851 -0.281318 0.351713
0.375730 -0.283403 0.346921
0.373607 -0.284442 0.344257
0.371504 -0.286514 0.339499
0.369411 -0.288575 0.334763
0.367307 -0.289603 0.332128
0.365230 -0.291650 0.327425
0.363138 -0.292670 0.324808
0.361078 -0.294704 0.320137
0.359027 -0.296728 0.315488
0.356955 -0.297737 0.312899
0.354920 -0.299748 0.308282
0.352859 -0.300750 0.305710
0.350802 -0.301749 0.303144
0.348750 -0.302747 0.300583
0.346746 -0.304734 0.296020
0.344705 -0.305725 0.293476
0.342670 -0.306714 0.290938
0.340688 -0.308684 0.286417
0.338663 -0.309666 0.283895
0.336536 -0.308684 0.285340
0.334460 -0.308684 0.284802
0.332383 -0.308684 0.284264
0.330307 -0.308684 0.283725
0.328294 -0.309666 0.281206
0.326155 -0.308684 0.282649
0.323943 -0.306714 0.286082
0.321862 -0.306714 0.285543
0.319709 -0.305725 0.286994
0.317550 -0.304734 0.288450
0.315387 -0.303742 0.289908
0.313299 -0.303742 0.289367
0.311045 -0.301749 0.292835
0.308867 -0.300750 0.294303
0.306684 -0.299748 0.295775
0.304405 -0.297737 0.299273
0.302209 -0.296728 0.300756
0.299912 -0.294704 0.304277
0.297605 -0.292670 0.307815
0.295389 -0.291650 0.309316
0.292958 -0.288575 0.314939
0.290293 -0.283403 0.324768
0.287710 -0.279222 0.332601
0.399189 -0.266063 0.393323
0.396978 -0.268223 0.388344
0.394779 -0.270374 0.383388
0.392589 -0.272514 0.378455
0.390410 -0.274645 0.373545
0.388249 -0.274645 0.372984
0.386085 -0.276765 0.368099
0.383931 -0.278876 0.363236
0.381783 -0.279927 0.360534
0.379646 -0.282024 0.355705
0.377511 -0.283068 0.353022
0.375392 -0.285149 0.348227
0.373282 -0.287221 0.343455
0.371167 -0.288254 0.340801
0.369074 -0.290311 0.336062
0.366971 -0.291337 0.333425
0.364895 -0.293380 0.328719
0.362803 -0.294399 0.326100
0.360744 -0.296428 0.321427
0.358694 -0.298449 0.316775
0.356621 -0.299456 0.314184
0.354554 -0.300460 0.311599
0.352527 -0.302462 0.306991
0.350471 -0.303460 0.304423
0.348419 -0.304455 0.301861
0.346415 -0.306439 0.297295
0.344375 -0.307428 0.294750
0.342340 -0.308415 0.292210
0.340359 -0.310381 0.287686
0.338335 -0.311361 0.285163
0.336206 -0.310381 0.286609
0.334130 -0.310381 0.286071
0.332054 -0.310381 0.285533
0.329978 -0.310381 0.284994
0.327902 -0.310381 0.284456
0.325826 -0.310381 0.283918
0.323682 -0.309399 0.285365
0.321532 -0.308415 0.286815
0.319378 -0.307428 0.288268
0.317219 -0.306439 0.289725
0.315056 -0.305449 0.291184
0.312968 -0.305449 0.290643
0.310713 -0.303460 0.294114
0.308535 -0.302462 0.295584
0.306351 -0.301462 0.297057
0.304072 -0.299456 0.300558
0.301876 -0.298449 0.302042
0.299578 -0.296428 0.305567
0.297270 -0.294399 0.309107
0.295053 -0.293380 0.310609
0.292621 -0.290311 0.316238
0.289954 -0.285149 0.326074
0.287370 -0.280977 0.333913
0.398843 -0.267846 0.394657
0.396633 -0.270002 0.389674
0.394423 -0.273218 0.382525
0.392246 -0.274285 0.379779
0.390073 -0.275349 0.377039
0.387906 -0.276411 0.374305
0.385743 -0.278528 0.369417
0.383590 -0.280634 0.364550
0.381443 -0.281684 0.361847
0.379307 -0.283776 0.357016
0.377172 -0.284818 0.354331
0.375053 -0.286896 0.349533
0.372944 -0.288964 0.344757
0.370829 -0.289994 0.342102
0.368737 -0.292048 0.337360
0.366634 -0.293071 0.334722
0.364559 -0.295111 0.330013
0.362468 -0.296127 0.327392
0.360410 -0.298153 0.322716
0.358360 -0.300169 0.318061
0.356288 -0.301174 0.315469
0.354221 -0.302177 0.312883
0.352195 -0.304175 0.308271
0.350139 -0.305171 0.305702
0.348088 -0.306164 0.303139
0.346041 -0.307155 0.300581
0.344045 -0.309131 0.296023
0.342010 -0.310116 0.293482
0.339979 -0.311098 0.290947
0.338006 -0.313056 0.286430
0.335932 -0.313056 0.285893
0.333858 -0.313056 0.285355
0.331785 -0.313056 0.284817
0.329649 -0.312078 0.286264
0.327573 -0.312078 0.285725
0.325497 -0.312078 0.285187
0.323352 -0.311098 0.286635
0.321274 -0.311098 0.286096
0.319048 -0.309131 0.289541
0.316889 -0.308144 0.290999
0.314803 -0.308144 0.290459
0.312637 -0.307155 0.291919
0.310382 -0.305171 0.295393
0.308203 -0.304175 0.296864
0.306019 -0.303177 0.298339
0.303738 -0.301174 0.301843
0.301542 -0.300169 0.303328
0.299243 -0.298153 0.306856
0.296934 -0.296127 0.310400
0.294718 -0.295111 0.311903
0.292179 -0.291022 0.319606
0.289616 -0.286896 0.327379
0.286916 -0.281684 0.337337
0.398497 -0.269629 0.395990
0.396275 -0.272854 0.388802
0.394079 -0.274991 0.383851
0.391911 -0.274991 0.383288
0.389731 -0.277118 0.378361
0.387560 -0.279235 0.373457
0.385401 -0.280290 0.370735
0.383249 -0.282393 0.365865
0.381102 -0.283440 0.363161
0.378967 -0.285528 0.358326
0.376833 -0.286568 0.355639
0.374715 -0.288642 0.350839
0.372607 -0.290706 0.346060
0.370492 -0.291734 0.343403
0.368401 -0.293784 0.338658
0.366298 -0.294805 0.336019
0.364224 -0.296841 0.331307
0.362159 -0.298867 0.326616
0.360075 -0.299877 0.324006
0.358027 -0.301890 0.319348
0.355955 -0.302893 0.316754
0.353888 -0.303893 0.314167
0.351863 -0.305887 0.309552
0.349807 -0.306881 0.306981
0.347756 -0.307873 0.304416
0.345710 -0.308862 0.301857
0.343715 -0.310834 0.297296
0.341680 -0.311817 0.294754
0.339650 -0.312797 0.292217
0.337677 -0.314752 0.287698
0.335603 -0.314752 0.287160
0.333530 -0.314752 0.286623
0.331456 -0.314752 0.286085
0.329320 -0.313776 0.287533
0.327244 -0.313776 0.286994
0.325168 -0.313776 0.286456
0.323092 -0.313776 0.285918
0.320944 -0.312797 0.287367
0.318718 -0.310834 0.290815
0.316558 -0.309849 0.292274
0.314473 -0.309849 0.291734
0.312306 -0.308862 0.293196
0.310050 -0.306881 0.296672
0.307871 -0.305887 0.298145
0.305686 -0.304891 0.299621
0.303497 -0.303893 0.301100
0.301208 -0.301890 0.304615
0.298909 -0.299877 0.308145
0.296700 -0.298867 0.309643
0.294382 -0.296841 0.313197
0.291842 -0.292760 0.320906
0.289277 -0.288642 0.328685
0.286576 -0.283440 0.338650
0.398136 -0.272488 0.395109
0.395930 -0.274631 0.390131
0.393746 -0.275698 0.387369
0.391567 -0.276764 0.384614
0.389388 -0.278887 0.379684
0.387218 -0.281000 0.374777
0.385059 -0.282053 0.372052
0.382908 -0.284151 0.367180
0.380761 -0.285197 0.364474
0.378627 -0.287280 0.359636
0.376503 -0.289355 0.354821
0.374376 -0.290388 0.352144
0.372269 -0.292448 0.347363
0.370155 -0.293474 0.344704
0.368064 -0.295520 0.339956
0.365962 -0.296539 0.337315
0.363888 -0.298571 0.332601
0.361824 -0.300594 0.327907
0.359741 -0.301601 0.325295
0.357662 -0.302607 0.322689
0.355622 -0.304611 0.318039
0.353555 -0.305610 0.315450
0.351493 -0.306606 0.312867
0.349476 -0.308592 0.308260
0.347425 -0.309582 0.305694
0.345379 -0.310569 0.303134
0.343338 -0.311554 0.300579
0.341350 -0.313518 0.296026
0.339321 -0.314497 0.293488
0.337295 -0.315473 0.290955
0.335275 -0.316447 0.288428
0.333201 -0.316447 0.287890
0.331127 -0.316447 0.287353
0.328991 -0.315473 0.288802
0.326915 -0.315473 0.288264
0.324906 -0.316447 0.285740
0.322763 -0.315473 0.287187
0.320615 -0.314497 0.288637
0.318462 -0.313518 0.290091
0.316305 -0.312537 0.291548
0.314142 -0.311554 0.293008
0.311975 -0.310569 0.294472
0.309803 -0.309582 0.295939
0.307539 -0.307600 0.299426
0.305354 -0.306606 0.300903
0.303164 -0.305610 0.302384
0.300875 -0.303610 0.305901
0.298575 -0.301601 0.309435
0.296365 -0.300594 0.310934
0.294047 -0.298571 0.314491
0.291504 -0.294498 0.322205
0.288828 -0.289355 0.332087
0.286121 -0.284151 0.342084
0.397775 -0.275339 0.394229
0.395599 -0.275339 0.393665
0.393402 -0.277473 0.388696
0.391223 -0.278536 0.385940
0.389045 -0.280655 0.381006
0.386876 -0.282764 0.376096
0.384718 -0.283815 0.373370
0.382567 -0.285909 0.368495
0.380421 -0.286953 0.365787
0.378287 -0.289033 0.360946
0.376164 -0.291103 0.356128
0.374038 -0.292134 0.353450
0.371931 -0.294190 0.348666
0.369817 -0.295215 0.346006
0.367727 -0.297256 0.341255
0.365626 -0.298274 0.338612
0.363553 -0.300301 0.333894
0.361489 -0.302320 0.329198
0.359407 -0.303326 0.326584
0.357328 -0.304329 0.323977
0.355289 -0.306329 0.319324
0.353222 -0.307326 0.316734
0.351161 -0.308321 0.314149
0.349144 -0.310303 0.309540
0.347094 -0.311290 0.306972
0.345048 -0.312276 0.304410
0.343008 -0.313259 0.301854
0.341020 -0.315219 0.297298
0.338991 -0.316196 0.294758
0.336966 -0.317170 0.292224
0.335001 -0.319113 0.287710
0.332872 -0.318143 0.289158
0.330798 -0.318143 0.288621
0.328662 -0.317170 0.290071
0.326586 -0.317170 0.289533
0.324510 -0.317170 0.288994
0.322434 -0.317170 0.288456
0.320285 -0.316196 0.289908
0.318132 -0.315219 0.291363
0.315974 -0.314240 0.292822
0.313812 -0.313259 0.294283
0.311644 -0.312276 0.295748
0.309471 -0.311290 0.297217
0.307206 -0.309313 0.300706
0.305022 -0.308321 0.302185
0.302832 -0.307326 0.303668
0.300541 -0.305331 0.307188
0.298240 -0.303326 0.310724
0.296030 -0.302320 0.312225
0.293711 -0.300301 0.315785
0.291060 -0.295215 0.325584
0.288489 -0.291103 0.333394
0.285780 -0.285909 0.343399
0.397445 -0.276050 0.397772
0.395254 -0.277119 0.394995
0.393058 -0.279248 0.390023
0.390872 -0.281368 0.385075
0.388702 -0.282424 0.382329
0.386534 -0.284529 0.377416
0.384376 -0.285578 0.374688
0.382226 -0.287668 0.369810
0.380086 -0.289748 0.364954
0.377948 -0.290785 0.362257
0.375825 -0.292851 0.357435
0.373699 -0.293881 0.354756
0.371593 -0.295932 0.349968
0.369480 -0.296955 0.347307
0.367391 -0.298993 0.342553
0.365312 -0.301021 0.337821
0.363217 -0.302032 0.335188
0.361128 -0.303040 0.332562
0.359072 -0.305050 0.327874
0.356995 -0.306052 0.325265
0.354922 -0.307051 0.322661
0.352889 -0.309043 0.318017
0.350828 -0.310035 0.315431
0.348772 -0.311025 0.312851
0.346763 -0.312999 0.308250
0.344717 -0.313983 0.305686
0.342677 -0.314964 0.303129
0.340691 -0.316920 0.298570
0.338662 -0.317895 0.296029
0.336637 -0.318868 0.293493
0.334617 -0.319838 0.290964
0.332602 -0.320806 0.288440
0.330470 -0.319838 0.289888
0.328396 -0.319838 0.289351
0.326257 -0.318868 0.290802
0.324181 -0.318868 0.290264
0.322105 -0.318868 0.289725
0.319956 -0.317895 0.291179
0.317803 -0.316920 0.292635
0.315722 -0.316920 0.292096
0.313481 -0.314964 0.295558
0.311313 -0.313983 0.297025
0.309140 -0.312999 0.298494
0.306962 -0.312014 0.299967
0.304689 -0.310035 0.303467
0.302499 -0.309043 0.304951
0.300208 -0.307051 0.308474
0.297906 -0.305050 0.312014
0.295696 -0.304046 0.313516
0.293271 -0.301021 0.319141
0.290723 -0.296955 0.326885
0.288150 -0.292851 0.334702
0.397099 -0.277831 0.399104
0.394909 -0.278898 0.396326
0.392714 -0.281023 0.391351
0.390529 -0.283139 0.386399
0.388359 -0.284193 0.383652
0.386192 -0.286293 0.378735
0.384034 -0.287340 0.376006
0.381885 -0.289426 0.371125
0.379746 -0.291503 0.366266
0.377608 -0.292537 0.363567
0.375486 -0.294599 0.358743
0.373360 -0.295627 0.356062
0.371255 -0.297675 0.351271
0.369142 -0.298695 0.348608
0.367054 -0.300729 0.343851
0.364976 -0.302753 0.339116
0.362882 -0.303762 0.336482
0.360793 -0.304768 0.333854
0.358738 -0.306774 0.329163
0.356661 -0.307774 0.326553
0.354588 -0.308771 0.323948
0.352557 -0.310759 0.319301
0.350496 -0.311750 0.316713
0.348440 -0.312738 0.314131
0.346388 -0.313724 0.311556
0.344387 -0.315690 0.306963
0.342346 -0.316669 0.304403
0.340311 -0.317646 0.301850
0.338332 -0.319594 0.297299
0.336308 -0.320565 0.294763
0.334288 -0.321533 0.292231
0.332273 -0.322500 0.289706
0.330141 -0.321533 0.291156
0.328067 -0.321533 0.290618
0.325928 -0.320565 0.292071
0.323852 -0.320565 0.291533
0.321776 -0.320565 0.290994
0.319699 -0.320565 0.290456
0.317548 -0.319594 0.291910
0.315392 -0.318621 0.293368
0.313231 -0.317646 0.294828
0.310982 -0.315690 0.298301
0.308809 -0.314708 0.299772
0.306631 -0.313724 0.301247
0.304357 -0.311750 0.304749
0.302166 -0.310759 0.306235
0.299874 -0.308771 0.309761
0.297572 -0.306774 0.313303
0.295361 -0.305773 0.314806
0.292935 -0.302753 0.320436
0.290385 -0.298695 0.328187
0.287699 -0.293569 0.338115
0.398966 -0.277476 0.405450
0.396754 -0.279612 0.400436
0.394552 -0.281739 0.395446
0.392370 -0.282798 0.392678
0.390186 -0.284909 0.387723
0.388012 -0.287011 0.382792
0.385850 -0.288058 0.380055
0.383694 -0.290145 0.375158
0.381544 -0.291185 0.372440
0.379405 -0.293257 0.367578
0.377277 -0.295320 0.362738
0.375147 -0.296348 0.360050
0.373022 -0.297373 0.357367
0.370918 -0.299417 0.352574
0.368805 -0.300435 0.349909
0.366697 -0.301451 0.347251
0.364617 -0.303476 0.342503
0.362521 -0.304486 0.339862
0.360430 -0.305492 0.337227
0.358374 -0.307499 0.332523
0.356294 -0.308499 0.329906
0.354220 -0.309496 0.327294
0.352187 -0.311485 0.322634
0.350124 -0.312476 0.320040
0.348066 -0.313464 0.317451
0.346056 -0.315435 0.312835
0.344056 -0.317397 0.308239
0.341968 -0.317397 0.307697
0.339981 -0.319349 0.303124
0.337950 -0.320322 0.300574
0.335924 -0.321293 0.298031
0.333960 -0.323229 0.293499
0.331886 -0.323229 0.292961
0.329812 -0.323229 0.292424
0.327738 -0.323229 0.291886
0.325665 -0.323229 0.291348
0.323523 -0.322262 0.292802
0.321446 -0.322262 0.292264
0.319297 -0.321293 0.293720
0.317219 -0.321293 0.293181
0.315062 -0.320322 0.294640
0.312820 -0.318374 0.298108
0.310735 -0.318374 0.297567
0.308478 -0.316417 0.301050
0.306299 -0.315435 0.302526
0.304115 -0.314451 0.304005
0.301833 -0.312476 0.307518
0.299637 -0.311485 0.309008
0.297337 -0.309496 0.312545
0.295026 -0.307499 0.316097
0.292600 -0.304486 0.321731
0.290048 -0.300435 0.329488
0.287472 -0.296348 0.337316
0.398604 -0.280329 0.404556
0.396409 -0.281393 0.401768
0.394208 -0.283515 0.396775
0.392026 -0.284573 0.394005
0.389842 -0.286680 0.389047
0.387669 -0.288777 0.384113
0.385508 -0.289822 0.381374
0.383352 -0.291905 0.376475
0.381203 -0.292943 0.373754
0.379065 -0.295011 0.368890
0.376937 -0.297070 0.364047
0.374808 -0.298096 0.361357
0.372697 -0.300140 0.356549
0.370580 -0.301159 0.353877
0.368467 -0.302175 0.351211
0.366360 -0.303190 0.348551
0.364281 -0.305211 0.343799
0.362185 -0.306218 0.341157
0.360094 -0.307223 0.338521
0.358039 -0.309225 0.333814
0.355960 -0.310223 0.331195
0.353886 -0.311219 0.328582
0.351854 -0.313203 0.323919
0.349791 -0.314192 0.321323
0.347734 -0.315179 0.318734
0.345681 -0.316163 0.316150
0.343678 -0.318126 0.311541
0.341637 -0.319103 0.308974
0.339600 -0.320079 0.306412
0.337620 -0.322024 0.301846
0.335595 -0.322993 0.299302
0.333631 -0.324924 0.294767
0.331557 -0.324924 0.294229
0.329484 -0.324924 0.293691
0.327410 -0.324924 0.293154
0.325336 -0.324924 0.292616
0.323262 -0.324924 0.292078
0.321117 -0.323959 0.293533
0.319041 -0.323959 0.292994
0.316889 -0.322993 0.294451
0.314732 -0.322024 0.295912
0.312489 -0.320079 0.299383
0.310404 -0.320079 0.298842
0.308146 -0.318126 0.302328
0.305967 -0.317146 0.303805
0.303783 -0.316163 0.305286
0.301500 -0.314192 0.308802
0.299304 -0.313203 0.310293
0.297003 -0.311219 0.313833
0.294691 -0.309225 0.317388
0.292264 -0.306218 0.323027
0.289710 -0.302175 0.330789
0.287133 -0.298096 0.338623
0.398258 -0.282112 0.405890
0.396063 -0.283175 0.403100
0.393863 -0.285292 0.398103
0.391673 -0.287400 0.393130
0.389499 -0.288451 0.390371
0.387327 -0.290544 0.385434
0.385165 -0.291587 0.382694
0.383011 -0.293666 0.377791
0.380862 -0.294701 0.375069
0.378725 -0.296766 0.370201
0.376589 -0.297794 0.367498
0.374469 -0.299844 0.362664
0.372359 -0.301885 0.357853
0.370225 -0.301885 0.357300
0.368130 -0.303916 0.352512
0.366023 -0.304928 0.349851
0.363921 -0.305937 0.347195
0.361849 -0.307950 0.342452
0.359759 -0.308953 0.339815
0.357673 -0.309953 0.337183
0.355626 -0.311948 0.332484
0.353552 -0.312941 0.329870
0.351483 -0.313933 0.327262
0.349459 -0.315909 0.322607
0.347401 -0.316894 0.320016
0.345348 -0.317876 0.317430
0.343347 -0.319834 0.312819
0.341306 -0.320810 0.310250
0.339269 -0.321784 0.307687
0.337291 -0.323725 0.303118
0.335265 -0.324692 0.300572
0.333245 -0.325657 0.298032
0.331229 -0.326619 0.295497
0.329155 -0.326619 0.294959
0.327081 -0.326619 0.294421
0.325007 -0.326619 0.293884
0.322934 -0.326619 0.293346
0.320788 -0.325657 0.294802
0.318712 -0.325657 0.294264
0.316560 -0.324692 0.295722
0.314403 -0.323725 0.297184
0.312159 -0.321784 0.300658
0.310073 -0.321784 0.300117
0.307815 -0.319834 0.303605
0.305636 -0.318856 0.305084
0.303451 -0.317876 0.306566
0.301262 -0.316894 0.308052
0.298971 -0.314922 0.311578
0.296669 -0.312941 0.315121
0.294357 -0.310952 0.318679
0.291928 -0.307950 0.324322
0.289373 -0.303916 0.332090
0.286681 -0.298820 0.342041
0.397912 -0.283895 0.407223
0.395718 -0.284956 0.404432
0.393519 -0.287069 0.399432
0.391329 -0.289173 0.394456
0.389156 -0.290222 0.391695
0.386984 -0.292311 0.386755
0.384823 -0.293352 0.384013
0.382670 -0.295426 0.379107
0.380521 -0.296460 0.376384
0.378385 -0.298520 0.371513
0.376259 -0.300571 0.366665
0.374130 -0.301592 0.363972
0.372006 -0.302612 0.361285
0.369887 -0.303629 0.358604
0.367793 -0.305656 0.353813
0.365686 -0.306666 0.351150
0.363584 -0.307674 0.348494
0.361513 -0.309682 0.343748
0.359423 -0.310683 0.341108
0.357338 -0.311682 0.338475
0.355291 -0.313672 0.333774
0.353218 -0.314664 0.331158
0.351149 -0.315653 0.328548
0.349126 -0.317625 0.323891
0.347069 -0.318608 0.321298
0.345016 -0.319589 0.318711
0.343016 -0.321543 0.314096
0.340975 -0.322517 0.311526
0.338939 -0.323489 0.308962
0.336907 -0.324458 0.306404
0.334936 -0.326391 0.301843
0.332916 -0.327354 0.299301
0.330900 -0.328315 0.296765
0.328826 -0.328315 0.296227
0.326752 -0.328315 0.295689
0.324679 -0.328315 0.295152
0.322605 -0.328315 0.294614
0.320459 -0.327354 0.296071
0.318383 -0.327354 0.295533
0.316230 -0.326391 0.296993
0.314073 -0.325426 0.298456
0.311828 -0.323489 0.301933
0.309743 -0.323489 0.301392
0.307571 -0.322517 0.302865
0.305304 -0.320567 0.306363
0.303119 -0.319589 0.307847
0.300930 -0.318608 0.309334
0.298638 -0.316640 0.312863
0.296335 -0.314664 0.316409
0.294022 -0.312678 0.319970
0.291592 -0.309682 0.325617
0.288925 -0.304644 0.335485
0.286228 -0.299546 0.345466
0.397567 -0.285678 0.408557
0.395360 -0.287793 0.403541
0.393174 -0.288846 0.400761
0.390986 -0.290946 0.395781
0.388812 -0.291992 0.393020
0.386642 -0.294077 0.388076
0.384481 -0.295116 0.385332
0.382328 -0.297187 0.380424
0.380180 -0.298218 0.377699
0.378045 -0.300274 0.372825
0.375919 -0.302321 0.367974
0.373791 -0.303341 0.365279
0.371668 -0.304358 0.362590
0.369549 -0.305373 0.359908
0.367455 -0.307396 0.355114
0.365349 -0.308404 0.352450
0.363247 -0.309410 0.349792
0.361178 -0.311415 0.345043
0.359088 -0.312413 0.342402
0.357003 -0.313410 0.339768
0.354957 -0.315396 0.335063
0.352884 -0.316386 0.332446
0.350816 -0.317374 0.329835
0.348752 -0.318359 0.327229
0.346736 -0.320323 0.322580
0.344684 -0.321301 0.319992
0.342637 -0.322278 0.317409
0.340644 -0.324224 0.312803
0.338608 -0.325194 0.310237
0.336577 -0.326161 0.307677
0.334606 -0.328090 0.303113
0.332587 -0.329051 0.300570
0.330571 -0.330010 0.298032
0.328434 -0.329051 0.299493
0.326424 -0.330010 0.296957
0.324350 -0.330010 0.296419
0.322276 -0.330010 0.295882
0.320130 -0.329051 0.297340
0.318054 -0.329051 0.296802
0.315978 -0.329051 0.296264
0.313743 -0.327127 0.299728
0.311580 -0.326161 0.301196
0.309412 -0.325194 0.302667
0.307240 -0.324224 0.304141
0.304972 -0.322278 0.307643
0.302787 -0.321301 0.309128
0.300502 -0.319342 0.312652
0.298304 -0.318359 0.314148
0.296001 -0.316386 0.317696
0.293687 -0.314404 0.321261
0.291149 -0.310413 0.328989
0.288588 -0.306386 0.336787
0.285888 -0.301299 0.346776
0.397221 -0.287462 0.409890
0.395015 -0.289572 0.404872
0.392830 -0.290623 0.402090
0.390642 -0.292719 0.397107
0.388469 -0.293763 0.394344
0.386299 -0.295844 0.389397
0.384139 -0.296881 0.386652
0.381987 -0.298947 0.381740
0.379845 -0.301004 0.376851
0.377705 -0.302029 0.374137
0.375569 -0.303051 0.371429
0.373439 -0.304071 0.368727
0.371329 -0.306104 0.363896
0.369211 -0.307117 0.361213
0.367098 -0.308128 0.358535
0.365012 -0.310142 0.353750
0.362911 -0.311146 0.351090
0.360814 -0.312148 0.348436
0.358752 -0.314144 0.343696
0.356668 -0.315138 0.341060
0.354588 -0.316131 0.338430
0.352550 -0.318108 0.333734
0.350482 -0.319094 0.331121
0.348419 -0.320077 0.328514
0.346404 -0.322037 0.323862
0.344352 -0.323014 0.321272
0.342305 -0.323988 0.318688
0.340313 -0.325931 0.314079
0.338278 -0.326899 0.311512
0.336247 -0.327864 0.308951
0.334277 -0.329789 0.304384
0.332257 -0.330749 0.301839
0.330242 -0.331706 0.299300
0.328105 -0.330749 0.300763
0.326029 -0.330749 0.300224
0.324021 -0.331706 0.297687
0.321947 -0.331706 0.297149
0.319874 -0.331706 0.296612
0.317725 -0.330749 0.298071
0.315649 -0.330749 0.297533
0.313413 -0.328828 0.301000
0.311250 -0.327864 0.302469
0.308996 -0.325931 0.305959
0.306909 -0.325931 0.305417
0.304640 -0.323988 0.308922
0.302455 -0.323014 0.310408
0.300265 -0.322037 0.311898
0.297971 -0.320077 0.315433
0.295667 -0.318108 0.318984
0.293353 -0.316131 0.322552
0.290813 -0.312148 0.330285
0.288250 -0.308128 0.338090
0.285434 -0.302029 0.350211
0.396875 -0.289245 0.411224
0.394670 -0.291351 0.406202
0.392485 -0.292400 0.403418
0.390298 -0.294492 0.398433
0.388126 -0.295534 0.395668
0.385957 -0.297610 0.390718
0.383797 -0.298645 0.387971
0.381646 -0.300707 0.383056
0.379504 -0.302760 0.378164
0.377364 -0.303783 0.375449
0.375230 -0.304803 0.372739
0.373100 -0.305821 0.370036
0.370990 -0.307850 0.365202
0.368873 -0.308861 0.362517
0.366760 -0.309870 0.359838
0.364675 -0.311881 0.355050
0.362574 -0.312882 0.352388
0.360478 -0.313882 0.349733
0.358417 -0.315874 0.344990
0.356333 -0.316866 0.342352
0.354254 -0.317857 0.339721
0.352216 -0.319831 0.335022
0.350149 -0.320814 0.332408
0.348086 -0.321796 0.329799
0.346028 -0.322775 0.327197
0.344020 -0.324727 0.322553
0.341974 -0.325699 0.319967
0.339982 -0.327638 0.315355
0.337947 -0.328604 0.312787
0.335971 -0.330529 0.308206
0.333948 -0.331488 0.305655
0.331928 -0.332446 0.303108
0.329914 -0.333401 0.300568
0.327776 -0.332446 0.302032
0.325700 -0.332446 0.301493
0.323692 -0.333401 0.298955
0.321619 -0.333401 0.298417
0.319545 -0.333401 0.297879
0.317471 -0.333401 0.297342
0.315320 -0.332446 0.298802
0.313083 -0.330529 0.302272
0.310920 -0.329567 0.303742
0.308751 -0.328604 0.305216
0.306578 -0.327638 0.306694
0.304399 -0.326670 0.308174
0.302123 -0.324727 0.311689
0.299932 -0.323752 0.313180
0.297638 -0.321796 0.316718
0.295333 -0.319831 0.320272
0.293018 -0.317857 0.323843
0.290477 -0.313882 0.331582
0.287801 -0.308861 0.341495
0.396529 -0.291028 0.412557
0.394325 -0.293130 0.407532
0.392140 -0.294177 0.404747
0.389954 -0.296265 0.399758
0.387782 -0.297304 0.396992
0.385614 -0.299377 0.392039
0.383455 -0.300410 0.389291
0.381304 -0.302468 0.384373
0.379164 -0.304517 0.379478
0.377024 -0.305537 0.376760
0.374890 -0.306556 0.374049
0.372760 -0.307572 0.371345
0.370636 -0.308585 0.368646
0.368534 -0.310606 0.363821
0.366422 -0.311612 0.361141
0.364314 -0.312617 0.358466
0.362237 -0.314619 0.353687
0.360142 -0.315616 0.351030
0.358051 -0.316611 0.348379
0.355998 -0.318595 0.343645
0.353919 -0.319583 0.341012
0.351845 -0.320569 0.338385
0.349815 -0.322535 0.333694
0.347753 -0.323514 0.331084
0.345695 -0.324492 0.328480
0.343688 -0.326439 0.323833
0.341691 -0.328378 0.319207
0.339651 -0.329345 0.316632
0.337616 -0.330309 0.314062
0.335586 -0.331270 0.311497
0.333618 -0.333188 0.306925
0.331540 -0.333188 0.306386
0.329585 -0.335096 0.301836
0.327447 -0.334143 0.303301
0.325371 -0.334143 0.302763
0.323295 -0.334143 0.302224
0.321290 -0.335096 0.299685
0.319216 -0.335096 0.299147
0.317142 -0.335096 0.298609
0.314991 -0.334143 0.300071
0.312834 -0.333188 0.301536
0.310589 -0.331270 0.305016
0.308421 -0.330309 0.306491
0.306247 -0.329345 0.307970
0.304068 -0.328378 0.309452
0.301791 -0.326439 0.312970
0.299600 -0.325467 0.314462
0.297305 -0.323514 0.318003
0.294999 -0.321553 0.321560
0.292683 -0.319583 0.325133
0.290140 -0.315616 0.332879
0.287462 -0.310606 0.342799
0.396184 -0.292811 0.413890
0.393980 -0.294909 0.408863
0.391796 -0.295954 0.406076
0.389611 -0.298037 0.401084
0.387439 -0.299075 0.398316
0.385272 -0.301144 0.393360
0.383114 -0.303203 0.388426
0.380963 -0.304228 0.385689
0.378816 -0.305252 0.382958
0.376675 -0.306273 0.380234
0.374550 -0.308308 0.375360
0.372421 -0.309322 0.372653
0.370297 -0.310334 0.369953
0.368196 -0.312350 0.365125
0.366084 -0.313355 0.362443
0.363977 -0.314357 0.359767
0.361901 -0.316355 0.354985
0.359806 -0.317350 0.352327
0.357715 -0.318343 0.349675
0.355663 -0.320323 0.344937
0.353584 -0.321310 0.342302
0.351510 -0.322294 0.339674
0.349481 -0.324255 0.334980
0.347419 -0.325233 0.332369
0.345362 -0.326208 0.329764
0.343356 -0.328152 0.325114
0.341310 -0.329121 0.322526
0.339320 -0.331051 0.317908
0.337286 -0.332013 0.315337
0.335256 -0.332973 0.312771
0.333231 -0.333931 0.310211
0.331210 -0.334887 0.307657
0.329194 -0.335840 0.305108
0.327118 -0.335840 0.304570
0.325042 -0.335840 0.304032
0.322966 -0.335840 0.303493
0.320890 -0.335840 0.302955
0.318814 -0.335840 0.302417
0.316738 -0.335840 0.301879
0.314662 -0.335840 0.301340
0.312505 -0.334887 0.302807
0.310259 -0.332973 0.306289
0.308090 -0.332013 0.307766
0.305916 -0.331051 0.309246
0.303737 -0.330087 0.310730
0.301553 -0.329121 0.312217
0.299267 -0.327181 0.315745
0.296972 -0.325233 0.319288
0.294665 -0.323276 0.322848
0.292348 -0.321310 0.326424
0.289695 -0.316355 0.336262
0.287124 -0.312350 0.344104
0.395838 -0.294595 0.415224
0.393635 -0.296688 0.410193
0.391451 -0.297731 0.407404
0.389267 -0.299810 0.402410
0.387096 -0.300846 0.399640
0.384929 -0.302910 0.394681
0.382773 -0.304965 0.389744
0.380622 -0.305989 0.387006
0.378476 -0.307010 0.384273
0.376334 -0.308029 0.381547
0.374210 -0.310060 0.376670
0.372082 -0.311072 0.373962
0.369958 -0.312082 0.371261
0.367858 -0.314094 0.366430
0.365746 -0.315097 0.363746
0.363640 -0.316097 0.361069
0.361564 -0.318091 0.356283
0.359469 -0.319084 0.353624
0.357379 -0.320076 0.350970
0.355294 -0.321065 0.348323
0.353250 -0.323036 0.343593
0.351176 -0.324018 0.340963
0.349107 -0.324998 0.338339
0.347086 -0.326951 0.333654
0.345029 -0.327925 0.331047
0.343024 -0.329865 0.326395
0.340979 -0.330831 0.323805
0.338938 -0.331796 0.321221
0.336955 -0.333718 0.316611
0.334926 -0.334676 0.314044
0.332901 -0.335632 0.311483
0.330881 -0.336586 0.308927
0.328865 -0.337538 0.306378
0.326789 -0.337538 0.305839
0.324713 -0.337538 0.305301
0.322637 -0.337538 0.304763
0.320561 -0.337538 0.304224
0.318485 -0.337538 0.303686
0.316409 -0.337538 0.303148
0.314333 -0.337538 0.302609
0.312175 -0.336586 0.304077
0.309929 -0.334676 0.307563
0.307759 -0.333718 0.309041
0.305585 -0.332758 0.310523
0.303406 -0.331796 0.312008
0.301221 -0.330831 0.313496
0.298935 -0.328896 0.317027
0.296638 -0.326951 0.320573
0.294331 -0.324998 0.324136
0.291908 -0.322051 0.329785
0.289359 -0.318091 0.337561
0.286786 -0.314094 0.345408
0.395492 -0.296378 0.416557
0.393290 -0.298467 0.411523
0.391107 -0.299508 0.408733
0.388923 -0.301583 0.403735
0.386752 -0.302617 0.400964
0.384587 -0.304677 0.396002
0.382428 -0.305703 0.393249
0.380280 -0.307749 0.388322
0.378135 -0.308769 0.385588
0.375994 -0.309786 0.382861
0.373858 -0.310800 0.380139
0.371742 -0.312822 0.375271
0.369619 -0.313830 0.372568
0.367500 -0.314835 0.369871
0.365409 -0.316839 0.365049
0.363302 -0.317837 0.362370
0.361201 -0.318833 0.359697
0.359133 -0.320819 0.354920
0.357043 -0.321808 0.352265
0.354959 -0.322795 0.349616
0.352915 -0.324762 0.344884
0.350842 -0.325742 0.342253
0.348774 -0.326720 0.339627
0.346710 -0.327696 0.337008
0.344696 -0.329641 0.332331
0.342692 -0.331577 0.327675
0.340647 -0.332542 0.325084
0.338606 -0.333505 0.322499
0.336571 -0.334465 0.319919
0.334596 -0.336379 0.315318
0.332571 -0.337334 0.312755
0.330551 -0.338285 0.310198
0.328536 -0.339235 0.307647
0.326460 -0.339235 0.307108
0.324384 -0.339235 0.306570
0.322308 -0.339235 0.306032
0.320232 -0.339235 0.305493
0.318156 -0.339235 0.304955
0.316079 -0.339235 0.304417
0.314003 -0.339235 0.303879
0.311846 -0.338285 0.305348
0.309599 -0.336379 0.308836
0.307429 -0.335423 0.310316
0.305254 -0.334465 0.311799
0.303074 -0.333505 0.313285
0.300795 -0.331577 0.316812
0.298603 -0.330610 0.318309
0.296305 -0.328670 0.321858
0.293997 -0.326720 0.325424
0.291573 -0.323780 0.331077
0.289022 -0.319827 0.338859
0.286335 -0.314835 0.348825
0.395146 -0.298161 0.417891
0.392946 -0.300246 0.412853
0.390762 -0.301285 0.410062
0.388580 -0.303356 0.405061
0.386409 -0.304387 0.402288
0.384244 -0.306444 0.397323
0.382086 -0.307468 0.394569
0.379939 -0.309510 0.389638
0.377794 -0.310527 0.386903
0.375653 -0.311542 0.384174
0.373518 -0.312555 0.381451
0.371403 -0.314573 0.376580
0.369280 -0.315578 0.373875
0.367162 -0.316582 0.371177
0.365071 -0.318581 0.366352
0.362965 -0.319578 0.363671
0.360864 -0.320572 0.360997
0.358797 -0.322553 0.356217
0.356708 -0.323540 0.353561
0.354623 -0.324525 0.350910
0.352543 -0.325508 0.348266
0.350507 -0.327467 0.343542
0.348440 -0.328443 0.340915
0.346376 -0.329417 0.338294
0.344364 -0.331358 0.333615
0.342312 -0.332325 0.331011
0.340315 -0.334253 0.326363
0.338275 -0.335213 0.323777
0.336240 -0.336172 0.321196
0.334209 -0.337128 0.318620
0.332241 -0.339035 0.314027
0.330222 -0.339984 0.311469
0.328207 -0.340932 0.308916
0.326131 -0.340932 0.308378
0.324055 -0.340932 0.307839
0.321979 -0.340932 0.307301
0.319903 -0.340932 0.306763
0.317826 -0.340932 0.306224
0.315750 -0.340932 0.305686
0.313674 -0.340932 0.305148
0.311516 -0.339984 0.306618
0.309269 -0.338082 0.310110
0.307098 -0.337128 0.311591
0.304923 -0.336172 0.313075
0.302743 -0.335213 0.314563
0.300558 -0.334253 0.316054
0.298270 -0.332325 0.319591
0.295972 -0.330388 0.323143
0.293663 -0.328443 0.326712
0.291238 -0.325508 0.332370
0.288575 -0.320572 0.342253
0.285996 -0.316582 0.350131
0.394801 -0.299944 0.419224
0.392601 -0.302025 0.414184
0.390418 -0.303062 0.411391
0.388236 -0.305129 0.406386
0.386064 -0.307185 0.401405
0.383902 -0.308210 0.398644
0.381744 -0.309233 0.395888
0.379592 -0.310252 0.393139
0.377453 -0.312285 0.388218
0.375313 -0.313298 0.385487
0.373178 -0.314309 0.382763
0.371048 -0.315317 0.380045
0.368941 -0.317327 0.375183
0.366823 -0.318328 0.372483
0.364710 -0.319327 0.369789
0.362627 -0.321318 0.364972
0.360527 -0.322310 0.362297
0.358431 -0.323300 0.359627
0.356372 -0.325272 0.354856
0.354288 -0.326255 0.352204
0.352208 -0.327236 0.349558
0.350134 -0.328215 0.346918
0.348106 -0.330165 0.342203
0.346043 -0.331137 0.339581
0.343985 -0.332107 0.336964
0.341980 -0.334039 0.332293
0.339933 -0.335003 0.329693
0.337944 -0.336922 0.325054
0.335909 -0.337879 0.322472
0.333878 -0.338833 0.319895
0.331852 -0.339786 0.317325
0.329892 -0.341684 0.312739
0.327878 -0.342630 0.310185
0.325802 -0.342630 0.309647
0.323726 -0.342630 0.309108
0.321650 -0.342630 0.308570
0.319573 -0.342630 0.308032
0.317497 -0.342630 0.307493
0.315421 -0.342630 0.306955
0.313265 -0.341684 0.308428
0.311187 -0.341684 0.307889
0.308938 -0.339786 0.311383
0.306768 -0.338833 0.312866
0.304592 -0.337879 0.314352
0.302412 -0.336922 0.315841
0.300226 -0.335964 0.317334
0.297938 -0.334039 0.320873
0.295639 -0.332107 0.324428
0.293329 -0.330165 0.328000
0.290795 -0.326255 0.335741
0.288238 -0.322310 0.343553
0.285543 -0.317327 0.353558
0.394455 -0.301728 0.420558
0.392256 -0.303804 0.415514
0.390073 -0.304839 0.412719
0.387892 -0.306901 0.407712
0.385722 -0.307929 0.404936
0.383559 -0.309977 0.399965
0.381402 -0.310997 0.397208
0.379250 -0.312015 0.394457
0.377103 -0.313031 0.391713
0.374972 -0.315055 0.386801
0.372838 -0.316063 0.384075
0.370708 -0.317069 0.381355
0.368602 -0.319075 0.376490
0.366484 -0.320074 0.373788
0.364372 -0.321071 0.371093
0.362290 -0.323058 0.366274
0.360190 -0.324048 0.363597
0.358094 -0.325036 0.360926
0.356003 -0.326021 0.358261
0.353952 -0.327986 0.353498
0.351873 -0.328965 0.350851
0.349799 -0.329941 0.348209
0.347730 -0.330915 0.345574
0.345709 -0.332857 0.340867
0.343651 -0.333825 0.338249
0.341647 -0.335754 0.333575
0.339601 -0.336715 0.330974
0.337559 -0.337674 0.328379
0.335578 -0.339586 0.323748
0.333548 -0.340538 0.321170
0.331522 -0.341489 0.318598
0.329563 -0.343383 0.314010
0.327485 -0.343383 0.313471
0.325539 -0.345269 0.308904
0.323397 -0.344327 0.310378
0.321320 -0.344327 0.309839
0.319171 -0.343383 0.311315
0.317093 -0.343383 0.310776
0.315014 -0.343383 0.310237
0.312936 -0.343383 0.309698
0.310857 -0.343383 0.309159
0.308608 -0.341489 0.312656
0.306437 -0.340538 0.314141
0.304261 -0.339586 0.315628
0.302080 -0.338631 0.317119
0.299894 -0.337674 0.318613
0.297605 -0.335754 0.322155
0.295306 -0.333825 0.325713
0.292995 -0.331888 0.329288
0.290460 -0.327986 0.337035
0.287901 -0.324048 0.344853
0.285089 -0.318073 0.356993
0.394098 -0.304548 0.419647
0.391911 -0.305584 0.416844
0.389729 -0.306616 0.414048
0.387548 -0.308674 0.409038
0.385379 -0.309700 0.406260
0.383215 -0.310723 0.403490
0.381060 -0.312762 0.398527
0.378908 -0.313777 0.395775
0.376771 -0.315802 0.390848
0.374632 -0.316811 0.388114
0.372497 -0.317818 0.385387
0.370368 -0.318822 0.382666
0.368244 -0.319824 0.379951
0.366146 -0.321820 0.375094
0.364034 -0.322815 0.372398
0.361926 -0.323808 0.369707
0.359852 -0.325786 0.364896
0.357757 -0.326772 0.362224
0.355667 -0.327756 0.359557
0.353581 -0.328737 0.356897
0.351538 -0.330693 0.352143
0.349464 -0.331667 0.349500
0.347395 -0.332640 0.346863
0.345331 -0.333610 0.344233
0.343318 -0.335544 0.339534
0.341265 -0.336507 0.336921
0.339217 -0.337469 0.334313
0.337174 -0.338428 0.331712
0.335191 -0.340340 0.327068
0.333159 -0.341293 0.324483
0.331132 -0.342243 0.321904
0.329109 -0.343192 0.319331
0.327155 -0.345082 0.314741
0.325143 -0.346024 0.312185
0.323136 -0.346964 0.309634
0.320991 -0.346024 0.311108
0.318915 -0.346024 0.310570
0.316763 -0.345082 0.312047
0.314685 -0.345082 0.311508
0.312606 -0.345082 0.310969
0.310528 -0.345082 0.310430
0.308278 -0.343192 0.313930
0.306107 -0.342243 0.315415
0.303930 -0.341293 0.316904
0.301842 -0.341293 0.316363
0.299563 -0.339385 0.319892
0.297273 -0.337469 0.323437
0.294972 -0.335544 0.326998
0.292662 -0.333610 0.330576
0.290125 -0.329716 0.338328
0.287453 -0.324798 0.348257
0.391566 -0.307363 0.418175
0.389384 -0.308393 0.415377
0.387205 -0.310447 0.410363
0.385036 -0.311470 0.407584
0.382874 -0.313510 0.402607
0.380718 -0.314526 0.399846
0.378567 -0.315540 0.397093
0.376430 -0.317561 0.392162
0.374279 -0.317561 0.391605
0.372157 -0.319572 0.386698
0.370028 -0.320574 0.383976
0.367905 -0.321574 0.381260
0.365807 -0.323567 0.376400
0.363696 -0.324559 0.373702
0.361589 -0.325550 0.371010
0.359487 -0.326538 0.368324
0.357389 -0.327524 0.365645
0.355331 -0.329490 0.360854
0.353245 -0.330469 0.358192
0.351165 -0.331446 0.355537
0.349089 -0.332421 0.352887
0.347018 -0.333394 0.350244
0.344997 -0.335332 0.345521
0.342938 -0.336298 0.342894
0.340883 -0.337262 0.340274
0.338885 -0.339183 0.335595
0.336842 -0.340140 0.332992
0.334803 -0.341096 0.330395
0.332770 -0.342049 0.327804
0.330801 -0.343948 0.323179
0.328779 -0.344895 0.320605
0.326761 -0.345839 0.318036
0.324747 -0.346781 0.315473
0.322738 -0.347721 0.312916
0.320662 -0.347721 0.312378
0.318586 -0.347721 0.311839
0.316510 -0.347721 0.311301
0.314355 -0.346781 0.312779
0.312277 -0.346781 0.312240
0.310198 -0.346781 0.311701
0.307948 -0.344895 0.315203
0.305776 -0.343948 0.316690
0.303599 -0.342999 0.318181
0.301511 -0.342999 0.317639
0.299231 -0.341096 0.321171
0.296940 -0.339183 0.324719
0.294639 -0.337262 0.328283
0.292328 -0.335332 0.331864
0.289680 -0.330469 0.341710
0.287115 -0.326538 0.349559
0.391221 -0.309142 0.419505
0.389040 -0.310170 0.416706
0.386861 -0.312220 0.411689
0.384692 -0.313241 0.408909
0.382529 -0.314260 0.406135
0.380376 -0.316291 0.401166
0.378225 -0.317302 0.398411
0.376079 -0.318312 0.395662
0.373951 -0.320324 0.390741
0.371817 -0.321326 0.388010
0.369689 -0.322326 0.385286
0.367565 -0.323324 0.382569
0.365469 -0.325313 0.377706
0.363357 -0.326304 0.375006
0.361251 -0.327292 0.372313
0.359149 -0.328279 0.369626
0.357084 -0.330245 0.364820
0.354994 -0.331224 0.362151
0.352909 -0.332201 0.359488
0.350829 -0.333177 0.356831
0.348795 -0.335120 0.352082
0.346727 -0.336089 0.349442
0.344663 -0.337055 0.346809
0.342604 -0.338019 0.344181
0.340550 -0.338981 0.341559
0.338500 -0.339940 0.338943
0.336455 -0.340898 0.336334
0.334415 -0.341853 0.333730
0.332438 -0.343757 0.329081
0.330409 -0.344706 0.326494
0.328385 -0.345653 0.323913
0.326365 -0.346598 0.321338
0.324418 -0.348480 0.316744
0.322409 -0.349419 0.314185
0.320333 -0.349419 0.313647
0.318183 -0.348480 0.315127
0.316104 -0.348480 0.314588
0.314026 -0.348480 0.314049
0.311947 -0.348480 0.313510
0.309785 -0.347540 0.314992
0.307618 -0.346598 0.316477
0.305445 -0.345653 0.317965
0.303268 -0.344706 0.319457
0.301181 -0.344706 0.318916
0.298802 -0.341853 0.324495
0.296608 -0.340898 0.326001
0.294306 -0.338981 0.329568
0.291888 -0.336089 0.335223
0.289345 -0.332201 0.343006
0.286778 -0.328279 0.350860
0.390876 -0.310921 0.420835
0.388695 -0.311947 0.418034
0.386519 -0.312971 0.415240
0.384349 -0.315012 0.410233
0.382186 -0.316029 0.407457
0.380028 -0.317043 0.404688
0.377883 -0.319065 0.399729
0.375738 -0.320072 0.396978
0.373597 -0.321077 0.394234
0.371462 -0.322080 0.391497
0.369349 -0.324079 0.386596
0.367226 -0.325074 0.383877
0.365108 -0.326068 0.381164
0.362994 -0.327059 0.378458
0.360913 -0.329034 0.373615
0.358812 -0.330019 0.370927
0.356715 -0.331001 0.368244
0.354624 -0.331981 0.365568
0.352574 -0.333934 0.360783
0.350494 -0.334907 0.358124
0.348419 -0.335878 0.355472
0.346349 -0.336846 0.352825
0.344329 -0.338777 0.348097
0.342271 -0.339739 0.345467
0.340166 -0.339739 0.344922
0.338115 -0.340699 0.342299
0.336123 -0.342612 0.337616
0.334083 -0.343566 0.335010
0.332048 -0.344517 0.332411
0.330017 -0.345466 0.329817
0.328054 -0.347358 0.325188
0.326035 -0.348301 0.322611
0.324020 -0.349241 0.320040
0.322080 -0.351116 0.315454
0.319932 -0.350180 0.316936
0.317853 -0.350180 0.316398
0.315775 -0.350180 0.315859
0.313696 -0.350180 0.315320
0.311618 -0.350180 0.314781
0.309455 -0.349241 0.316264
0.307287 -0.348301 0.317750
0.305115 -0.347358 0.319240
0.302937 -0.346413 0.320733
0.300850 -0.346413 0.320192
0.298568 -0.344517 0.323730
0.296275 -0.342612 0.327283
0.293973 -0.340699 0.330853
0.291554 -0.337813 0.336512
0.289009 -0.333934 0.344301
0.286327 -0.329034 0.354276
0.390538 -0.311673 0.424410
0.388355 -0.312700 0.421601
0.386175 -0.314746 0.416567
0.384005 -0.315765 0.413778
0.381840 -0.316783 0.410995
0.379680 -0.317797 0.408219
0.377525 -0.318810 0.405449
0.375386 -0.320827 0.400488
0.373243 -0.321833 0.397736
0.371105 -0.322836 0.394992
0.368973 -0.323836 0.392253
0.366866 -0.325831 0.387351
0.364769 -0.327816 0.382472
0.362656 -0.328805 0.379763
0.360547 -0.329792 0.377061
0.358444 -0.330777 0.374366
0.356378 -0.332739 0.369544
0.354287 -0.333717 0.366866
0.352201 -0.334693 0.364195
0.350119 -0.335666 0.361529
0.348084 -0.337606 0.356764
0.346014 -0.338573 0.354116
0.343949 -0.339537 0.351474
0.341888 -0.340500 0.348838
0.339833 -0.341460 0.346208
0.337781 -0.342418 0.343584
0.335735 -0.343373 0.340966
0.333693 -0.344327 0.338354
0.331716 -0.346228 0.333690
0.329686 -0.347175 0.331095
0.327660 -0.348120 0.328506
0.325639 -0.349063 0.325922
0.323690 -0.350942 0.321312
0.321680 -0.351879 0.318746
0.319602 -0.351879 0.318207
0.317524 -0.351879 0.317668
0.315445 -0.351879 0.317129
0.313367 -0.351879 0.316590
0.311206 -0.350942 0.318075
0.309125 -0.350942 0.317536
0.306957 -0.350004 0.319024
0.304784 -0.349063 0.320515
0.302606 -0.348120 0.322010
0.300424 -0.347175 0.323507
0.298236 -0.346228 0.325009
0.295943 -0.344327 0.328565
0.293640 -0.342418 0.332138
0.291219 -0.339537 0.337802
0.288563 -0.334693 0.347694
0.285990 -0.330777 0.355578
0.390192 -0.313454 0.425742
0.388010 -0.314479 0.422932
0.385832 -0.315501 0.420128
0.383660 -0.316521 0.417331
0.381493 -0.317538 0.414541
0.379337 -0.319566 0.409541
0.377182 -0.320576 0.406770
0.375033 -0.321584 0.404005
0.372888 -0.322590 0.401247
0.370748 -0.323593 0.398494
0.368632 -0.325593 0.393566
0.366505 -0.326589 0.390833
0.364383 -0.327583 0.388106
0.362265 -0.328575 0.385385
0.360181 -0.330551 0.380515
0.358076 -0.331536 0.377812
0.355975 -0.332519 0.375116
0.353880 -0.333499 0.372425
0.351827 -0.335453 0.367614
0.349743 -0.336427 0.364941
0.347706 -0.338367 0.360163
0.345635 -0.339334 0.357508
0.343568 -0.340299 0.354859
0.341554 -0.342222 0.350126
0.339448 -0.342222 0.349580
0.337395 -0.343180 0.346949
0.335402 -0.345090 0.342250
0.333361 -0.346042 0.339636
0.331324 -0.346991 0.337028
0.329292 -0.347939 0.334427
0.327329 -0.349827 0.329782
0.325308 -0.350768 0.327197
0.323292 -0.351707 0.324618
0.321280 -0.352643 0.322045
0.319273 -0.353578 0.319478
0.317194 -0.353578 0.318939
0.315116 -0.353578 0.318400
0.312957 -0.352643 0.319887
0.310876 -0.352643 0.319347
0.308795 -0.352643 0.318808
0.306627 -0.351707 0.320297
0.304454 -0.350768 0.321790
0.302276 -0.349827 0.323286
0.300092 -0.348884 0.324785
0.297904 -0.347939 0.326288
0.295611 -0.346042 0.329848
0.293306 -0.344136 0.333423
0.290885 -0.341262 0.339091
0.288227 -0.336427 0.348990
0.285652 -0.332519 0.356881
0.387668 -0.315235 0.426509
0.385488 -0.317278 0.421457
0.383316 -0.318296 0.418659
0.381149 -0.319311 0.415867
0.378987 -0.320324 0.413082
0.376831 -0.321335 0.410303
0.374690 -0.323349 0.405324
0.372546 -0.324352 0.402564
0.370407 -0.325354 0.399811
0.368273 -0.326353 0.397064
0.366143 -0.327349 0.394323
0.364019 -0.328343 0.391588
0.361926 -0.330325 0.386693
0.359814 -0.331313 0.383977
0.357707 -0.332298 0.381267
0.355604 -0.333281 0.378564
0.353542 -0.335239 0.373727
0.351452 -0.336216 0.371041
0.349366 -0.337189 0.368361
0.347286 -0.338161 0.365688
0.345255 -0.340098 0.360908
0.343186 -0.341063 0.358252
0.341121 -0.342025 0.355603
0.339062 -0.342986 0.352959
0.337061 -0.344901 0.348235
0.335013 -0.345855 0.345609
0.332970 -0.346806 0.342989
0.330931 -0.347756 0.340374
0.328960 -0.349649 0.335706
0.326933 -0.350593 0.333108
0.324910 -0.351534 0.330517
0.322892 -0.352473 0.327931
0.320950 -0.354345 0.323317
0.318943 -0.355277 0.320748
0.316789 -0.354345 0.322238
0.314708 -0.354345 0.321698
0.312627 -0.354345 0.321159
0.310546 -0.354345 0.320619
0.308466 -0.354345 0.320080
0.306297 -0.353410 0.321571
0.304123 -0.352473 0.323065
0.301945 -0.351534 0.324562
0.299761 -0.350593 0.326063
0.297474 -0.348704 0.329618
0.295278 -0.347756 0.331130
0.292973 -0.345855 0.334708
0.290443 -0.342025 0.342462
0.287890 -0.338161 0.350287
0.285199 -0.333281 0.360308
0.387323 -0.317017 0.427840
0.385144 -0.318037 0.425028
0.382970 -0.319055 0.422222
0.380801 -0.320071 0.419423
0.378644 -0.322095 0.414406
0.376488 -0.323103 0.411625
0.374336 -0.324110 0.408852
0.372190 -0.325113 0.406084
0.370049 -0.326115 0.403323
0.367932 -0.328111 0.398378
0.365803 -0.329106 0.395636
0.363679 -0.330098 0.392900
0.361560 -0.331088 0.390170
0.359446 -0.332075 0.387447
0.357368 -0.334044 0.382573
0.355266 -0.335025 0.379868
0.353169 -0.336003 0.377169
0.351076 -0.336980 0.374476
0.349030 -0.338926 0.369660
0.346949 -0.339895 0.366985
0.344874 -0.340863 0.364316
0.342803 -0.341828 0.361653
0.340787 -0.343752 0.356894
0.338727 -0.344710 0.354248
0.336673 -0.345667 0.351609
0.334623 -0.346621 0.348976
0.332637 -0.348523 0.344272
0.330599 -0.349471 0.341656
0.328565 -0.350416 0.339047
0.326536 -0.351360 0.336442
0.324579 -0.353241 0.331793
0.322561 -0.354178 0.329206
0.320548 -0.355113 0.326625
0.318539 -0.356046 0.324049
0.316459 -0.356046 0.323510
0.314378 -0.356046 0.322970
0.312297 -0.356046 0.322431
0.310217 -0.356046 0.321891
0.308136 -0.356046 0.321352
0.305967 -0.355113 0.322844
0.303793 -0.354178 0.324340
0.301614 -0.353241 0.325838
0.299430 -0.352301 0.327341
0.297142 -0.350416 0.330899
0.294946 -0.349471 0.332412
0.292640 -0.347573 0.335993
0.290109 -0.343752 0.343753
0.287554 -0.339895 0.351584
0.284861 -0.335025 0.361612
0.386981 -0.317777 0.431427
0.384799 -0.319816 0.426358
0.382625 -0.320832 0.423551
0.380457 -0.321846 0.420750
0.378293 -0.322857 0.417956
0.376135 -0.323866 0.415168
0.373994 -0.325876 0.410173
0.371848 -0.326878 0.407404
0.369707 -0.327877 0.404641
0.367571 -0.328875 0.401885
0.365440 -0.329869 0.399136
0.363314 -0.330862 0.396392
0.361220 -0.332840 0.391481
0.359106 -0.333826 0.388756
0.356997 -0.334809 0.386037
0.354893 -0.335790 0.383325
0.352794 -0.336769 0.380619
0.350739 -0.338720 0.375777
0.348652 -0.339692 0.373089
0.346569 -0.340662 0.370407
0.344492 -0.341629 0.367732
0.342467 -0.343558 0.362947
0.340401 -0.344519 0.360289
0.338340 -0.345478 0.357637
0.336284 -0.346435 0.354991
0.334289 -0.348341 0.350263
0.332245 -0.349292 0.347634
0.330205 -0.350240 0.345011
0.328169 -0.351185 0.342395
0.326204 -0.353071 0.337722
0.324180 -0.354010 0.335122
0.322160 -0.354947 0.332528
0.320145 -0.355883 0.329940
0.318135 -0.356816 0.327358
0.316129 -0.357747 0.324782
0.314048 -0.357747 0.324242
0.311967 -0.357747 0.323703
0.309887 -0.357747 0.323163
0.307719 -0.356816 0.324658
0.305636 -0.356816 0.324117
0.303462 -0.355883 0.325614
0.301283 -0.354947 0.327115
0.299098 -0.354010 0.328618
0.296810 -0.352129 0.332179
0.294613 -0.351185 0.333694
0.292307 -0.349292 0.337278
0.289774 -0.345478 0.345044
0.287106 -0.340662 0.354989
0.284292 -0.334809 0.367185
0.386635 -0.319560 0.432761
0.384454 -0.320579 0.429939
0.382278 -0.321595 0.427124
0.380107 -0.322609 0.424316
0.377949 -0.324630 0.419282
0.375791 -0.325636 0.416492
0.373638 -0.326641 0.413709
0.371490 -0.327643 0.410933
0.369347 -0.328643 0.408163
0.367230 -0.330635 0.403202
0.365099 -0.331628 0.400450
0.362974 -0.332618 0.397706
0.360853 -0.333606 0.394967
0.358737 -0.334592 0.392235
0.356659 -0.336557 0.387344
0.354555 -0.337536 0.384631
0.352456 -0.338513 0.381923
0.350362 -0.339488 0.379222
0.348273 -0.340460 0.376527
0.346233 -0.342398 0.371706
0.344156 -0.343364 0.369028
0.342083 -0.344327 0.366357
0.340015 -0.345288 0.363692
0.338006 -0.347204 0.358928
0.335950 -0.348159 0.356280
0.333898 -0.349111 0.353639
0.331852 -0.350062 0.351003
0.329872 -0.351956 0.346295
0.327837 -0.352900 0.343677
0.325806 -0.353842 0.341065
0.323780 -0.354781 0.338458
0.321829 -0.356654 0.333805
0.319815 -0.357588 0.331215
0.317805 -0.358519 0.328632
0.315722 -0.358519 0.328092
0.313718 -0.359448 0.325514
0.311638 -0.359448 0.324975
0.309472 -0.358519 0.326471
0.307389 -0.358519 0.325931
