ply
format ascii 1.0
element vertex 1692
property float x
property float y
property float z
end_header
-0.286642 0.288257 -0.349998
-0.286257 0.288257 -0.348231
-0.287061 0.289043 -0.345820
-0.286676 0.289043 -0.344055
-0.286291 0.289043 -0.342290
-0.285907 0.289043 -0.340525
-0.285522 0.289043 -0.338760
-0.286325 0.289829 -0.336360
-0.285941 0.289829 -0.334597
-0.286743 0.290612 -0.332203
-0.286359 0.290612 -0.330441
-0.285975 0.290612 -0.328679
-0.286777 0.291395 -0.326293
-0.286393 0.291395 -0.324533
-0.287193 0.292175 -0.322154
-0.286810 0.292175 -0.320395
-0.286427 0.292175 -0.318637
-0.286044 0.292175 -0.316878
-0.286844 0.292955 -0.314508
-0.286461 0.292955 -0.312751
-0.287259 0.293733 -0.310387
-0.286877 0.293733 -0.308632
-0.286494 0.293733 -0.306877
-0.287292 0.294509 -0.304520
-0.286910 0.294509 -0.302767
-0.287707 0.295284 -0.300416
-0.287325 0.295284 -0.298664
-0.286943 0.295284 -0.296913
-0.287739 0.296057 -0.294570
-0.287358 0.296057 -0.292820
-0.288153 0.296829 -0.290483
-0.287772 0.296829 -0.288734
-0.287390 0.296829 -0.286986
-0.287009 0.296829 -0.285237
-0.287804 0.297600 -0.282910
-0.287423 0.297600 -0.281163
-0.288216 0.298369 -0.278841
-0.287836 0.298369 -0.277096
-0.287456 0.298369 -0.275351
-0.288248 0.299137 -0.273037
-0.287868 0.299137 -0.271293
-0.288660 0.299903 -0.268985
-0.288280 0.299903 -0.267243
-0.287900 0.299903 -0.265501
-0.288691 0.300668 -0.263201
-0.288312 0.300668 -0.261460
-0.289101 0.301432 -0.259166
-0.288722 0.301432 -0.257427
-0.288343 0.301432 -0.255688
-0.287964 0.301432 -0.253949
-0.288754 0.302194 -0.251664
-0.288375 0.302194 -0.249927
-0.287996 0.302194 -0.248189
-0.287618 0.302194 -0.246452
-0.287239 0.302194 -0.244715
-0.286860 0.302194 -0.242978
-0.286482 0.302194 -0.241241
-0.286103 0.302194 -0.239504
-0.284554 0.301432 -0.238300
-0.284175 0.301432 -0.236561
-0.283796 0.301432 -0.234822
-0.283417 0.301432 -0.233084
-0.284210 0.302194 -0.230818
-0.283832 0.302194 -0.229080
-0.283453 0.302194 -0.227343
-0.284246 0.302954 -0.225085
-0.283867 0.302954 -0.223349
-0.283489 0.302954 -0.221613
-0.284281 0.303713 -0.219362
-0.283903 0.303713 -0.217628
-0.284694 0.304471 -0.215383
-0.284316 0.304471 -0.213651
-0.285106 0.305228 -0.211411
-0.284728 0.305228 -0.209680
-0.284351 0.305228 -0.207949
-0.285140 0.305983 -0.205717
-0.285928 0.306736 -0.203489
-0.285551 0.306736 -0.201761
-0.285175 0.306736 -0.200034
-0.284798 0.306736 -0.198306
-0.284421 0.306736 -0.196579
-0.284045 0.306736 -0.194851
-0.283668 0.306736 -0.193124
-0.284456 0.307488 -0.190909
-0.284080 0.307488 -0.189183
-0.283704 0.307488 -0.187457
-0.283328 0.307488 -0.185731
-0.282952 0.307488 -0.184005
-0.282576 0.307488 -0.182279
-0.282199 0.307488 -0.180553
-0.282988 0.308239 -0.178353
-0.282612 0.308239 -0.176628
-0.282236 0.308239 -0.174904
-0.281861 0.308239 -0.173180
-0.281485 0.308239 -0.171455
-0.282273 0.308989 -0.169265
-0.281898 0.308989 -0.167542
-0.281522 0.308989 -0.165819
-0.281147 0.308989 -0.164096
-0.280771 0.308989 -0.162374
-0.280396 0.308989 -0.160651
-0.280020 0.308989 -0.158928
-0.279645 0.308989 -0.157205
-0.279269 0.308989 -0.155482
-0.278894 0.308989 -0.153760
-0.278518 0.308989 -0.152037
-0.278143 0.308989 -0.150314
-0.277768 0.308989 -0.148591
-0.277392 0.308989 -0.146869
-0.277017 0.308989 -0.145146
-0.276641 0.308989 -0.143423
-0.275096 0.308239 -0.142141
-0.274720 0.308239 -0.140417
-0.274344 0.308239 -0.138692
-0.273968 0.308239 -0.136968
-0.273592 0.308239 -0.135243
-0.273216 0.308239 -0.133519
-0.272841 0.308239 -0.131795
-0.272465 0.308239 -0.130070
-0.272089 0.308239 -0.128346
-0.271713 0.308239 -0.126622
-0.271337 0.308239 -0.124897
-0.270961 0.308239 -0.123173
-0.270586 0.308239 -0.121448
-0.270210 0.308239 -0.119724
-0.269834 0.308239 -0.118000
-0.269458 0.308239 -0.116275
-0.269082 0.308239 -0.114551
-0.268706 0.308239 -0.112827
-0.268331 0.308239 -0.111102
-0.267955 0.308239 -0.109378
-0.266400 0.307488 -0.108063
-0.266024 0.307488 -0.106337
-0.265648 0.307488 -0.104611
-0.265271 0.307488 -0.102885
-0.264895 0.307488 -0.101159
-0.263336 0.306736 -0.099836
-0.262960 0.306736 -0.098108
-0.262583 0.306736 -0.096381
-0.262207 0.306736 -0.094653
-0.260643 0.305983 -0.093322
-0.259077 0.305228 -0.091989
-0.258700 0.305228 -0.090258
-0.258323 0.305228 -0.088527
-0.257946 0.305228 -0.086797
-0.257569 0.305228 -0.085066
-0.255998 0.304471 -0.083724
-0.255621 0.304471 -0.081991
-0.255243 0.304471 -0.080259
-0.253669 0.303713 -0.078911
-0.253291 0.303713 -0.077177
-0.251714 0.302954 -0.075825
-0.251336 0.302954 -0.074089
-0.249755 0.302194 -0.072733
-0.249377 0.302194 -0.070996
-0.247793 0.301432 -0.069636
-0.247414 0.301432 -0.067897
-0.245827 0.300668 -0.066533
-0.245448 0.300668 -0.064792
-0.245068 0.300668 -0.063052
-0.244689 0.300668 -0.061311
-0.243098 0.299903 -0.059940
-0.242718 0.299903 -0.058198
-0.241124 0.299137 -0.056822
-0.240744 0.299137 -0.055078
-0.239146 0.298369 -0.053698
-0.238766 0.298369 -0.051952
-0.237164 0.297600 -0.050568
-0.236784 0.297600 -0.048821
-0.235179 0.296829 -0.047432
-0.234798 0.296829 -0.045684
-0.233190 0.296057 -0.044291
-0.232809 0.296057 -0.042541
-0.231198 0.295284 -0.041144
-0.229584 0.294509 -0.039744
-0.227966 0.293733 -0.038341
-0.226346 0.292955 -0.036936
-0.225963 0.292955 -0.035180
-0.224340 0.292175 -0.033770
-0.223956 0.292175 -0.032012
-0.222329 0.291395 -0.030598
-0.220699 0.290612 -0.029182
-0.220315 0.290612 -0.027420
-0.218682 0.289829 -0.026000
-0.217045 0.289043 -0.024576
-0.215405 0.288257 -0.023150
-0.215020 0.288257 -0.021384
-0.213377 0.287468 -0.019953
-0.211731 0.286679 -0.018520
-0.210081 0.285888 -0.017084
-0.208428 0.285095 -0.015646
-0.208042 0.285095 -0.013872
-0.206386 0.284301 -0.012429
-0.204727 0.283505 -0.010984
-0.204339 0.283505 -0.009207
-0.202676 0.282708 -0.007757
-0.201011 0.281909 -0.006304
-0.199341 0.281109 -0.004848
-0.197669 0.280307 -0.003390
-0.197280 0.280307 -0.001606
-0.195604 0.279504 -0.000143
-0.193925 0.278699 0.001322
-0.192243 0.277892 0.002791
-0.191853 0.277892 0.004580
-0.190167 0.277085 0.006053
-0.188478 0.276275 0.007529
-0.186786 0.275464 0.009007
-0.185090 0.274651 0.010489
-0.183391 0.273837 0.011973
-0.181689 0.273022 0.013461
-0.179984 0.272204 0.014951
-0.179591 0.272204 0.016751
-0.177882 0.271385 0.018246
-0.176170 0.270565 0.019744
-0.174454 0.269743 0.021244
-0.172735 0.268919 0.022748
-0.171013 0.268094 0.024254
-0.170619 0.268094 0.026064
-0.168892 0.267267 0.027575
-0.167163 0.266439 0.029088
-0.165430 0.265609 0.030605
-0.163694 0.264777 0.032125
-0.161955 0.263944 0.033648
-0.161558 0.263944 0.035466
-0.159815 0.263109 0.036994
-0.158068 0.262272 0.038524
-0.156318 0.261434 0.040058
-0.154565 0.260595 0.041594
-0.152808 0.259753 0.043134
-0.151047 0.258910 0.044676
-0.149284 0.258065 0.046222
-0.147516 0.257219 0.047770
-0.147117 0.257219 0.049603
-0.145346 0.256371 0.051156
-0.143571 0.255521 0.052712
-0.141793 0.254670 0.054272
-0.140011 0.253817 0.055834
-0.138226 0.252962 0.057400
-0.136438 0.252106 0.058969
-0.134645 0.251247 0.060541
-0.132850 0.250388 0.062116
-0.131050 0.249526 0.063694
-0.129248 0.248663 0.065275
-0.127441 0.247798 0.066859
-0.125631 0.246931 0.068447
-0.123817 0.246063 0.070037
-0.120585 0.244321 0.071368
-0.118761 0.243447 0.072966
-0.116933 0.242572 0.074568
-0.113674 0.240816 0.075913
-0.110402 0.239053 0.077263
-0.107116 0.237283 0.078619
-0.105264 0.236396 0.080238
-0.101958 0.234615 0.081604
-0.100095 0.233722 0.083230
-0.095307 0.231032 0.084352
-0.093429 0.230132 0.085988
-0.090076 0.228326 0.087375
-0.086709 0.226513 0.088768
-0.083329 0.224692 0.090167
-0.079935 0.222864 0.091571
-0.076526 0.221028 0.092981
-0.073104 0.219185 0.094397
-0.069668 0.217335 0.095819
-0.064697 0.214545 0.097001
-0.058161 0.210797 0.097945
-0.053118 0.207966 0.099142
-0.046487 0.204165 0.100101
-0.039800 0.200331 0.101069
-0.034641 0.197434 0.102289
-0.027855 0.193544 0.103273
-0.022620 0.190605 0.104510
-0.015732 0.186657 0.105511
-0.008786 0.182675 0.106520
-0.001780 0.178659 0.107537
0.003623 0.175625 0.108808
0.014094 0.169497 0.109355
0.022998 0.164329 0.110154
0.035449 0.156999 0.110470
0.046338 0.150627 0.111039
0.057371 0.144170 0.111615
0.073972 0.134321 0.111448
0.092763 0.123143 0.111022
0.110089 0.112863 0.110845
0.127776 0.102370 0.110664
0.130183 0.101191 0.112567
0.132595 0.100008 0.114474
0.135013 0.098824 0.116385
0.139393 0.096446 0.118048
0.141828 0.095252 0.119971
0.148214 0.091656 0.121397
0.150670 0.090452 0.123333
0.153132 0.089245 0.125273
0.155600 0.088035 0.127217
0.160074 0.085606 0.128923
0.164569 0.083166 0.130637
0.169086 0.080715 0.132359
0.173624 0.078252 0.134089
0.176142 0.077016 0.136065
0.180713 0.074535 0.137810
0.181197 0.074535 0.140030
0.181681 0.074535 0.142250
0.182165 0.074535 0.144470
0.180600 0.075777 0.146914
0.181083 0.075777 0.149132
0.181567 0.075777 0.151349
0.182050 0.075777 0.153567
0.180487 0.077016 0.155997
0.180969 0.077016 0.158212
0.181452 0.077016 0.160427
0.181935 0.077016 0.162641
0.180374 0.078252 0.165059
0.180856 0.078252 0.167271
0.181338 0.078252 0.169483
0.181820 0.078252 0.171695
0.182302 0.078252 0.173907
0.182785 0.078252 0.176119
0.183267 0.078252 0.178331
0.181706 0.079485 0.180727
0.182188 0.079485 0.182936
0.182669 0.079485 0.185146
0.183151 0.079485 0.187355
0.183632 0.079485 0.189565
0.184114 0.079485 0.191774
0.182554 0.080715 0.194151
0.183035 0.080715 0.196358
0.183516 0.080715 0.198565
0.183997 0.080715 0.200772
0.184478 0.080715 0.202979
0.182919 0.081942 0.205340
0.183400 0.081942 0.207544
0.183880 0.081942 0.209748
0.182324 0.083166 0.212099
0.182804 0.083166 0.214300
0.183284 0.083166 0.216502
0.181731 0.084388 0.218842
0.182210 0.084388 0.221041
0.182689 0.084388 0.223240
0.183168 0.084388 0.225439
0.183648 0.084388 0.227638
0.184127 0.084388 0.229837
0.182574 0.085606 0.232158
0.183053 0.085606 0.234355
0.183532 0.085606 0.236551
0.184011 0.085606 0.238748
0.184489 0.085606 0.240944
0.182938 0.086822 0.243250
0.183416 0.086822 0.245443
0.183895 0.086822 0.247637
0.182346 0.088035 0.249932
0.182823 0.088035 0.252124
0.183301 0.088035 0.254315
0.183779 0.088035 0.256506
0.184256 0.088035 0.258698
0.184734 0.088035 0.260889
0.185211 0.088035 0.263080
0.185689 0.088035 0.265272
0.186167 0.088035 0.267463
0.186644 0.088035 0.269654
0.187122 0.088035 0.271846
0.187599 0.088035 0.274037
0.188077 0.088035 0.276228
0.188555 0.088035 0.278420
0.189032 0.088035 0.280611
0.189510 0.088035 0.282802
0.189988 0.088035 0.284994
0.190465 0.088035 0.287185
0.190943 0.088035 0.289376
0.191420 0.088035 0.291568
0.191898 0.088035 0.293759
0.192376 0.088035 0.295950
0.192853 0.088035 0.298142
0.193331 0.088035 0.300333
0.193808 0.088035 0.302524
0.194286 0.088035 0.304716
0.194764 0.088035 0.306907
0.195241 0.088035 0.309098
0.195719 0.088035 0.311290
0.196196 0.088035 0.313481
0.196674 0.088035 0.315673
0.199196 0.086822 0.317843
0.199674 0.086822 0.320037
0.200152 0.086822 0.322230
0.200630 0.086822 0.324424
0.201109 0.086822 0.326618
0.201587 0.086822 0.328812
0.202065 0.086822 0.331006
0.202543 0.086822 0.333200
0.205075 0.085606 0.335393
0.207612 0.084388 0.337592
0.210156 0.083166 0.339795
0.212706 0.081942 0.342004
-0.252814 0.250567 -0.469857
-0.257489 0.253989 -0.464854
-0.260872 0.256537 -0.460671
-0.262983 0.258228 -0.457286
-0.265086 0.259912 -0.453915
-0.267181 0.261590 -0.450556
-0.269268 0.263261 -0.447211
-0.270111 0.264094 -0.444636
-0.270951 0.264926 -0.442066
-0.273023 0.266584 -0.438750
-0.272628 0.266584 -0.436941
-0.272234 0.266584 -0.435131
-0.273071 0.267411 -0.432578
-0.273905 0.268236 -0.430029
-0.273512 0.268236 -0.428223
-0.274345 0.269059 -0.425681
-0.273952 0.269059 -0.423877
-0.274784 0.269881 -0.421342
-0.274392 0.269881 -0.419539
-0.275223 0.270701 -0.417011
-0.276052 0.271520 -0.414487
-0.275660 0.271520 -0.412688
-0.276488 0.272337 -0.410171
-0.276097 0.272337 -0.408374
-0.276924 0.273153 -0.405863
-0.276532 0.273153 -0.404067
-0.277358 0.273967 -0.401563
-0.276967 0.273967 -0.399769
-0.277792 0.274779 -0.397272
-0.278615 0.275590 -0.394779
-0.278225 0.275590 -0.392989
-0.279047 0.276400 -0.390502
-0.278657 0.276400 -0.388714
-0.279478 0.277207 -0.386234
-0.279088 0.277207 -0.384447
-0.279908 0.278014 -0.381974
-0.280726 0.278819 -0.379505
-0.280337 0.278819 -0.377721
-0.281154 0.279622 -0.375259
-0.281969 0.280423 -0.372802
-0.283982 0.282022 -0.369677
-0.284792 0.282819 -0.367232
-0.286794 0.284409 -0.364127
-0.287599 0.285202 -0.361694
-0.288403 0.285993 -0.359266
-0.286828 0.285202 -0.358154
-0.287632 0.285993 -0.355729
-0.287247 0.285993 -0.353961
-0.288050 0.286782 -0.351542
-0.287665 0.286782 -0.349775
-0.288467 0.287570 -0.347363
-0.288082 0.287570 -0.345597
-0.287698 0.287570 -0.343832
-0.288499 0.288357 -0.341428
-0.288115 0.288357 -0.339664
-0.287730 0.288357 -0.337901
-0.287346 0.288357 -0.336137
-0.286962 0.288357 -0.334374
-0.287763 0.289142 -0.331980
-0.287379 0.289142 -0.330219
-0.288179 0.289926 -0.327831
-0.287796 0.289926 -0.326071
-0.287412 0.289926 -0.324311
-0.288211 0.290708 -0.321932
-0.289009 0.291489 -0.319557
-0.288626 0.291489 -0.317800
-0.289423 0.292268 -0.315431
-0.289040 0.292268 -0.313676
-0.288658 0.292268 -0.311921
-0.289454 0.293046 -0.309559
-0.289072 0.293046 -0.307806
-0.289866 0.293822 -0.305451
-0.289485 0.293822 -0.303699
-0.289103 0.293822 -0.301947
-0.289897 0.294597 -0.299600
-0.289515 0.294597 -0.297849
-0.290308 0.295370 -0.295508
-0.289927 0.295370 -0.293759
-0.289546 0.295370 -0.292011
-0.290338 0.296142 -0.289677
-0.289957 0.296142 -0.287930
-0.289577 0.296142 -0.286183
-0.290368 0.296913 -0.283857
-0.289988 0.296913 -0.282112
-0.289607 0.296913 -0.280366
-0.290398 0.297682 -0.278048
-0.290018 0.297682 -0.276304
-0.290807 0.298449 -0.273991
-0.290428 0.298449 -0.272249
-0.290048 0.298449 -0.270507
-0.290837 0.299216 -0.268202
-0.290457 0.299216 -0.266462
-0.291245 0.299980 -0.264163
-0.290866 0.299980 -0.262424
-0.290487 0.299980 -0.260685
-0.291274 0.300744 -0.258393
-0.290895 0.300744 -0.256656
-0.290516 0.300744 -0.254919
-0.290138 0.300744 -0.253182
-0.289759 0.300744 -0.251445
-0.290546 0.301506 -0.249164
-0.290168 0.301506 -0.247428
-0.289789 0.301506 -0.245693
-0.289411 0.301506 -0.243957
-0.287866 0.300744 -0.242759
-0.287487 0.300744 -0.241022
-0.287109 0.300744 -0.239284
-0.285560 0.299980 -0.238081
-0.285181 0.299980 -0.236342
-0.284802 0.299980 -0.234603
-0.284423 0.299980 -0.232864
-0.285216 0.300744 -0.230598
-0.286007 0.301506 -0.228337
-0.285628 0.301506 -0.226601
-0.286418 0.302266 -0.224345
-0.286040 0.302266 -0.222611
-0.285662 0.302266 -0.220877
-0.286452 0.303025 -0.218629
-0.286074 0.303025 -0.216897
-0.286862 0.303783 -0.214654
-0.286485 0.303783 -0.212923
-0.286108 0.303783 -0.211193
-0.286895 0.304539 -0.208957
-0.286518 0.304539 -0.207228
-0.286141 0.304539 -0.205499
-0.286928 0.305294 -0.203271
-0.286551 0.305294 -0.201543
-0.286175 0.305294 -0.199816
-0.285798 0.305294 -0.198088
-0.285421 0.305294 -0.196361
-0.285045 0.305294 -0.194633
-0.284668 0.305294 -0.192906
-0.285456 0.306048 -0.190691
-0.285079 0.306048 -0.188965
-0.284703 0.306048 -0.187240
-0.285489 0.306800 -0.185033
-0.285114 0.306800 -0.183308
-0.284738 0.306800 -0.181584
-0.284362 0.306800 -0.179859
-0.283986 0.306800 -0.178135
-0.284773 0.307551 -0.175938
-0.284397 0.307551 -0.174216
-0.284022 0.307551 -0.172493
-0.283646 0.307551 -0.170770
-0.283271 0.307551 -0.169047
-0.284057 0.308300 -0.166861
-0.283682 0.308300 -0.165140
-0.282144 0.307551 -0.163879
-0.281769 0.307551 -0.162156
-0.281393 0.307551 -0.160433
-0.281018 0.307551 -0.158711
-0.280642 0.307551 -0.156988
-0.280267 0.307551 -0.155265
-0.279891 0.307551 -0.153542
-0.279516 0.307551 -0.151820
-0.279140 0.307551 -0.150097
-0.278765 0.307551 -0.148374
-0.278389 0.307551 -0.146651
-0.278014 0.307551 -0.144928
-0.277638 0.307551 -0.143206
-0.278430 0.308300 -0.141043
-0.278055 0.308300 -0.139322
-0.277679 0.308300 -0.137601
-0.276136 0.307551 -0.136315
-0.275761 0.307551 -0.134592
-0.275385 0.307551 -0.132869
-0.275010 0.307551 -0.131146
-0.274634 0.307551 -0.129423
-0.274259 0.307551 -0.127701
-0.273883 0.307551 -0.125978
-0.273508 0.307551 -0.124255
-0.273133 0.307551 -0.122532
-0.272757 0.307551 -0.120810
-0.272382 0.307551 -0.119087
-0.272006 0.307551 -0.117364
-0.271631 0.307551 -0.115641
-0.271255 0.307551 -0.113918
-0.269705 0.306800 -0.112609
-0.269329 0.306800 -0.110885
-0.268953 0.306800 -0.109160
-0.268577 0.306800 -0.107436
-0.267023 0.306048 -0.106119
-0.266647 0.306048 -0.104393
-0.266271 0.306048 -0.102667
-0.265894 0.306048 -0.100941
-0.265518 0.306048 -0.099216
-0.263960 0.305294 -0.097890
-0.263583 0.305294 -0.096163
-0.262021 0.304539 -0.094833
-0.261644 0.304539 -0.093104
-0.261267 0.304539 -0.091375
-0.260891 0.304539 -0.089646
-0.260514 0.304539 -0.087917
-0.258948 0.303783 -0.086578
-0.258570 0.303783 -0.084847
-0.258193 0.303783 -0.083117
-0.257816 0.303783 -0.081386
-0.256246 0.303025 -0.080040
-0.255868 0.303025 -0.078308
-0.254295 0.302266 -0.076958
-0.253917 0.302266 -0.075224
-0.252340 0.301506 -0.073871
-0.251962 0.301506 -0.072135
-0.251584 0.301506 -0.070399
-0.250004 0.300744 -0.069040
-0.249625 0.300744 -0.067303
-0.248041 0.299980 -0.065939
-0.247663 0.299980 -0.064200
-0.246076 0.299216 -0.062832
-0.244486 0.298449 -0.061462
-0.244106 0.298449 -0.059720
-0.242513 0.297682 -0.058345
-0.242133 0.297682 -0.056602
-0.240537 0.296913 -0.055223
-0.240156 0.296913 -0.053477
-0.238556 0.296142 -0.052094
-0.238176 0.296142 -0.050348
-0.236573 0.295370 -0.048960
-0.236191 0.295370 -0.047212
-0.235810 0.295370 -0.045463
-0.234204 0.294597 -0.044070
-0.233822 0.294597 -0.042320
-0.232212 0.293822 -0.040923
-0.230599 0.293046 -0.039523
-0.230217 0.293046 -0.037769
-0.229834 0.293046 -0.036016
-0.228217 0.292268 -0.034610
-0.227835 0.292268 -0.032855
-0.226214 0.291489 -0.031444
-0.224591 0.290708 -0.030032
-0.222964 0.289926 -0.028616
-0.221335 0.289142 -0.027198
-0.220951 0.289142 -0.025436
-0.219318 0.288357 -0.024014
-0.217682 0.287570 -0.022589
-0.216043 0.286782 -0.021161
-0.215658 0.286782 -0.019394
-0.214015 0.285993 -0.017962
-0.212369 0.285202 -0.016527
-0.210720 0.284409 -0.015089
-0.209069 0.283615 -0.013649
-0.207413 0.282819 -0.012205
-0.207026 0.282819 -0.010430
-0.205368 0.282022 -0.008983
-0.203706 0.281223 -0.007532
-0.202041 0.280423 -0.006079
-0.201653 0.280423 -0.004299
-0.199985 0.279622 -0.002842
-0.198313 0.278819 -0.001381
-0.196638 0.278014 0.000082
-0.194960 0.277207 0.001548
-0.194570 0.277207 0.003335
-0.192889 0.276400 0.004805
-0.191204 0.275590 0.006279
-0.189516 0.274779 0.007755
-0.189125 0.274779 0.009547
-0.186130 0.273153 0.010715
-0.184432 0.272337 0.012200
-0.184040 0.272337 0.013997
-0.182339 0.271520 0.015487
-0.181946 0.271520 0.017286
-0.180241 0.270701 0.018779
-0.178533 0.269881 0.020276
-0.176821 0.269059 0.021776
-0.175106 0.268236 0.023278
-0.173388 0.267411 0.024784
-0.172994 0.267411 0.026591
-0.171272 0.266584 0.028101
-0.169546 0.265756 0.029614
-0.167817 0.264926 0.031130
-0.166085 0.264094 0.032649
-0.165690 0.264094 0.034464
-0.163954 0.263261 0.035987
-0.162214 0.262426 0.037514
-0.160472 0.261590 0.039043
-0.158726 0.260752 0.040576
-0.156976 0.259912 0.042111
-0.155223 0.259071 0.043650
-0.153467 0.258228 0.045191
-0.151707 0.257384 0.046736
-0.149944 0.256537 0.048283
-0.148178 0.255689 0.049834
-0.146408 0.254840 0.051387
-0.144634 0.253989 0.052944
-0.144234 0.253989 0.054780
-0.142456 0.253136 0.056342
-0.140675 0.252281 0.057906
-0.138891 0.251425 0.059474
-0.138489 0.251425 0.061316
-0.136701 0.250567 0.062888
-0.134909 0.249707 0.064464
-0.133114 0.248846 0.066043
-0.131315 0.247983 0.067625
-0.128110 0.246252 0.068945
-0.126300 0.245384 0.070535
-0.124487 0.244514 0.072128
-0.121256 0.242769 0.073462
-0.119433 0.241894 0.075063
-0.116182 0.240138 0.076408
-0.112918 0.238376 0.077758
-0.109640 0.236606 0.079113
-0.106350 0.234830 0.080474
-0.104495 0.233939 0.082096
-0.101185 0.232151 0.083467
-0.099319 0.231255 0.085097
-0.095988 0.229457 0.086479
-0.092643 0.227651 0.087865
-0.089285 0.225838 0.089258
-0.087394 0.224929 0.090905
-0.084015 0.223105 0.092308
-0.080622 0.221274 0.093717
-0.077216 0.219435 0.095132
-0.073795 0.217589 0.096552
-0.068847 0.214805 0.097734
-0.062341 0.211066 0.098678
-0.057322 0.208242 0.099875
-0.050721 0.204449 0.100836
-0.044066 0.200625 0.101804
-0.038931 0.197736 0.103025
-0.032177 0.193855 0.104010
-0.025366 0.189941 0.105003
-0.018498 0.185994 0.106005
-0.013200 0.183012 0.107258
-0.006228 0.179007 0.108277
0.000804 0.174966 0.109304
0.009569 0.169867 0.110097
0.020124 0.163675 0.110655
0.029100 0.158453 0.111465
0.041652 0.151046 0.111792
0.056172 0.142440 0.111877
0.070951 0.133680 0.111963
0.089687 0.122507 0.111544
0.106961 0.112233 0.111372
0.126525 0.100567 0.110937
0.128930 0.099385 0.112840
0.131341 0.098201 0.114747
0.135707 0.095824 0.116404
0.140094 0.093436 0.118069
0.142532 0.092238 0.119994
0.146950 0.089834 0.121673
0.149404 0.088627 0.123609
0.151865 0.087418 0.125549
0.156325 0.084991 0.127249
0.160807 0.082552 0.128957
0.163295 0.081329 0.130915
0.167809 0.078873 0.132638
0.172344 0.076405 0.134368
0.176900 0.073926 0.136108
0.181478 0.071435 0.137855
0.181963 0.071435 0.140078
0.182447 0.071435 0.142300
0.182932 0.071435 0.144523
0.183416 0.071435 0.146745
0.181848 0.072682 0.149190
0.182332 0.072682 0.151410
0.182815 0.072682 0.153630
0.183299 0.072682 0.155850
0.181733 0.073926 0.158281
0.182216 0.073926 0.160498
0.182699 0.073926 0.162716
0.183183 0.073926 0.164933
0.181618 0.075167 0.167350
0.182101 0.075167 0.169565
0.182584 0.075167 0.171780
0.183066 0.075167 0.173994
0.183549 0.075167 0.176209
0.181986 0.076405 0.178610
0.182468 0.076405 0.180822
0.182951 0.076405 0.183034
0.183433 0.076405 0.185246
0.183915 0.076405 0.187459
0.184397 0.076405 0.189671
0.184879 0.076405 0.191883
0.183316 0.077641 0.194263
0.183798 0.077641 0.196472
0.184280 0.077641 0.198681
0.184761 0.077641 0.200891
0.185243 0.077641 0.203100
0.183681 0.078873 0.205464
0.184162 0.078873 0.207671
0.184643 0.078873 0.209878
0.183085 0.080102 0.212231
0.183565 0.080102 0.214435
0.182009 0.081329 0.216780
0.182489 0.081329 0.218981
0.182969 0.081329 0.221183
0.183449 0.081329 0.223385
0.183929 0.081329 0.225586
0.182375 0.082552 0.227915
0.182854 0.082552 0.230114
0.183333 0.082552 0.232313
0.183813 0.082552 0.234513
0.184292 0.082552 0.236712
0.184771 0.082552 0.238911
0.183218 0.083773 0.241221
0.183697 0.083773 0.243418
0.184175 0.083773 0.245614
0.182625 0.084991 0.247914
0.183103 0.084991 0.250108
0.183581 0.084991 0.252302
0.184059 0.084991 0.254496
0.184537 0.084991 0.256690
0.185015 0.084991 0.258884
0.183465 0.086206 0.261165
0.183943 0.086206 0.263357
0.184421 0.086206 0.265548
0.184898 0.086206 0.267739
0.185376 0.086206 0.269931
0.185853 0.086206 0.272122
0.186331 0.086206 0.274313
0.186809 0.086206 0.276505
0.187286 0.086206 0.278696
0.187764 0.086206 0.280887
0.188241 0.086206 0.283079
0.188719 0.086206 0.285270
0.189197 0.086206 0.287462
0.189674 0.086206 0.289653
0.188121 0.087418 0.291896
0.190629 0.086206 0.294036
0.191107 0.086206 0.296227
0.191585 0.086206 0.298418
0.192062 0.086206 0.300610
0.192540 0.086206 0.302801
0.193018 0.086206 0.304992
0.193495 0.086206 0.307184
0.193973 0.086206 0.309375
0.194450 0.086206 0.311566
0.194928 0.086206 0.313758
0.195406 0.086206 0.315949
0.195883 0.086206 0.318140
0.196361 0.086206 0.320332
0.198882 0.084991 0.322507
0.199360 0.084991 0.324701
0.199839 0.084991 0.326895
0.202367 0.083773 0.329081
0.200795 0.084991 0.331283
0.203325 0.083773 0.333474
0.203803 0.083773 0.335670
0.204282 0.083773 0.337867
0.208882 0.081329 0.340073
0.211430 0.080102 0.342282
0.216062 0.077641 0.344507
-0.255153 0.249888 -0.468830
-0.259814 0.253309 -0.463837
-0.263187 0.255857 -0.459660
-0.265291 0.257548 -0.456281
-0.267388 0.259232 -0.452915
-0.269476 0.260909 -0.449562
-0.271557 0.262580 -0.446222
-0.272396 0.263413 -0.443650
-0.273234 0.264244 -0.441084
-0.274070 0.265074 -0.438522
-0.274905 0.265902 -0.435965
-0.274511 0.265902 -0.434157
-0.275344 0.266728 -0.431607
-0.274951 0.266728 -0.429801
-0.275783 0.267553 -0.427258
-0.276614 0.268377 -0.424720
-0.276221 0.268377 -0.422917
-0.277050 0.269198 -0.420385
-0.276658 0.269198 -0.418584
-0.277486 0.270019 -0.416059
-0.277094 0.270019 -0.414260
-0.277921 0.270837 -0.411741
-0.277529 0.270837 -0.409944
-0.278355 0.271654 -0.407432
-0.279179 0.272470 -0.404925
-0.278788 0.272470 -0.403131
-0.279611 0.273284 -0.400630
-0.279220 0.273284 -0.398838
-0.280042 0.274096 -0.396344
-0.279652 0.274096 -0.394553
-0.280472 0.274907 -0.392066
-0.281291 0.275716 -0.389583
-0.280902 0.275716 -0.387796
-0.281719 0.276524 -0.385319
-0.281330 0.276524 -0.383534
-0.282147 0.277330 -0.381064
-0.281758 0.277330 -0.379280
-0.282574 0.278135 -0.376816
-0.282185 0.278135 -0.375034
-0.284200 0.279739 -0.371903
-0.286207 0.281338 -0.368783
-0.287014 0.282135 -0.366341
-0.289010 0.283724 -0.363241
-0.289812 0.284517 -0.360811
-0.289427 0.284517 -0.359043
-0.289041 0.284517 -0.357274
-0.288656 0.284517 -0.355506
-0.289458 0.285308 -0.353086
-0.290258 0.286097 -0.350670
-0.289874 0.286097 -0.348905
-0.289489 0.286097 -0.347140
-0.290288 0.286885 -0.344732
-0.289904 0.286885 -0.342969
-0.289520 0.286885 -0.341205
-0.290319 0.287672 -0.338805
-0.288751 0.286885 -0.337678
-0.289551 0.287672 -0.335282
-0.289167 0.287672 -0.333520
-0.288783 0.287672 -0.331758
-0.289582 0.288457 -0.329369
-0.289198 0.288457 -0.327609
-0.289996 0.289240 -0.325227
-0.289612 0.289240 -0.323468
-0.289229 0.289240 -0.321710
-0.291204 0.290803 -0.318720
-0.290821 0.290803 -0.316965
-0.290439 0.290803 -0.315209
-0.291233 0.291582 -0.312845
-0.290851 0.291582 -0.311092
-0.290469 0.291582 -0.309338
-0.291262 0.292360 -0.306982
-0.290880 0.292360 -0.305230
-0.291673 0.293136 -0.302879
-0.291291 0.293136 -0.301129
-0.290910 0.293136 -0.299379
-0.291701 0.293911 -0.297036
-0.291320 0.293911 -0.295287
-0.292111 0.294684 -0.292950
-0.291730 0.294684 -0.291204
-0.291349 0.294684 -0.289457
-0.292139 0.295456 -0.287127
-0.291759 0.295456 -0.285382
-0.291378 0.295456 -0.283637
-0.292167 0.296227 -0.281315
-0.291787 0.296227 -0.279572
-0.291407 0.296227 -0.277828
-0.292195 0.296996 -0.275514
-0.291816 0.296996 -0.273772
-0.292603 0.297763 -0.271464
-0.292223 0.297763 -0.269723
-0.291844 0.297763 -0.267983
-0.292630 0.298529 -0.265682
-0.292251 0.298529 -0.263943
-0.291872 0.298529 -0.262205
-0.292658 0.299294 -0.259911
-0.292279 0.299294 -0.258174
-0.291901 0.299294 -0.256437
-0.291522 0.299294 -0.254700
-0.292307 0.300057 -0.252416
-0.291929 0.300057 -0.250680
-0.291551 0.300057 -0.248945
-0.291172 0.300057 -0.247209
-0.290794 0.300057 -0.245474
-0.290416 0.300057 -0.243738
-0.288872 0.299294 -0.242540
-0.288493 0.299294 -0.240802
-0.288114 0.299294 -0.239065
-0.286567 0.298529 -0.237861
-0.286188 0.298529 -0.236122
-0.285809 0.298529 -0.234384
-0.286600 0.299294 -0.232116
-0.286221 0.299294 -0.230379
-0.287011 0.300057 -0.228118
-0.287800 0.300819 -0.225861
-0.287422 0.300819 -0.224127
-0.287044 0.300819 -0.222393
-0.287832 0.301580 -0.220143
-0.287454 0.301580 -0.218411
-0.287077 0.301580 -0.216678
-0.287864 0.302339 -0.214436
-0.287487 0.302339 -0.212705
-0.288273 0.303096 -0.210468
-0.287896 0.303096 -0.208739
-0.288681 0.303853 -0.206508
-0.288304 0.303853 -0.204781
-0.287928 0.303853 -0.203053
-0.287551 0.303853 -0.201326
-0.288336 0.304608 -0.199103
-0.286798 0.303853 -0.197870
-0.286421 0.303853 -0.196143
-0.287207 0.304608 -0.193926
-0.286831 0.304608 -0.192200
-0.286455 0.304608 -0.190474
-0.286078 0.304608 -0.188748
-0.285702 0.304608 -0.187022
-0.286488 0.305361 -0.184815
-0.286112 0.305361 -0.183091
-0.285736 0.305361 -0.181366
-0.286521 0.306113 -0.179167
-0.286145 0.306113 -0.177444
-0.285770 0.306113 -0.175721
-0.285394 0.306113 -0.173998
-0.285019 0.306113 -0.172276
-0.285803 0.306864 -0.170086
-0.285428 0.306864 -0.168365
-0.285053 0.306864 -0.166644
-0.284678 0.306864 -0.164923
-0.284303 0.306864 -0.163202
-0.283928 0.306864 -0.161480
-0.283553 0.306864 -0.159759
-0.283177 0.306864 -0.158038
-0.282802 0.306864 -0.156317
-0.282427 0.306864 -0.154596
-0.282052 0.306864 -0.152874
-0.281677 0.306864 -0.151153
-0.281302 0.306864 -0.149432
-0.280927 0.306864 -0.147711
-0.280551 0.306864 -0.145990
-0.279011 0.306113 -0.144711
-0.278636 0.306113 -0.142988
-0.279426 0.306864 -0.140826
-0.279051 0.306864 -0.139105
-0.278676 0.306864 -0.137384
-0.278301 0.306864 -0.135663
-0.277926 0.306864 -0.133941
-0.277550 0.306864 -0.132220
-0.277175 0.306864 -0.130499
-0.276800 0.306864 -0.128778
-0.276425 0.306864 -0.127057
-0.276050 0.306864 -0.125335
-0.275675 0.306864 -0.123614
-0.275300 0.306864 -0.121893
-0.274924 0.306864 -0.120172
-0.274549 0.306864 -0.118451
-0.274174 0.306864 -0.116729
-0.273799 0.306864 -0.115008
-0.272252 0.306113 -0.113701
-0.271877 0.306113 -0.111978
-0.271501 0.306113 -0.110256
-0.269951 0.305361 -0.108943
-0.269575 0.305361 -0.107218
-0.269199 0.305361 -0.105494
-0.268824 0.305361 -0.103770
-0.268448 0.305361 -0.102045
-0.266893 0.304608 -0.100724
-0.266517 0.304608 -0.098998
-0.264960 0.303853 -0.097672
-0.264583 0.303853 -0.095945
-0.264207 0.303853 -0.094217
-0.263830 0.303853 -0.092490
-0.262268 0.303096 -0.091157
-0.261892 0.303096 -0.089428
-0.261515 0.303096 -0.087698
-0.261138 0.303096 -0.085969
-0.260761 0.303096 -0.084240
-0.259195 0.302339 -0.082898
-0.258818 0.302339 -0.081168
-0.258441 0.302339 -0.079437
-0.256871 0.301580 -0.078089
-0.256493 0.301580 -0.076357
-0.254921 0.300819 -0.075006
-0.254543 0.300819 -0.073272
-0.252967 0.300057 -0.071916
-0.252589 0.300057 -0.070180
-0.251009 0.299294 -0.068821
-0.250631 0.299294 -0.067083
-0.250252 0.299294 -0.065346
-0.248669 0.298529 -0.063981
-0.247083 0.297763 -0.062613
-0.246704 0.297763 -0.060872
-0.245115 0.296996 -0.059500
-0.244735 0.296996 -0.057758
-0.243142 0.296227 -0.056382
-0.242762 0.296227 -0.054638
-0.241167 0.295456 -0.053257
-0.240786 0.295456 -0.051512
-0.239187 0.294684 -0.050127
-0.238806 0.294684 -0.048380
-0.237204 0.293911 -0.046991
-0.236823 0.293911 -0.045243
-0.235217 0.293136 -0.043849
-0.234835 0.293136 -0.042099
-0.234454 0.293136 -0.040349
-0.232844 0.292360 -0.038950
-0.232462 0.292360 -0.037198
-0.230849 0.291582 -0.035794
-0.230467 0.291582 -0.034041
-0.228851 0.290803 -0.032633
-0.227231 0.290022 -0.031223
-0.226848 0.290022 -0.029466
-0.225226 0.289240 -0.028051
-0.223600 0.288457 -0.026634
-0.221971 0.287672 -0.025214
-0.221587 0.287672 -0.023452
-0.219954 0.286885 -0.022028
-0.218319 0.286097 -0.020601
-0.216680 0.285308 -0.019171
-0.216295 0.285308 -0.017404
-0.214653 0.284517 -0.015970
-0.213008 0.283724 -0.014533
-0.210095 0.282135 -0.013425
-0.209709 0.282135 -0.011651
-0.208054 0.281338 -0.010206
-0.207667 0.281338 -0.008431
-0.206009 0.280539 -0.006982
-0.204348 0.279739 -0.005529
-0.202684 0.278938 -0.004074
-0.202296 0.278938 -0.002294
-0.200628 0.278135 -0.000835
-0.198957 0.277330 0.000627
-0.197282 0.276524 0.002092
-0.195605 0.275716 0.003560
-0.195215 0.275716 0.005347
-0.193534 0.274907 0.006820
-0.191850 0.274096 0.008295
-0.190163 0.273284 0.009773
-0.188472 0.272470 0.011254
-0.186778 0.271654 0.012738
-0.185081 0.270837 0.014224
-0.184689 0.270837 0.016021
-0.182988 0.270019 0.017513
-0.181284 0.269198 0.019007
-0.180891 0.269198 0.020807
-0.179183 0.268377 0.022306
-0.177472 0.267553 0.023808
-0.175758 0.266728 0.025312
-0.174040 0.265902 0.026819
-0.173646 0.265902 0.028627
-0.171925 0.265074 0.030139
-0.170200 0.264244 0.031654
-0.168472 0.263413 0.033172
-0.166740 0.262580 0.034693
-0.166345 0.262580 0.036508
-0.164609 0.261745 0.038033
-0.162871 0.260909 0.039562
-0.161129 0.260071 0.041093
-0.159383 0.259232 0.042628
-0.157634 0.258390 0.044165
-0.155882 0.257548 0.045706
-0.154127 0.256703 0.047249
-0.152368 0.255857 0.048796
-0.150605 0.255009 0.050345
-0.148839 0.254160 0.051898
-0.147070 0.253309 0.053453
-0.146670 0.253309 0.055288
-0.144896 0.252456 0.056848
-0.143120 0.251602 0.058412
-0.141339 0.250746 0.059978
-0.140938 0.250746 0.061818
-0.139154 0.249888 0.063390
-0.137366 0.249029 0.064964
-0.135575 0.248167 0.066542
-0.133780 0.247305 0.068123
-0.130583 0.245574 0.069443
-0.128778 0.244706 0.071032
-0.126970 0.243836 0.072623
-0.125157 0.242965 0.074218
-0.121927 0.241217 0.075557
-0.118685 0.239461 0.076901
-0.115429 0.237699 0.078251
-0.112160 0.235930 0.079606
-0.108878 0.234154 0.080967
-0.107027 0.233263 0.082588
-0.103725 0.231476 0.083959
-0.101864 0.230580 0.085587
-0.098541 0.228782 0.086968
-0.095205 0.226977 0.088355
-0.093326 0.226072 0.089996
-0.089969 0.224256 0.091393
-0.086599 0.222433 0.092796
-0.083215 0.220602 0.094204
-0.079817 0.218764 0.095618
-0.076405 0.216918 0.097038
-0.072979 0.215064 0.098463
-0.066504 0.211335 0.099409
-0.059976 0.207574 0.100363
-0.054939 0.204733 0.101567
-0.048315 0.200918 0.102537
-0.043204 0.198035 0.103757
-0.036482 0.194164 0.104743
-0.029704 0.190260 0.105737
-0.022868 0.186323 0.106740
-0.015974 0.182352 0.107751
-0.010657 0.179352 0.109013
-0.003659 0.175322 0.110041
0.005063 0.170236 0.110836
0.015567 0.164060 0.111398
0.024498 0.158851 0.112210
0.038723 0.150399 0.112297
0.051434 0.142880 0.112633
0.067938 0.133041 0.112476
0.086618 0.121873 0.112064
0.103841 0.111604 0.111897
0.123346 0.099944 0.111469
0.127678 0.097580 0.113113
0.132030 0.095204 0.114764
0.136403 0.092818 0.116423
0.138834 0.091620 0.118344
0.143238 0.089217 0.120017
0.145686 0.088011 0.121948
0.148139 0.086803 0.123884
0.152585 0.084377 0.125579
0.157052 0.081940 0.127281
0.159534 0.080717 0.129234
0.164033 0.078263 0.130951
0.168554 0.075797 0.132676
0.173096 0.073319 0.134409
0.177660 0.070829 0.136150
0.182245 0.068328 0.137900
0.182730 0.068328 0.140125
0.183215 0.068328 0.142350
0.183700 0.068328 0.144576
0.182129 0.069580 0.147026
0.182614 0.069580 0.149248
0.183098 0.069580 0.151471
0.183583 0.069580 0.153694
0.182014 0.070829 0.156130
0.182498 0.070829 0.158350
0.182982 0.070829 0.160570
0.183466 0.070829 0.162790
0.181899 0.072076 0.165213
0.182382 0.072076 0.167430
0.182866 0.072076 0.169647
0.183349 0.072076 0.171865
0.181784 0.073319 0.174274
0.182267 0.073319 0.176489
0.182750 0.073319 0.178703
0.183232 0.073319 0.180918
0.183715 0.073319 0.183133
0.184198 0.073319 0.185347
0.182634 0.074559 0.187738
0.183116 0.074559 0.189950
0.183599 0.074559 0.192162
0.184081 0.074559 0.194374
0.184563 0.074559 0.196586
0.183001 0.075797 0.198960
0.183482 0.075797 0.201170
0.183964 0.075797 0.203379
0.184445 0.075797 0.205589
0.184927 0.075797 0.207798
0.183366 0.077031 0.210156
0.183847 0.077031 0.212363
0.184328 0.077031 0.214570
0.184809 0.077031 0.216777
0.183250 0.078263 0.219122
0.183730 0.078263 0.221326
0.182175 0.079491 0.223663
0.182654 0.079491 0.225864
0.183134 0.079491 0.228066
0.183614 0.079491 0.230268
0.182060 0.080717 0.232591
0.182540 0.080717 0.234790
0.183019 0.080717 0.236989
0.183498 0.080717 0.239188
0.183978 0.080717 0.241387
0.184457 0.080717 0.243586
0.182904 0.081940 0.245891
0.183383 0.081940 0.248088
0.183861 0.081940 0.250284
0.182311 0.083160 0.252579
0.182789 0.083160 0.254773
0.183267 0.083160 0.256967
0.183745 0.083160 0.259161
0.184224 0.083160 0.261354
0.184702 0.083160 0.263548
0.183152 0.084377 0.265825
0.183630 0.084377 0.268016
0.184107 0.084377 0.270207
0.184585 0.084377 0.272399
0.185063 0.084377 0.274590
0.185540 0.084377 0.276781
0.186018 0.084377 0.278973
0.186495 0.084377 0.281164
0.186973 0.084377 0.283355
0.187451 0.084377 0.285547
0.187928 0.084377 0.287738
0.188406 0.084377 0.289929
0.188883 0.084377 0.292121
0.189361 0.084377 0.294312
0.189839 0.084377 0.296503
0.190316 0.084377 0.298695
0.190794 0.084377 0.300886
0.191271 0.084377 0.303077
0.191749 0.084377 0.305269
0.192227 0.084377 0.307460
0.192704 0.084377 0.309651
0.193182 0.084377 0.311843
0.193659 0.084377 0.314034
0.194137 0.084377 0.316225
0.194615 0.084377 0.318417
0.197134 0.083160 0.320590
0.197612 0.083160 0.322784
0.198090 0.083160 0.324978
0.200617 0.081940 0.327162
0.201096 0.081940 0.329358
0.199525 0.083160 0.331560
0.202053 0.081940 0.333751
0.202532 0.081940 0.335948
0.203011 0.081940 0.338144
0.207607 0.079491 0.340351
0.208087 0.079491 0.342553
0.212706 0.077031 0.344775
-0.257487 0.249210 -0.467806
-0.262134 0.252631 -0.462822
-0.265497 0.255178 -0.458652
-0.267595 0.256868 -0.455278
-0.269685 0.258552 -0.451917
-0.271767 0.260229 -0.448569
-0.272607 0.261065 -0.445993
-0.274677 0.262732 -0.442666
-0.275512 0.263564 -0.440103
-0.276345 0.264393 -0.437545
-0.277177 0.265221 -0.434992
-0.276783 0.265221 -0.433186
-0.277614 0.266048 -0.430639
-0.277221 0.266048 -0.428835
-0.278050 0.266872 -0.426295
-0.277657 0.266872 -0.424492
-0.278485 0.267696 -0.421959
-0.278092 0.267696 -0.420158
-0.278919 0.268517 -0.417631
-0.278527 0.268517 -0.415832
-0.279353 0.269337 -0.413312
-0.280177 0.270156 -0.410797
-0.279785 0.270156 -0.409001
-0.280608 0.270973 -0.406492
-0.280217 0.270973 -0.404698
-0.281039 0.271788 -0.402196
-0.280648 0.271788 -0.400404
-0.281468 0.272602 -0.397908
-0.282287 0.273414 -0.395417
-0.281897 0.273414 -0.393629
-0.282715 0.274225 -0.391144
-0.282326 0.274225 -0.389357
-0.283142 0.275034 -0.386879
-0.282753 0.275034 -0.385094
-0.283568 0.275841 -0.382622
-0.283179 0.275841 -0.380839
-0.283993 0.276647 -0.378373
-0.284806 0.277452 -0.375913
-0.284418 0.277452 -0.374133
-0.286426 0.279056 -0.371006
-0.288427 0.280655 -0.367891
-0.289231 0.281452 -0.365452
-0.291221 0.283041 -0.362357
-0.290836 0.283041 -0.360588
-0.290450 0.283041 -0.358820
-0.291251 0.283833 -0.356396
-0.290866 0.283833 -0.354630
-0.291665 0.284624 -0.352212
-0.291280 0.284624 -0.350447
-0.292078 0.285413 -0.348036
-0.291694 0.285413 -0.346273
-0.291309 0.285413 -0.344510
-0.292106 0.286201 -0.342106
-0.291722 0.286201 -0.340345
-0.291339 0.286201 -0.338583
-0.290955 0.286201 -0.336821
-0.290571 0.286201 -0.335059
-0.291368 0.286988 -0.332668
-0.290984 0.286988 -0.330907
-0.290600 0.286988 -0.329147
-0.291397 0.287773 -0.326763
-0.291014 0.287773 -0.325005
-0.291809 0.288556 -0.322627
-0.291426 0.288556 -0.320870
-0.292220 0.289338 -0.318498
-0.293012 0.290119 -0.316131
-0.292630 0.290119 -0.314377
-0.292248 0.290119 -0.312624
-0.293040 0.290898 -0.310264
-0.292658 0.290898 -0.308512
-0.293449 0.291675 -0.306159
-0.293067 0.291675 -0.304409
-0.292686 0.291675 -0.302658
-0.293476 0.292452 -0.300312
-0.293095 0.292452 -0.298564
-0.292714 0.292452 -0.296815
-0.293503 0.293226 -0.294477
-0.293122 0.293226 -0.292730
-0.293910 0.293999 -0.290398
-0.293530 0.293999 -0.288653
-0.293149 0.293999 -0.286907
-0.293937 0.294771 -0.284583
-0.293557 0.294771 -0.282839
-0.293177 0.294771 -0.281095
-0.293963 0.295542 -0.278778
-0.293583 0.295542 -0.277036
-0.294369 0.296311 -0.274725
-0.293989 0.296311 -0.272984
-0.293610 0.296311 -0.271244
-0.294395 0.297078 -0.268940
-0.294016 0.297078 -0.267202
-0.293637 0.297078 -0.265463
-0.294421 0.297844 -0.263167
-0.294042 0.297844 -0.261429
-0.293664 0.297844 -0.259692
-0.294447 0.298609 -0.257404
-0.294068 0.298609 -0.255668
-0.293690 0.298609 -0.253933
-0.293312 0.298609 -0.252197
-0.292934 0.298609 -0.250461
-0.292555 0.298609 -0.248726
-0.292177 0.298609 -0.246990
-0.291799 0.298609 -0.245255
-0.291420 0.298609 -0.243519
-0.291042 0.298609 -0.241783
-0.289499 0.297844 -0.240583
-0.289120 0.297844 -0.238846
-0.288741 0.297844 -0.237109
-0.287194 0.297078 -0.235903
-0.287984 0.297844 -0.233634
-0.287605 0.297844 -0.231897
-0.287227 0.297844 -0.230160
-0.289182 0.299372 -0.227376
-0.288804 0.299372 -0.225642
-0.288426 0.299372 -0.223908
-0.289212 0.300134 -0.221657
-0.288835 0.300134 -0.219924
-0.288457 0.300134 -0.218192
-0.289243 0.300894 -0.215948
-0.288866 0.300894 -0.214217
-0.289650 0.301653 -0.211979
-0.289274 0.301653 -0.210250
-0.290057 0.302411 -0.208018
-0.289681 0.302411 -0.206290
-0.289304 0.302411 -0.204563
-0.288928 0.302411 -0.202835
-0.289711 0.303167 -0.200612
-0.289335 0.303167 -0.198886
-0.288958 0.303167 -0.197160
-0.288582 0.303167 -0.195434
-0.288206 0.303167 -0.193708
-0.287830 0.303167 -0.191982
-0.287454 0.303167 -0.190256
-0.288237 0.303922 -0.188046
-0.287862 0.303922 -0.186322
-0.287486 0.303922 -0.184597
-0.288269 0.304675 -0.182395
-0.287893 0.304675 -0.180672
-0.287518 0.304675 -0.178949
-0.287142 0.304675 -0.177227
-0.286767 0.304675 -0.175504
-0.287550 0.305427 -0.173312
-0.287175 0.305427 -0.171590
-0.286800 0.305427 -0.169869
-0.286425 0.305427 -0.168148
-0.286049 0.305427 -0.166427
-0.286832 0.306178 -0.164245
-0.285299 0.305427 -0.162984
-0.284924 0.305427 -0.161263
-0.284549 0.305427 -0.159542
-0.284174 0.305427 -0.157821
-0.283799 0.305427 -0.156100
-0.283423 0.305427 -0.154379
-0.283048 0.305427 -0.152657
-0.282673 0.305427 -0.150936
-0.282298 0.305427 -0.149215
-0.281923 0.305427 -0.147494
-0.281548 0.305427 -0.145773
-0.281173 0.305427 -0.144051
-0.280798 0.305427 -0.142330
-0.281585 0.306178 -0.140171
-0.280047 0.305427 -0.138888
-0.279672 0.305427 -0.137167
-0.279297 0.305427 -0.135445
-0.278922 0.305427 -0.133724
-0.278547 0.305427 -0.132003
-0.278172 0.305427 -0.130282
-0.277796 0.305427 -0.128561
-0.277421 0.305427 -0.126839
-0.277046 0.305427 -0.125118
-0.276671 0.305427 -0.123397
-0.276296 0.305427 -0.121676
-0.275921 0.305427 -0.119955
-0.275546 0.305427 -0.118233
-0.275170 0.305427 -0.116512
-0.274795 0.305427 -0.114791
-0.274420 0.305427 -0.113070
-0.274045 0.305427 -0.111349
-0.272499 0.304675 -0.110038
-0.272123 0.304675 -0.108315
-0.271748 0.304675 -0.106593
-0.271372 0.304675 -0.104870
-0.269822 0.303922 -0.103552
-0.269446 0.303922 -0.101828
-0.267893 0.303167 -0.100506
-0.267516 0.303167 -0.098780
-0.267140 0.303167 -0.097054
-0.266764 0.303167 -0.095328
-0.265207 0.302411 -0.093999
-0.264830 0.302411 -0.092272
-0.264454 0.302411 -0.090544
-0.264077 0.302411 -0.088816
-0.263700 0.302411 -0.087089
-0.263324 0.302411 -0.085361
-0.261762 0.301653 -0.084022
-0.261385 0.301653 -0.082293
-0.261008 0.301653 -0.080564
-0.259442 0.300894 -0.079218
-0.259065 0.300894 -0.077488
-0.258688 0.300894 -0.075757
-0.257119 0.300134 -0.074406
-0.255547 0.299372 -0.073053
-0.255169 0.299372 -0.071319
-0.253593 0.298609 -0.069961
-0.253215 0.298609 -0.068226
-0.251636 0.297844 -0.066864
-0.251258 0.297844 -0.065127
-0.250879 0.297844 -0.063390
-0.249297 0.297078 -0.062023
-0.247711 0.296311 -0.060653
-0.247332 0.296311 -0.058912
-0.245743 0.295542 -0.057538
-0.245364 0.295542 -0.055796
-0.243772 0.294771 -0.054418
-0.243392 0.294771 -0.052674
-0.241796 0.293999 -0.051292
-0.241416 0.293999 -0.049546
-0.239817 0.293226 -0.048160
-0.239437 0.293226 -0.046413
-0.237835 0.292452 -0.045022
-0.237454 0.292452 -0.043273
-0.235848 0.291675 -0.041878
-0.235467 0.291675 -0.040128
-0.233858 0.290898 -0.038729
-0.233476 0.290898 -0.036977
-0.233095 0.290898 -0.035225
-0.231482 0.290119 -0.033820
-0.231100 0.290119 -0.032066
-0.229484 0.289338 -0.030657
-0.227865 0.288556 -0.029244
-0.227483 0.288556 -0.027488
-0.225860 0.287773 -0.026071
-0.224235 0.286988 -0.024652
-0.222607 0.286201 -0.023230
-0.222223 0.286201 -0.021468
-0.220591 0.285413 -0.020042
-0.218956 0.284624 -0.018613
-0.217318 0.283833 -0.017181
-0.216933 0.283833 -0.015415
-0.215292 0.283041 -0.013979
-0.212385 0.281452 -0.012870
-0.210735 0.280655 -0.011428
-0.210349 0.280655 -0.009654
-0.208695 0.279856 -0.008207
-0.207038 0.279056 -0.006758
-0.205377 0.278255 -0.005305
-0.204990 0.278255 -0.003527
-0.203326 0.277452 -0.002070
-0.202938 0.277452 -0.000289
-0.201271 0.276647 0.001172
-0.199600 0.275841 0.002636
-0.197927 0.275034 0.004103
-0.196250 0.274225 0.005573
-0.195860 0.274225 0.007360
-0.194180 0.273414 0.008834
-0.192496 0.272602 0.010311
-0.190809 0.271788 0.011791
-0.189119 0.270973 0.013274
-0.187426 0.270156 0.014760
-0.185729 0.269337 0.016248
-0.185337 0.269337 0.018045
-0.183637 0.268517 0.019539
-0.181934 0.267696 0.021035
-0.180227 0.266872 0.022533
-0.179834 0.266872 0.024336
-0.178123 0.266048 0.025839
-0.176410 0.265221 0.027346
-0.176016 0.265221 0.029152
-0.174299 0.264393 0.030663
-0.172578 0.263564 0.032177
-0.170854 0.262732 0.033694
-0.169126 0.261900 0.035214
-0.168731 0.261900 0.037027
-0.167000 0.261065 0.038551
-0.165265 0.260229 0.040079
-0.163527 0.259391 0.041609
-0.161786 0.258552 0.043143
-0.160041 0.257711 0.044679
-0.158293 0.256868 0.046219
-0.156541 0.256024 0.047761
-0.154786 0.255178 0.049307
-0.153028 0.254331 0.050855
-0.151266 0.253482 0.052407
-0.149500 0.252631 0.053961
-0.149101 0.252631 0.055794
-0.147332 0.251778 0.057353
-0.145559 0.250924 0.058916
-0.143783 0.250068 0.060481
-0.142003 0.249210 0.062050
-0.141602 0.249210 0.063890
-0.139819 0.248351 0.065464
-0.138032 0.247490 0.067040
-0.136241 0.246627 0.068620
-0.134447 0.245763 0.070203
-0.131251 0.244029 0.071527
-0.129447 0.243160 0.073118
-0.127639 0.242288 0.074712
-0.125827 0.241415 0.076308
-0.121182 0.238786 0.077394
-0.117935 0.237025 0.078744
-0.114674 0.235256 0.080099
-0.111401 0.233480 0.081459
-0.109555 0.232589 0.083078
-0.106261 0.230803 0.084449
-0.104404 0.229907 0.086076
-0.101090 0.228110 0.087457
-0.097762 0.226305 0.088843
-0.095888 0.225400 0.090483
-0.092539 0.223585 0.091880
-0.089178 0.221762 0.093282
-0.085802 0.219931 0.094690
-0.082413 0.218093 0.096103
-0.079010 0.216248 0.097523
-0.075593 0.214395 0.098948
-0.070650 0.211602 0.100137
-0.064152 0.207850 0.101092
-0.059138 0.205016 0.102296
-0.052545 0.201210 0.103267
-0.047459 0.198334 0.104487
-0.040769 0.194472 0.105474
-0.034023 0.190577 0.106469
-0.027219 0.186650 0.107472
-0.020359 0.182689 0.108484
-0.015066 0.179697 0.109746
-0.008103 0.175677 0.110775
0.002237 0.169582 0.111332
0.011029 0.164443 0.112137
0.021616 0.158202 0.112710
0.034070 0.150817 0.113045
0.048475 0.142238 0.113141
0.064930 0.132403 0.112989
0.081720 0.122368 0.112834
0.100728 0.110977 0.112422
0.120174 0.099323 0.112000
0.128362 0.094586 0.113128
0.130775 0.093394 0.115038
0.135145 0.091004 0.116697
0.139535 0.088602 0.118365
0.141975 0.087397 0.120292
0.144422 0.086189 0.122224
0.148854 0.083765 0.123912
0.153307 0.081329 0.125608
0.157781 0.078882 0.127313
0.160266 0.077654 0.129269
0.164773 0.075189 0.130987
0.169301 0.072713 0.132714
0.173850 0.070225 0.134450
0.178421 0.067725 0.136193
0.183013 0.065214 0.137945
0.183499 0.065214 0.140173
0.181927 0.066471 0.142631
0.182412 0.066471 0.144856
0.182897 0.066471 0.147082
0.183382 0.066471 0.149307
0.181812 0.067725 0.151751
0.182296 0.067725 0.153974
0.182781 0.067725 0.156197
0.183265 0.067725 0.158419
0.181697 0.068977 0.160850
0.182181 0.068977 0.163070
0.182665 0.068977 0.165290
0.183148 0.068977 0.167510
0.181582 0.070225 0.169927
0.182066 0.070225 0.172144
0.182549 0.070225 0.174362
0.183032 0.070225 0.176579
0.181468 0.071471 0.178983
0.181950 0.071471 0.181197
0.182433 0.071471 0.183412
0.182916 0.071471 0.185627
0.183399 0.071471 0.187842
0.183881 0.071471 0.190056
0.184364 0.071471 0.192271
0.182800 0.072713 0.194653
0.183282 0.072713 0.196865
0.183764 0.072713 0.199077
0.184247 0.072713 0.201289
0.184729 0.072713 0.203501
0.183166 0.073953 0.205867
0.183648 0.073953 0.208077
0.184129 0.073953 0.210286
0.184611 0.073953 0.212496
0.185093 0.073953 0.214705
0.183531 0.075189 0.217055
0.181974 0.076423 0.219400
0.182454 0.076423 0.221604
0.182935 0.076423 0.223808
0.183415 0.076423 0.226013
0.183896 0.076423 0.228217
0.182340 0.077654 0.230545
0.182820 0.077654 0.232747
0.183299 0.077654 0.234949
0.183779 0.077654 0.237150
0.182225 0.078882 0.239466
0.182705 0.078882 0.241665
0.183184 0.078882 0.243864
0.183663 0.078882 0.246063
0.184142 0.078882 0.248262
0.184622 0.078882 0.250461
0.183069 0.080107 0.252758
0.183547 0.080107 0.254954
0.184026 0.080107 0.257151
0.184505 0.080107 0.259347
0.182954 0.081329 0.261631
0.183432 0.081329 0.263825
0.183910 0.081329 0.266019
0.184388 0.081329 0.268213
0.184866 0.081329 0.270407
0.183316 0.082548 0.272675
0.183794 0.082548 0.274866
0.186301 0.081329 0.276989
0.186779 0.081329 0.279183
0.187257 0.081329 0.281376
0.187735 0.081329 0.283570
0.186182 0.082548 0.285823
0.186660 0.082548 0.288014
