ply
format ascii 1.0
element vertex 1723
property float x
property float y
property float z
end_header
0.128636 0.112243 0.110235
0.130171 0.110755 0.112361
0.132294 0.110755 0.112912
0.133823 0.109270 0.115033
0.135944 0.109270 0.115583
0.137466 0.107789 0.117698
0.139585 0.107789 0.118247
0.141704 0.107789 0.118797
0.143823 0.107789 0.119346
0.145942 0.107789 0.119896
0.147451 0.106311 0.122003
0.149567 0.106311 0.122552
0.151684 0.106311 0.123101
0.153185 0.104837 0.125203
0.155299 0.104837 0.125751
0.157413 0.104837 0.126299
0.158905 0.103365 0.128395
0.161017 0.103365 0.128942
0.163129 0.103365 0.129490
0.092270 -0.067452 0.309508
0.093155 -0.069659 0.312301
0.094510 -0.070760 0.313930
0.095861 -0.071858 0.315556
0.097211 -0.072954 0.317179
0.098557 -0.074048 0.318799
0.099901 -0.075140 0.320415
0.101242 -0.076229 0.322028
0.102581 -0.077317 0.323638
0.104396 -0.077317 0.324109
0.106212 -0.077317 0.324580
0.108027 -0.077317 0.325051
0.109843 -0.077317 0.325521
0.111658 -0.077317 0.325992
0.113474 -0.077317 0.326463
0.115289 -0.077317 0.326934
0.117598 -0.076229 0.326269
0.119415 -0.076229 0.326741
0.121730 -0.075140 0.326075
0.123549 -0.075140 0.326547
0.125871 -0.074048 0.325881
0.128196 -0.072954 0.325214
0.130527 -0.071858 0.324545
0.132351 -0.071858 0.325018
0.134688 -0.070760 0.324349
0.137029 -0.069659 0.323678
0.139375 -0.068557 0.323006
0.141726 -0.067452 0.322332
0.144081 -0.066345 0.321657
0.146441 -0.065236 0.320981
0.149337 -0.063011 0.319148
0.152243 -0.060778 0.317307
0.154623 -0.059658 0.316623
0.157008 -0.058535 0.315938
0.159397 -0.057411 0.315251
0.162338 -0.055155 0.313394
0.164740 -0.054023 0.312703
0.167147 -0.052890 0.312010
0.170116 -0.050615 0.310139
0.172535 -0.049475 0.309441
0.174959 -0.048332 0.308743
0.177956 -0.046040 0.306857
0.180393 -0.044890 0.306154
0.182835 -0.043738 0.305449
0.184130 -0.044890 0.307123
0.185423 -0.046040 0.308793
0.187289 -0.046040 0.309277
0.189736 -0.044890 0.308576
0.191605 -0.044890 0.309061
0.193473 -0.044890 0.309545
0.195342 -0.044890 0.310030
0.197799 -0.043738 0.309329
0.199670 -0.043738 0.309814
0.202134 -0.042583 0.309112
0.204602 -0.041427 0.308409
0.207076 -0.040268 0.307704
0.209555 -0.039106 0.306998
0.212039 -0.037943 0.306291
0.214528 -0.036776 0.305582
0.217636 -0.034437 0.303670
0.220138 -0.033264 0.302957
0.223267 -0.030910 0.301034
0.226408 -0.028547 0.299104
0.228932 -0.027361 0.298382
0.232094 -0.024983 0.296440
0.235270 -0.022596 0.294490
0.237816 -0.021398 0.293759
0.241014 -0.018996 0.291798
0.244224 -0.016583 0.289829
0.246793 -0.015373 0.289089
0.250025 -0.012946 0.287108
0.253271 -0.010508 0.285119
0.256530 -0.008060 0.283121
0.259803 -0.005603 0.281115
0.263090 -0.003134 0.279101
0.266390 -0.000656 0.277078
0.269018 0.000588 0.276315
0.272341 0.003082 0.274280
0.275678 0.005586 0.272236
0.279030 0.008102 0.270184
0.280985 0.008102 0.270691
0.282236 0.006843 0.272478
0.282780 0.004333 0.275534
0.284024 0.003082 0.277310
0.285267 0.001833 0.279082
0.286506 0.000588 0.280850
0.287743 -0.000656 0.282614
0.288977 -0.001896 0.284375
0.290209 -0.003134 0.286133
0.291438 -0.004370 0.287886
0.292665 -0.005603 0.289636
0.293889 -0.006833 0.291382
0.295111 -0.008060 0.293125
0.297040 -0.008060 0.293625
0.298257 -0.009286 0.295364
0.299471 -0.010508 0.297098
0.301396 -0.010508 0.297598
0.302606 -0.011728 0.299328
0.303813 -0.012946 0.301055
0.305734 -0.012946 0.301554
0.306937 -0.014161 0.303277
0.308138 -0.015373 0.304996
0.310055 -0.015373 0.305493
0.311251 -0.016583 0.307209
0.312444 -0.017791 0.308920
0.313635 -0.018996 0.310629
0.315546 -0.018996 0.311124
0.316733 -0.020198 0.312828
0.318642 -0.020198 0.313324
0.320551 -0.020198 0.313819
0.322460 -0.020198 0.314314
0.323639 -0.021398 0.316013
0.325546 -0.021398 0.316507
0.327453 -0.021398 0.317002
0.329360 -0.021398 0.317496
0.330530 -0.022596 0.319191
0.332435 -0.022596 0.319685
0.333601 -0.023791 0.321375
0.336989 -0.021398 0.319475
0.338896 -0.021398 0.319969
0.340803 -0.021398 0.320464
0.342710 -0.021398 0.320958
0.345370 -0.020198 0.320254
0.347279 -0.020198 0.320749
0.349188 -0.020198 0.321244
0.351097 -0.020198 0.321739
0.353768 -0.018996 0.321035
0.355680 -0.018996 0.321531
0.358358 -0.017791 0.320826
0.361042 -0.016583 0.320119
0.363732 -0.015373 0.319411
0.366427 -0.014161 0.318702
0.369911 -0.011728 0.316780
0.372621 -0.010508 0.316066
0.376129 -0.008060 0.314133
0.378854 -0.006833 0.313414
0.382386 -0.004370 0.311469
0.385933 -0.001896 0.309516
0.388683 -0.000656 0.308788
0.392254 0.001833 0.306823
0.396663 0.005586 0.303607
0.401101 0.009363 0.300371
0.404729 0.011895 0.298372
0.409215 0.015712 0.295102
0.413731 0.019553 0.291811
0.418275 0.023420 0.288499
0.423717 0.028613 0.283878
0.428328 0.032538 0.280516
0.435631 0.040464 0.273204
0.445752 0.052548 0.261793
0.457940 0.067645 0.247419
-0.381144 0.159932 -0.080872
-0.378990 0.148801 -0.067355
-0.376841 0.142522 -0.059489
-0.374699 0.137851 -0.053498
-0.372603 0.130140 -0.043978
-0.370513 0.124035 -0.036330
-0.368424 0.119494 -0.030501
-0.366327 0.116484 -0.026454
-0.364264 0.111995 -0.020693
-0.362188 0.109019 -0.016691
-0.360122 0.106057 -0.012707
-0.358066 0.103108 -0.008742
-0.355985 0.101639 -0.006492
-0.353945 0.098711 -0.002554
-0.351877 0.097251 -0.000319
-0.349853 0.094343 0.003591
-0.347796 0.092893 0.005812
-0.345788 0.090005 0.009695
-0.343742 0.088565 0.011901
-0.341751 0.085696 0.015758
-0.339716 0.084266 0.017950
-0.337740 0.081416 0.021780
-0.335718 0.079996 0.023957
-0.333699 0.078579 0.026130
-0.331746 0.075754 0.029925
-0.329739 0.074347 0.032084
-0.327736 0.072942 0.034238
-0.325738 0.071541 0.036387
-0.323813 0.068748 0.040138
-0.321896 0.065967 0.043872
-0.319915 0.064581 0.045998
-0.317939 0.063198 0.048120
-0.315891 0.063198 0.048651
-0.313921 0.061819 0.050768
-0.311956 0.060442 0.052880
-0.309912 0.060442 0.053410
-0.307953 0.059068 0.055517
-0.305999 0.057698 0.057619
-0.303960 0.057698 0.058148
-0.302012 0.056330 0.060245
-0.300068 0.054966 0.062337
-0.298033 0.054966 0.062865
-0.296096 0.053604 0.064952
-0.294164 0.052245 0.067035
-0.292235 0.050890 0.069113
-0.290207 0.050890 0.069639
-0.288285 0.049537 0.071712
-0.286259 0.049537 0.072237
-0.284343 0.048188 0.074305
-0.282544 0.045497 0.077903
-0.280524 0.045497 0.078427
-0.278621 0.044156 0.080481
-0.276604 0.044156 0.081004
-0.274587 0.044156 0.081527
-0.272692 0.042818 0.083576
-0.270677 0.042818 0.084099
-0.268789 0.041483 0.086142
-0.266776 0.041483 0.086664
-0.264894 0.040151 0.088703
-0.262883 0.040151 0.089224
-0.260872 0.040151 0.089746
-0.258999 0.038822 0.091779
-0.257129 0.037495 0.093808
-0.255123 0.037495 0.094328
-0.253260 0.036172 0.096351
-0.251110 0.037495 0.095368
-0.249251 0.036172 0.097391
-0.247247 0.036172 0.097911
-0.245394 0.034851 0.099928
-0.243392 0.034851 0.100447
-0.241546 0.033534 0.102460
-0.239546 0.033534 0.102979
-0.237705 0.032219 0.104987
-0.235708 0.032219 0.105505
-0.233710 0.032219 0.106023
-0.231878 0.030907 0.108025
-0.229882 0.030907 0.108542
-0.227887 0.030907 0.109060
-0.226063 0.029597 0.111057
-0.224070 0.029597 0.111574
-0.222076 0.029597 0.112091
-0.220083 0.029597 0.112607
-0.218269 0.028291 0.114599
-0.216278 0.028291 0.115115
-0.214287 0.028291 0.115631
-0.212481 0.026987 0.117617
-0.210492 0.026987 0.118133
-0.208693 0.025686 0.120113
-0.206706 0.025686 0.120629
-0.204719 0.025686 0.121144
-0.202732 0.025686 0.121659
-0.200745 0.025686 0.122174
-0.198758 0.025686 0.122690
-0.196771 0.025686 0.123205
-0.194784 0.025686 0.123720
-0.192797 0.025686 0.124235
-0.190810 0.025686 0.124750
-0.188823 0.025686 0.125266
-0.186836 0.025686 0.125781
-0.184849 0.025686 0.126296
-0.182862 0.025686 0.126811
-0.180875 0.025686 0.127326
-0.178888 0.025686 0.127842
-0.176901 0.025686 0.128357
-0.174914 0.025686 0.128872
-0.172927 0.025686 0.129387
-0.170940 0.025686 0.129903
-0.168953 0.025686 0.130418
-0.166966 0.025686 0.130933
-0.164743 0.026987 0.129995
-0.162754 0.026987 0.130511
-0.160765 0.026987 0.131027
-0.158775 0.026987 0.131543
-0.156541 0.028291 0.130604
-0.154549 0.028291 0.131121
-0.152558 0.028291 0.131637
-0.150567 0.028291 0.132153
-0.148576 0.028291 0.132670
-0.146327 0.029597 0.131732
-0.144334 0.029597 0.132249
-0.142341 0.029597 0.132766
-0.140347 0.029597 0.133283
-0.138354 0.029597 0.133799
-0.136092 0.030907 0.132862
-0.134097 0.030907 0.133379
-0.132101 0.030907 0.133897
-0.130106 0.030907 0.134414
-0.128110 0.030907 0.134932
-0.125835 0.032219 0.133994
-0.123837 0.032219 0.134512
-0.121840 0.032219 0.135030
-0.119555 0.033534 0.134092
-0.117555 0.033534 0.134610
-0.115556 0.033534 0.135129
-0.113262 0.034851 0.134190
-0.111260 0.034851 0.134709
-0.109258 0.034851 0.135228
-0.107256 0.034851 0.135747
-0.104951 0.036172 0.134807
-0.102947 0.036172 0.135327
-0.100943 0.036172 0.135847
-0.098628 0.037495 0.134906
-0.096622 0.037495 0.135426
-0.094300 0.038822 0.134484
-0.091973 0.040151 0.133540
-0.089963 0.040151 0.134062
-0.087952 0.040151 0.134583
-0.085616 0.041483 0.133638
-0.083603 0.041483 0.134160
-0.081260 0.042818 0.133214
-0.079245 0.042818 0.133736
-0.076894 0.044156 0.132788
-0.074877 0.044156 0.133311
-0.072519 0.045497 0.132362
-0.070499 0.045497 0.132886
-0.068480 0.045497 0.133409
-0.065763 0.048188 0.130982
-0.063739 0.048188 0.131507
-0.061362 0.049537 0.130552
-0.059335 0.049537 0.131077
-0.056950 0.050890 0.130121
-0.054922 0.050890 0.130647
-0.052893 0.050890 0.131173
-0.050498 0.052245 0.130216
-0.048468 0.052245 0.130743
-0.046065 0.053604 0.129784
-0.044033 0.053604 0.130311
-0.041623 0.054966 0.129351
-0.039588 0.054966 0.129879
-0.037170 0.056330 0.128918
-0.035133 0.056330 0.129446
-0.033096 0.056330 0.129974
-0.030668 0.057698 0.129011
-0.028629 0.057698 0.129540
-0.026194 0.059068 0.128576
-0.024152 0.059068 0.129106
-0.021709 0.060442 0.128140
-0.019665 0.060442 0.128670
-0.017621 0.060442 0.129200
-0.015169 0.061819 0.128234
-0.013123 0.061819 0.128764
-0.010662 0.063198 0.127796
-0.008614 0.063198 0.128327
-0.006146 0.064581 0.127358
-0.003672 0.065967 0.126386
-0.001619 0.065967 0.126918
0.000862 0.067356 0.125945
0.003348 0.068748 0.124969
0.005406 0.068748 0.125503
0.007901 0.070143 0.124526
0.009961 0.070143 0.125060
0.012463 0.071541 0.124081
0.014525 0.071541 0.124616
0.017035 0.072942 0.123636
0.019100 0.072942 0.124171
0.021164 0.072942 0.124706
0.023685 0.074347 0.123725
0.025752 0.074347 0.124261
0.028280 0.075754 0.123278
0.030349 0.075754 0.123814
0.032418 0.075754 0.124351
0.034957 0.077165 0.123367
0.037028 0.077165 0.123904
0.039575 0.078579 0.122919
0.041649 0.078579 0.123456
0.044203 0.079996 0.122469
0.046279 0.079996 0.123008
0.048842 0.081416 0.122019
0.050921 0.081416 0.122558
0.053492 0.082839 0.121568
0.055572 0.082839 0.122107
0.058151 0.084266 0.121115
0.060736 0.085696 0.120121
0.063327 0.087129 0.119125
0.065415 0.087129 0.119666
0.068013 0.088565 0.118668
0.070103 0.088565 0.119210
0.072194 0.088565 0.119752
0.074803 0.090005 0.118753
0.076896 0.090005 0.119295
0.079513 0.091447 0.118295
0.082137 0.092893 0.117292
0.084234 0.092893 0.117836
0.086331 0.092893 0.118379
0.088966 0.094343 0.117375
0.091065 0.094343 0.117920
0.093708 0.095795 0.116914
0.096357 0.097251 0.115906
0.098461 0.097251 0.116452
0.101118 0.098711 0.115442
0.103225 0.098711 0.115988
0.105891 0.100173 0.114977
0.108562 0.101639 0.113963
0.111240 0.103108 0.112947
0.113354 0.103108 0.113496
0.116040 0.104581 0.112478
0.118157 0.104581 0.113027
0.120852 0.106057 0.112007
0.123553 0.107536 0.110986
0.126847 0.110505 0.108384
0.128384 0.109019 0.110512
0.129916 0.107536 0.112636
0.132038 0.107536 0.113186
0.133565 0.106057 0.115304
0.135683 0.106057 0.115853
0.137802 0.106057 0.116403
0.139921 0.106057 0.116952
0.142040 0.106057 0.117502
0.143554 0.104581 0.119612
0.145670 0.104581 0.120161
0.147178 0.103108 0.122266
0.149292 0.103108 0.122814
0.151406 0.103108 0.123362
0.152905 0.101639 0.125461
0.155017 0.101639 0.126009
0.157129 0.101639 0.126556
0.158620 0.100173 0.128650
0.160729 0.100173 0.129196
0.162838 0.100173 0.129743
0.164322 0.098711 0.131830
0.166428 0.098711 0.132377
0.168535 0.098711 0.132923
0.170010 0.097251 0.135004
0.103270 -0.061166 0.302104
0.103654 -0.064515 0.306102
0.105006 -0.065627 0.307747
0.105868 -0.067844 0.310552
0.106727 -0.070053 0.313346
0.107583 -0.072253 0.316129
0.109410 -0.072253 0.316602
0.110747 -0.073350 0.318226
0.112081 -0.074444 0.319846
0.113904 -0.074444 0.320318
0.115726 -0.074444 0.320791
0.117549 -0.074444 0.321264
0.119869 -0.073350 0.320591
0.121694 -0.073350 0.321064
0.124020 -0.072253 0.320391
0.126351 -0.071154 0.319716
0.128686 -0.070053 0.319040
0.130516 -0.070053 0.319514
0.132858 -0.068950 0.318837
0.135205 -0.067844 0.318159
0.137038 -0.067844 0.318635
0.139391 -0.066737 0.317955
0.141749 -0.065627 0.317275
0.145165 -0.062284 0.314270
0.147538 -0.061166 0.313583
0.149915 -0.060045 0.312894
0.152297 -0.058922 0.312205
0.154684 -0.057796 0.311514
0.157076 -0.056669 0.310821
0.159473 -0.055539 0.310127
0.161874 -0.054407 0.309432
0.164281 -0.053272 0.308736
0.166692 -0.052135 0.308038
0.169108 -0.050997 0.307338
0.172089 -0.048712 0.305452
0.174518 -0.047566 0.304748
0.176951 -0.046418 0.304042
0.179961 -0.044114 0.302141
0.182407 -0.042959 0.301431
0.184282 -0.042959 0.301917
0.185002 -0.045267 0.304790
0.186872 -0.045267 0.305275
0.188743 -0.045267 0.305760
0.190613 -0.045267 0.306245
0.193068 -0.044114 0.305540
0.194941 -0.044114 0.306025
0.196813 -0.044114 0.306511
0.198685 -0.044114 0.306997
0.201151 -0.042959 0.306291
0.203025 -0.042959 0.306777
0.205498 -0.041802 0.306071
0.207975 -0.040642 0.305363
0.210457 -0.039480 0.304654
0.213553 -0.037148 0.302743
0.215437 -0.037148 0.303231
0.218550 -0.034807 0.301313
0.221055 -0.033633 0.300596
0.224189 -0.031278 0.298667
0.227335 -0.028913 0.296730
0.229863 -0.027726 0.296004
0.233031 -0.025347 0.294056
0.236211 -0.022957 0.292099
0.238761 -0.021759 0.291365
0.241964 -0.019355 0.289397
0.245180 -0.016940 0.287420
0.247752 -0.015730 0.286678
0.250990 -0.013300 0.284690
0.254241 -0.010861 0.282693
0.257506 -0.008411 0.280688
0.260784 -0.005952 0.278675
0.264076 -0.003482 0.276654
0.266698 -0.002243 0.275891
0.270013 0.000243 0.273857
0.273342 0.002739 0.271815
0.276685 0.005246 0.269764
0.280042 0.007763 0.267704
0.281295 0.006503 0.269496
0.281842 0.003991 0.272561
0.283089 0.002739 0.274342
0.284333 0.001490 0.276119
0.285575 0.000243 0.277892
0.286814 -0.001001 0.279662
0.288051 -0.002243 0.281428
0.288579 -0.004718 0.284446
0.289810 -0.005952 0.286202
0.291745 -0.005952 0.286703
0.292971 -0.007183 0.288454
0.294195 -0.008411 0.290202
0.295416 -0.009637 0.291946
0.296635 -0.010861 0.293686
0.298562 -0.010861 0.294186
0.299776 -0.012082 0.295922
0.300988 -0.013300 0.297654
0.302911 -0.013300 0.298153
0.304118 -0.014516 0.299881
0.305323 -0.015730 0.301606
0.307242 -0.015730 0.302103
0.308442 -0.016940 0.303824
0.309639 -0.018149 0.305541
0.311554 -0.018149 0.306038
0.312748 -0.019355 0.307751
0.313938 -0.020558 0.309460
0.315127 -0.021759 0.311166
0.317036 -0.021759 0.311661
0.318219 -0.022957 0.313363
0.320127 -0.022957 0.313858
0.322034 -0.022957 0.314352
0.323941 -0.022957 0.314847
0.325116 -0.024153 0.316544
0.327022 -0.024153 0.317038
0.328927 -0.024153 0.317532
0.330832 -0.024153 0.318026
0.331999 -0.025347 0.319718
0.333903 -0.025347 0.320211
0.335806 -0.025347 0.320705
0.338453 -0.024153 0.320002
0.339612 -0.025347 0.321692
0.342263 -0.024153 0.320990
0.344169 -0.024153 0.321484
0.346827 -0.022957 0.320781
0.348734 -0.022957 0.321276
0.350641 -0.022957 0.321770
0.353309 -0.021759 0.321067
0.355218 -0.021759 0.321562
0.357894 -0.020558 0.320858
0.360574 -0.019355 0.320152
0.363261 -0.018149 0.319445
0.365953 -0.016940 0.318736
0.368650 -0.015730 0.318026
0.372139 -0.013300 0.316103
0.374851 -0.012082 0.315388
0.378364 -0.009637 0.313454
0.381891 -0.007183 0.311511
0.384628 -0.005952 0.310787
0.388180 -0.003482 0.308833
0.392562 0.000243 0.305634
0.396149 0.002739 0.303658
0.399751 0.005246 0.301674
0.404203 0.009026 0.298429
0.408684 0.012830 0.295163
0.413192 0.016658 0.291875
0.418589 0.021800 0.287289
0.423164 0.025686 0.283951
0.428644 0.030907 0.279296
0.438630 0.042818 0.268019
0.449732 0.056330 0.255169
0.463914 0.074347 0.237875
-0.382996 0.161338 -0.086538
-0.380826 0.148588 -0.071099
-0.378658 0.143868 -0.065031
-0.376516 0.137628 -0.057195
-0.374394 0.131445 -0.049431
-0.372306 0.123798 -0.039968
-0.370190 0.120764 -0.035880
-0.368104 0.116239 -0.030060
-0.366033 0.111745 -0.024280
-0.363975 0.107283 -0.018540
-0.361905 0.104324 -0.014552
-0.359816 0.102851 -0.012290
-0.357762 0.099913 -0.008330
-0.355684 0.098449 -0.006084
-0.353647 0.095531 -0.002151
-0.351581 0.094077 0.000081
-0.349560 0.091179 0.003986
-0.347549 0.088294 0.007874
-0.345501 0.086856 0.010082
-0.343505 0.083991 0.013942
-0.341469 0.082563 0.016136
-0.339489 0.079717 0.019970
-0.337465 0.078298 0.022150
-0.335444 0.076883 0.024325
-0.333429 0.075471 0.026495
-0.331478 0.072657 0.030284
-0.329473 0.071254 0.032440
-0.327473 0.069855 0.034592
-0.325478 0.068459 0.036738
-0.323555 0.065675 0.040484
-0.321571 0.064288 0.042617
-0.319590 0.062904 0.044745
-0.317615 0.061523 0.046868
-0.315643 0.060146 0.048987
-0.313676 0.058771 0.051101
-0.311632 0.058771 0.051631
-0.309671 0.057399 0.053739
-0.307715 0.056030 0.055844
-0.305676 0.056030 0.056372
-0.303726 0.054665 0.058471
-0.301781 0.053302 0.060566
-0.299746 0.053302 0.061093
-0.297807 0.051942 0.063182
-0.295872 0.050585 0.065267
-0.293942 0.049232 0.067347
-0.291914 0.049232 0.067873
-0.289990 0.047881 0.069948
-0.288070 0.046533 0.072018
-0.286046 0.046533 0.072543
-0.284243 0.043846 0.076145
-0.282224 0.043846 0.076669
-0.280319 0.042507 0.078725
-0.278301 0.042507 0.079248
-0.276403 0.041171 0.081299
-0.274388 0.041171 0.081822
-0.272373 0.041171 0.082344
-0.270482 0.039838 0.084390
-0.268470 0.039838 0.084912
-0.266586 0.038507 0.086952
-0.264575 0.038507 0.087474
-0.262564 0.038507 0.087995
-0.260689 0.037180 0.090030
-0.258680 0.037180 0.090551
-0.256811 0.035855 0.092581
-0.254946 0.034533 0.094607
-0.252942 0.034533 0.095126
-0.250938 0.034533 0.095646
-0.249081 0.033215 0.097666
-0.247079 0.033215 0.098185
-0.245228 0.031899 0.100200
-0.243229 0.031899 0.100719
-0.241384 0.030585 0.102729
-0.239387 0.030585 0.103247
-0.237548 0.029275 0.105253
-0.235553 0.029275 0.105770
-0.233557 0.029275 0.106288
-0.231562 0.029275 0.106805
-0.229734 0.027968 0.108804
-0.227740 0.027968 0.109321
-0.225747 0.027968 0.109838
-0.223927 0.026663 0.111832
-0.221936 0.026663 0.112349
-0.219945 0.026663 0.112865
-0.218133 0.025361 0.114854
-0.216144 0.025361 0.115369
-0.214155 0.025361 0.115885
-0.212352 0.024062 0.117868
-0.210365 0.024062 0.118384
-0.208378 0.024062 0.118899
-0.206391 0.024062 0.119414
-0.204404 0.024062 0.119929
-0.202417 0.024062 0.120444
-0.200430 0.024062 0.120960
-0.198443 0.024062 0.121475
-0.196456 0.024062 0.121990
-0.194469 0.024062 0.122505
-0.192482 0.024062 0.123020
-0.190495 0.024062 0.123536
-0.188508 0.024062 0.124051
-0.186521 0.024062 0.124566
-0.184534 0.024062 0.125081
-0.182547 0.024062 0.125597
-0.180560 0.024062 0.126112
-0.178573 0.024062 0.126627
-0.176586 0.024062 0.127142
-0.174599 0.024062 0.127657
-0.172612 0.024062 0.128173
-0.170625 0.024062 0.128688
-0.168638 0.024062 0.129203
-0.166651 0.024062 0.129718
-0.164664 0.024062 0.130233
-0.162678 0.024062 0.130749
-0.160449 0.025361 0.129811
-0.158460 0.025361 0.130327
-0.156471 0.025361 0.130842
-0.154482 0.025361 0.131358
-0.152493 0.025361 0.131874
-0.150251 0.026663 0.130936
-0.148260 0.026663 0.131452
-0.146269 0.026663 0.131969
-0.144278 0.026663 0.132485
-0.142286 0.026663 0.133001
-0.140031 0.027968 0.132064
-0.138038 0.027968 0.132581
-0.136045 0.027968 0.133098
-0.134051 0.027968 0.133615
-0.132058 0.027968 0.134131
-0.129789 0.029275 0.133194
-0.127794 0.029275 0.133712
-0.125798 0.029275 0.134229
-0.123521 0.030585 0.133291
-0.121523 0.030585 0.133809
-0.119525 0.030585 0.134327
-0.117528 0.030585 0.134845
-0.115239 0.031899 0.133906
-0.113239 0.031899 0.134425
-0.111239 0.031899 0.134943
-0.108941 0.033215 0.134004
-0.106939 0.033215 0.134523
-0.104937 0.033215 0.135042
-0.102935 0.033215 0.135561
-0.100625 0.034533 0.134622
-0.098621 0.034533 0.135141
-0.096304 0.035855 0.134200
-0.094297 0.035855 0.134720
-0.092291 0.035855 0.135240
-0.089965 0.037180 0.134298
-0.087633 0.038507 0.133354
-0.085623 0.038507 0.133875
-0.083284 0.039838 0.132930
-0.081271 0.039838 0.133452
-0.078925 0.041171 0.132504
-0.076910 0.041171 0.133027
-0.074557 0.042507 0.132078
-0.072540 0.042507 0.132601
-0.070522 0.042507 0.133124
-0.068160 0.043846 0.132175
-0.066140 0.043846 0.132698
-0.063419 0.046533 0.130269
-0.061395 0.046533 0.130794
-0.059371 0.046533 0.131319
-0.056988 0.047881 0.130364
-0.054962 0.047881 0.130890
-0.052572 0.049232 0.129933
-0.050544 0.049232 0.130459
-0.048146 0.050585 0.129501
-0.046115 0.050585 0.130028
-0.043710 0.051942 0.129069
-0.041678 0.051942 0.129596
-0.039265 0.053302 0.128635
-0.037230 0.053302 0.129163
-0.035195 0.053302 0.129690
-0.032773 0.054665 0.128729
-0.030735 0.054665 0.129257
-0.028305 0.056030 0.128294
-0.026266 0.056030 0.128822
-0.024226 0.056030 0.129351
-0.021787 0.057399 0.128387
-0.019745 0.057399 0.128916
-0.017297 0.058771 0.127951
-0.015253 0.058771 0.128481
-0.012798 0.060146 0.127513
-0.010752 0.060146 0.128044
-0.008289 0.061523 0.127075
-0.006241 0.061523 0.127606
-0.003770 0.062904 0.126636
-0.001719 0.062904 0.127167
0.000759 0.064288 0.126195
0.003243 0.065675 0.125221
0.005298 0.065675 0.125754
0.007790 0.067065 0.124778
0.009847 0.067065 0.125312
0.012347 0.068459 0.124335
0.014407 0.068459 0.124869
0.016914 0.069855 0.123890
0.018976 0.069855 0.124425
0.021492 0.071254 0.123444
0.023556 0.071254 0.123979
0.026079 0.072657 0.122997
0.028146 0.072657 0.123533
0.030213 0.072657 0.124069
0.032746 0.074062 0.123086
0.034815 0.074062 0.123623
0.037357 0.075471 0.122638
0.039428 0.075471 0.123175
0.041977 0.076883 0.122189
0.044051 0.076883 0.122726
0.046609 0.078298 0.121739
0.048685 0.078298 0.122277
0.050761 0.078298 0.122815
0.053329 0.079717 0.121826
0.055407 0.079717 0.122365
0.057983 0.081138 0.121375
0.060064 0.081138 0.121914
0.062648 0.082563 0.120922
0.065238 0.083991 0.119928
0.067323 0.083991 0.120468
0.070435 0.086856 0.117932
0.072525 0.086856 0.118474
0.075135 0.088294 0.117474
0.076705 0.086856 0.119558
0.079320 0.088294 0.118559
0.081940 0.089735 0.117557
0.084035 0.089735 0.118100
0.086664 0.091179 0.117097
0.088761 0.091179 0.117641
0.091398 0.092626 0.116636
0.093498 0.092626 0.117181
0.096143 0.094077 0.116174
0.098245 0.094077 0.116719
0.100899 0.095531 0.115711
0.103003 0.095531 0.116257
0.105666 0.096988 0.115247
0.107773 0.096988 0.115793
0.110443 0.098449 0.114781
0.113120 0.099913 0.113768
0.115232 0.099913 0.114315
0.117917 0.101380 0.113300
0.120609 0.102851 0.112282
0.122725 0.102851 0.112831
0.125425 0.104324 0.111811
0.127544 0.104324 0.112360
0.129663 0.104324 0.112910
0.131191 0.102851 0.115026
0.133900 0.104324 0.114009
0.136019 0.104324 0.114558
0.137540 0.102851 0.116672
0.139656 0.102851 0.117221
0.141171 0.101380 0.119329
0.143285 0.101380 0.119877
0.145399 0.101380 0.120426
0.146905 0.099913 0.122528
0.149017 0.099913 0.123076
0.151129 0.099913 0.123623
0.152627 0.098449 0.125720
0.154736 0.098449 0.126266
0.156845 0.098449 0.126813
0.158335 0.096988 0.128904
0.160442 0.096988 0.129450
0.162549 0.096988 0.129996
0.164031 0.095531 0.132081
0.166135 0.095531 0.132626
0.168239 0.095531 0.133172
0.170344 0.095531 0.133718
0.172448 0.095531 0.134263
0.173917 0.094077 0.136341
0.176019 0.094077 0.136886
0.113067 -0.053656 0.292920
0.113924 -0.055924 0.295788
0.114777 -0.058183 0.298645
0.115627 -0.060433 0.301491
0.116974 -0.061554 0.303148
0.117817 -0.063791 0.305976
0.118157 -0.067129 0.309959
0.119493 -0.068237 0.311599
0.120827 -0.069343 0.313235
0.122158 -0.070447 0.314868
0.124494 -0.069343 0.314186
0.126835 -0.068237 0.313502
0.128670 -0.068237 0.313978
0.131017 -0.067129 0.313294
0.133369 -0.066018 0.312608
0.135208 -0.066018 0.313085
0.138086 -0.063791 0.311232
0.140452 -0.062674 0.310542
0.142823 -0.061554 0.309851
0.145198 -0.060433 0.309158
0.147578 -0.059309 0.308464
0.149962 -0.058183 0.307768
0.152352 -0.057054 0.307072
0.154746 -0.055924 0.306373
0.157145 -0.054791 0.305674
0.159549 -0.053656 0.304973
0.161958 -0.052518 0.304270
0.164925 -0.050236 0.302377
0.167347 -0.049092 0.301670
0.169773 -0.047945 0.300962
0.172204 -0.046796 0.300252
0.174640 -0.045645 0.299540
0.177081 -0.044492 0.298827
0.179527 -0.043336 0.298113
0.182554 -0.041017 0.296192
0.183857 -0.042177 0.297884
0.185156 -0.043336 0.299572
0.187032 -0.043336 0.300059
0.188328 -0.044492 0.301743
0.189620 -0.045645 0.303424
0.192076 -0.044492 0.302715
0.193951 -0.044492 0.303201
0.195825 -0.044492 0.303687
0.197699 -0.044492 0.304173
0.199574 -0.044492 0.304659
0.202042 -0.043336 0.303951
0.204516 -0.042177 0.303241
0.206995 -0.041017 0.302530
0.208875 -0.041017 0.303017
0.211361 -0.039854 0.302305
0.213852 -0.038688 0.301591
0.216961 -0.036350 0.299670
0.219465 -0.035178 0.298951
0.221975 -0.034003 0.298231
0.225113 -0.031646 0.296295
0.228265 -0.029279 0.294351
0.230796 -0.028092 0.293622
0.233969 -0.025711 0.291667
0.237155 -0.023320 0.289703
0.239708 -0.022120 0.288966
0.242916 -0.019715 0.286991
0.246137 -0.017298 0.285007
0.248713 -0.016087 0.284261
0.251956 -0.013656 0.282266
0.255213 -0.011215 0.280262
0.257812 -0.009990 0.279508
0.261091 -0.007534 0.277492
0.264384 -0.005067 0.275468
0.267690 -0.002590 0.273435
0.271011 -0.000102 0.271394
0.274345 0.002396 0.269345
0.277694 0.004904 0.267286
0.280352 0.006163 0.266507
0.281605 0.004904 0.268300
0.282151 0.002396 0.271368
0.283398 0.001145 0.273150
0.284642 -0.000102 0.274929
0.285883 -0.001347 0.276703
0.287122 -0.002590 0.278474
0.288359 -0.003830 0.280241
0.288886 -0.006302 0.283262
0.290117 -0.007534 0.285019
0.291345 -0.008763 0.286771
0.292570 -0.009990 0.288521
0.294501 -0.009990 0.289021
0.295722 -0.011215 0.290766
0.296941 -0.012436 0.292508
0.298156 -0.013656 0.294246
0.300081 -0.013656 0.294745
0.301293 -0.014873 0.296478
0.302501 -0.016087 0.298209
0.304422 -0.016087 0.298707
0.305627 -0.017298 0.300433
0.306829 -0.018508 0.302155
0.308746 -0.018508 0.302652
0.309943 -0.019715 0.304371
0.311138 -0.020919 0.306085
0.313051 -0.020919 0.306581
0.314241 -0.022120 0.308292
0.315429 -0.023320 0.309999
0.316615 -0.024517 0.311703
0.318522 -0.024517 0.312198
0.319703 -0.025711 0.313897
0.321608 -0.025711 0.314391
0.323513 -0.025711 0.314885
0.325419 -0.025711 0.315379
0.326591 -0.026903 0.317074
0.328495 -0.026903 0.317567
0.330398 -0.026903 0.318061
0.331564 -0.028092 0.319751
0.333466 -0.028092 0.320244
0.334628 -0.029279 0.321930
0.337268 -0.028092 0.321230
0.339169 -0.028092 0.321723
0.341071 -0.028092 0.322216
0.343721 -0.026903 0.321515
0.345624 -0.026903 0.322009
0.348281 -0.025711 0.321307
0.350186 -0.025711 0.321801
0.352091 -0.025711 0.322295
0.354758 -0.024517 0.321593
0.356665 -0.024517 0.322088
0.359339 -0.023320 0.321385
0.362019 -0.022120 0.320681
0.364704 -0.020919 0.319975
0.368174 -0.018508 0.318062
0.370873 -0.017298 0.317351
0.374367 -0.014873 0.315426
0.377875 -0.012436 0.313494
0.380599 -0.011215 0.312775
0.384131 -0.008763 0.310830
0.387678 -0.006302 0.308878
0.391239 -0.003830 0.306918
0.395636 -0.000102 0.303709
0.400061 0.003649 0.300480
0.403679 0.006163 0.298485
0.408995 0.011222 0.293961
0.413505 0.015045 0.290670
0.418044 0.018893 0.287358
0.423479 0.024062 0.282737
0.431601 0.033215 0.274164
0.442553 0.046533 0.261466
0.455605 0.062904 0.245750
-0.384856 0.164367 -0.094121
-0.382661 0.151543 -0.078555
-0.380490 0.143650 -0.068764
-0.378337 0.137403 -0.060900
-0.376193 0.132756 -0.054911
-0.374090 0.125084 -0.045394
-0.371981 0.120523 -0.039513
-0.369886 0.115994 -0.033674
-0.367806 0.111496 -0.027875
-0.365740 0.107029 -0.022116
-0.363664 0.104068 -0.018115
-0.361597 0.101120 -0.014133
-0.359510 0.099652 -0.011875
-0.357459 0.096724 -0.007920
-0.355418 0.093810 -0.003983
-0.353350 0.092358 -0.001749
-0.351325 0.089464 0.002160
-0.349269 0.088022 0.004380
-0.347260 0.085147 0.008262
-0.345215 0.083715 0.010467
-0.343222 0.080860 0.014322
-0.341189 0.079437 0.016514
-0.339160 0.078018 0.018699
-0.337190 0.075188 0.022519
-0.335172 0.073778 0.024691
-0.333159 0.072371 0.026858
-0.331211 0.069566 0.030643
-0.329209 0.068169 0.032796
-0.327211 0.066775 0.034945
-0.325218 0.065383 0.037088
-0.323298 0.062610 0.040829
-0.321316 0.061228 0.042959
-0.319338 0.059849 0.045085
-0.317365 0.058473 0.047205
-0.315396 0.057100 0.049321
-0.313431 0.055730 0.051432
-0.311390 0.055730 0.051962
-0.309431 0.054363 0.054068
-0.307392 0.054363 0.054597
-0.305440 0.052999 0.056698
-0.303493 0.051638 0.058794
-0.301458 0.051638 0.059322
-0.299517 0.050280 0.061413
-0.297581 0.048925 0.063499
-0.295649 0.047573 0.065581
-0.293620 0.047573 0.066107
-0.291695 0.046224 0.068184
-0.289773 0.044878 0.070256
-0.287749 0.044878 0.070781
-0.285942 0.042195 0.074387
-0.283923 0.042195 0.074911
-0.282016 0.040858 0.076969
-0.279999 0.040858 0.077492
-0.278098 0.039523 0.079545
-0.276083 0.039523 0.080067
-0.274189 0.038192 0.082115
-0.272176 0.038192 0.082637
-0.270288 0.036863 0.084680
-0.268278 0.036863 0.085202
-0.266267 0.036863 0.085723
-0.264388 0.035538 0.087761
-0.262379 0.035538 0.088281
-0.260371 0.035538 0.088802
-0.258500 0.034215 0.090834
-0.256493 0.034215 0.091354
-0.254770 0.031578 0.094885
-0.252768 0.031578 0.095404
-0.250766 0.031578 0.095923
-0.248764 0.031578 0.096442
-0.246911 0.030264 0.098459
-0.244911 0.030264 0.098978
-0.243065 0.028952 0.100990
-0.241068 0.028952 0.101508
-0.239227 0.027644 0.103515
-0.237232 0.027644 0.104033
-0.235398 0.026338 0.106035
-0.233405 0.026338 0.106552
-0.231411 0.026338 0.107069
-0.229418 0.026338 0.107586
-0.227594 0.025035 0.109582
-0.225603 0.025035 0.110099
-0.223612 0.025035 0.110615
-0.221796 0.023735 0.112606
-0.219807 0.023735 0.113122
-0.217998 0.022437 0.115108
-0.216011 0.022437 0.115623
-0.214024 0.022437 0.116138
-0.212037 0.022437 0.116654
-0.210050 0.022437 0.117169
-0.208063 0.022437 0.117684
-0.206076 0.022437 0.118199
-0.204283 0.021143 0.120178
-0.202298 0.021143 0.120693
-0.200115 0.022437 0.119745
-0.198128 0.022437 0.120260
-0.196141 0.022437 0.120775
-0.194154 0.022437 0.121291
-0.192167 0.022437 0.121806
-0.190180 0.022437 0.122321
-0.188193 0.022437 0.122836
-0.186206 0.022437 0.123351
-0.184219 0.022437 0.123867
-0.182232 0.022437 0.124382
-0.180245 0.022437 0.124897
-0.178258 0.022437 0.125412
-0.176271 0.022437 0.125927
-0.174511 0.021143 0.127898
-0.172526 0.021143 0.128412
-0.170310 0.022437 0.127473
-0.168556 0.021143 0.129442
-0.166336 0.022437 0.128504
-0.164350 0.022437 0.129019
-0.162363 0.022437 0.129534
-0.160376 0.022437 0.130049
-0.158389 0.022437 0.130564
-0.156402 0.022437 0.131080
-0.154167 0.023735 0.130142
-0.152178 0.023735 0.130658
-0.150188 0.023735 0.131174
-0.148199 0.023735 0.131689
-0.145953 0.025035 0.130752
-0.143962 0.025035 0.131268
-0.141971 0.025035 0.131784
-0.139979 0.025035 0.132300
-0.137988 0.025035 0.132817
-0.135729 0.026338 0.131879
-0.133735 0.026338 0.132396
-0.131742 0.026338 0.132913
-0.129748 0.026338 0.133430
-0.127755 0.026338 0.133947
-0.125482 0.027644 0.133009
-0.123486 0.027644 0.133527
-0.121491 0.027644 0.134044
-0.119209 0.028952 0.133106
-0.117211 0.028952 0.133624
-0.115213 0.028952 0.134142
-0.113216 0.028952 0.134660
-0.110922 0.030264 0.133721
-0.108922 0.030264 0.134239
-0.106922 0.030264 0.134758
-0.104619 0.031578 0.133818
-0.102617 0.031578 0.134337
-0.100615 0.031578 0.134857
-0.098303 0.032895 0.133916
-0.096299 0.032895 0.134436
-0.093979 0.034215 0.133494
-0.091973 0.034215 0.134014
-0.089967 0.034215 0.134534
-0.087638 0.035538 0.133591
-0.085629 0.035538 0.134112
-0.083293 0.036863 0.133168
-0.081283 0.036863 0.133689
-0.078939 0.038192 0.132743
-0.076926 0.038192 0.133265
-0.074576 0.039523 0.132318
-0.072561 0.039523 0.132840
-0.070203 0.040858 0.131891
-0.068185 0.040858 0.132414
-0.066168 0.040858 0.132937
-0.063801 0.042195 0.131987
-0.061781 0.042195 0.132511
-0.059050 0.044878 0.130082
-0.057026 0.044878 0.130606
-0.054641 0.046224 0.129651
-0.052615 0.046224 0.130176
-0.050222 0.047573 0.129219
-0.048194 0.047573 0.129745
-0.045794 0.048925 0.128787
-0.043763 0.048925 0.129313
-0.041733 0.048925 0.129840
-0.039323 0.050280 0.128880
-0.037290 0.050280 0.129407
-0.034872 0.051638 0.128446
-0.032837 0.051638 0.128974
-0.030802 0.051638 0.129502
-0.028375 0.052999 0.128540
-0.026338 0.052999 0.129068
-0.023903 0.054363 0.128104
-0.021864 0.054363 0.128633
-0.019421 0.055730 0.127668
-0.017379 0.055730 0.128198
-0.014929 0.057100 0.127231
-0.012885 0.057100 0.127761
-0.010428 0.058473 0.126793
-0.008381 0.058473 0.127323
-0.006335 0.058473 0.127854
-0.003867 0.059849 0.126885
-0.001819 0.059849 0.127416
0.000657 0.061228 0.126445
0.003138 0.062610 0.125473
0.005191 0.062610 0.126005
0.007679 0.063995 0.125031
0.009735 0.063995 0.125564
0.012231 0.065383 0.124588
0.014289 0.065383 0.125121
0.016793 0.066775 0.124144
0.019303 0.068169 0.123164
0.021365 0.068169 0.123699
0.023883 0.069566 0.122717
0.025948 0.069566 0.123253
0.028474 0.070967 0.122270
0.030540 0.070967 0.122806
0.032607 0.070967 0.123342
0.035143 0.072371 0.122358
0.037212 0.072371 0.122894
0.039756 0.073778 0.121909
0.041828 0.073778 0.122446
0.044380 0.075188 0.121459
0.046454 0.075188 0.121996
0.048527 0.075188 0.122534
0.051090 0.076601 0.121546
0.053166 0.076601 0.122084
0.055736 0.078018 0.121095
0.057815 0.078018 0.121633
0.059893 0.078018 0.122172
0.062474 0.079437 0.121182
0.065061 0.080860 0.120189
0.067144 0.080860 0.120729
0.069739 0.082286 0.119734
0.071824 0.082286 0.120275
0.074427 0.083715 0.119279
0.077036 0.085147 0.118280
0.079127 0.085147 0.118822
0.081217 0.085147 0.119364
0.083836 0.086583 0.118365
0.086462 0.088022 0.117363
0.088557 0.088022 0.117906
0.091191 0.089464 0.116903
0.093288 0.089464 0.117447
0.095930 0.090910 0.116441
0.098030 0.090910 0.116986
0.100680 0.092358 0.115979
0.102782 0.092358 0.116524
0.105441 0.093810 0.115516
0.107546 0.093810 0.116061
0.110213 0.095266 0.115051
0.112320 0.095266 0.115598
0.115566 0.098186 0.113024
0.117678 0.098186 0.113572
0.120366 0.099652 0.112555
0.122480 0.099652 0.113104
0.125177 0.101120 0.112085
0.127293 0.101120 0.112634
0.129410 0.101120 0.113183
0.131526 0.101120 0.113732
0.133643 0.101120 0.114281
0.135164 0.099652 0.116392
0.137278 0.099652 0.116941
0.139392 0.099652 0.117489
0.140905 0.098186 0.119595
0.143017 0.098186 0.120142
0.145129 0.098186 0.120690
0.146634 0.096724 0.122789
0.148743 0.096724 0.123336
0.150852 0.096724 0.123883
0.152349 0.095266 0.125977
0.154456 0.095266 0.126523
0.156562 0.095266 0.127069
0.158051 0.093810 0.129157
0.160155 0.093810 0.129703
0.162260 0.093810 0.130249
0.164364 0.093810 0.130794
0.166468 0.093810 0.131340
0.167944 0.092358 0.133420
0.170046 0.092358 0.133965
0.172148 0.092358 0.134510
0.174250 0.092358 0.135056
0.175715 0.090910 0.137129
0.177815 0.090910 0.137674
0.179915 0.090910 0.138218
0.181372 0.089464 0.140286
0.182184 0.086583 0.143866
0.123352 -0.049473 0.287706
0.125221 -0.049473 0.288190
0.126058 -0.051761 0.291083
0.127406 -0.052901 0.292766
0.128752 -0.054040 0.294446
0.129578 -0.056309 0.297314
0.130918 -0.057441 0.298984
0.132255 -0.058570 0.300651
0.133589 -0.059697 0.302315
0.135441 -0.059697 0.302795
0.137816 -0.058570 0.302093
0.139670 -0.058570 0.302574
0.142051 -0.057441 0.301871
0.143907 -0.057441 0.302352
0.145763 -0.057441 0.302833
0.148153 -0.056309 0.302130
0.150548 -0.055176 0.301425
0.152947 -0.054040 0.300719
0.155352 -0.052901 0.300012
0.158309 -0.050618 0.298109
0.160726 -0.049473 0.297397
0.163148 -0.048326 0.296683
0.165575 -0.047176 0.295968
0.168007 -0.046024 0.295251
0.170444 -0.044870 0.294533
0.173452 -0.042554 0.292605
0.175902 -0.041392 0.291882
0.178357 -0.040228 0.291158
0.180817 -0.039062 0.290432
0.182702 -0.039062 0.290921
0.184008 -0.040228 0.292624
0.184732 -0.042554 0.295530
0.186613 -0.042554 0.296018
0.187911 -0.043713 0.297710
0.189206 -0.044870 0.299398
0.191082 -0.044870 0.299885
0.192959 -0.044870 0.300371
0.195423 -0.043713 0.299658
0.197301 -0.043713 0.300145
0.199180 -0.043713 0.300632
0.201058 -0.043713 0.301119
0.202936 -0.043713 0.301606
0.205413 -0.042554 0.300893
0.207895 -0.041392 0.300178
0.210383 -0.040228 0.299462
0.212875 -0.039062 0.298745
0.214761 -0.039062 0.299234
0.217875 -0.036723 0.297306
0.220383 -0.035549 0.296584
0.222896 -0.034374 0.295861
0.226039 -0.032015 0.293918
0.229196 -0.029647 0.291967
0.231731 -0.028459 0.291235
0.234909 -0.026076 0.289273
0.238100 -0.023683 0.287302
0.240657 -0.022483 0.286562
0.243870 -0.020075 0.284580
0.247097 -0.017657 0.282589
0.249676 -0.016445 0.281840
0.252925 -0.014012 0.279838
0.256187 -0.011569 0.277827
0.258790 -0.010344 0.277069
0.262074 -0.007885 0.275046
0.265372 -0.005417 0.273014
0.268685 -0.002938 0.270975
0.272011 -0.000448 0.268926
0.275351 0.002052 0.266869
0.278705 0.004562 0.264803
0.280663 0.004562 0.265311
0.281915 0.003306 0.267105
0.282460 0.000800 0.270176
0.283707 -0.000448 0.271959
0.284950 -0.001694 0.273738
0.286192 -0.002938 0.275514
0.287430 -0.004178 0.277286
0.287960 -0.006652 0.280316
0.289193 -0.007885 0.282078
0.290424 -0.009116 0.283836
0.291651 -0.010344 0.285590
0.292876 -0.011569 0.287340
0.294099 -0.012792 0.289087
0.296028 -0.012792 0.289587
0.297246 -0.014012 0.291330
0.298462 -0.015230 0.293069
0.299675 -0.016445 0.294804
0.301598 -0.016445 0.295303
0.302806 -0.017657 0.297034
0.304012 -0.018867 0.298762
0.305931 -0.018867 0.299260
0.307132 -0.020075 0.300983
0.308331 -0.021280 0.302703
0.310246 -0.021280 0.303200
0.311441 -0.022483 0.304916
0.312633 -0.023683 0.306628
0.314544 -0.023683 0.307124
0.315732 -0.024881 0.308832
0.316917 -0.026076 0.310537
0.318824 -0.026076 0.311032
0.320005 -0.027269 0.312733
0.321183 -0.028459 0.314430
0.322359 -0.029647 0.316124
0.324990 -0.028459 0.315417
0.326162 -0.029647 0.317110
0.328063 -0.029647 0.317603
0.329964 -0.029647 0.318096
0.331866 -0.029647 0.318589
0.333029 -0.030832 0.320277
0.334929 -0.030832 0.320769
0.336088 -0.032015 0.322453
0.338727 -0.030832 0.321754
0.340627 -0.030832 0.322247
0.343273 -0.029647 0.321547
0.345175 -0.029647 0.322040
0.347076 -0.029647 0.322533
0.349732 -0.028459 0.321832
0.351635 -0.028459 0.322326
0.353538 -0.028459 0.322819
0.356204 -0.027269 0.322119
0.358875 -0.026076 0.321417
0.361551 -0.024881 0.320713
0.364233 -0.023683 0.320008
0.366920 -0.022483 0.319301
0.370395 -0.020075 0.317387
0.373883 -0.017657 0.315464
0.377387 -0.015230 0.313534
0.380107 -0.014012 0.312815
0.383635 -0.011569 0.310873
0.387177 -0.009116 0.308923
0.390734 -0.006652 0.306965
0.395124 -0.002938 0.303760
0.399543 0.000800 0.300535
0.403989 0.004562 0.297289
0.408464 0.008348 0.294022
0.413818 0.013433 0.289464
0.418357 0.017276 0.286148
0.424663 0.023735 0.280230
0.434578 0.035538 0.268999
0.447424 0.051638 0.253504
0.461557 0.069566 0.236204
-0.384509 0.154519 -0.086064
-0.382323 0.145004 -0.074347
-0.380156 0.138736 -0.066439
-0.378009 0.132527 -0.058605
-0.375882 0.126375 -0.050844
-0.373775 0.120281 -0.043156
-0.371672 0.115747 -0.037297
-0.369583 0.111245 -0.031479
-0.367509 0.106774 -0.025701
-0.365426 0.103810 -0.021687
-0.363352 0.100860 -0.017692
-0.361289 0.097923 -0.013715
-0.359204 0.096460 -0.011460
-0.357157 0.093543 -0.007510
-0.355119 0.090640 -0.003579
-0.353054 0.089193 -0.001348
-0.351032 0.086309 0.002556
-0.348978 0.084872 0.004773
-0.346972 0.082008 0.008649
-0.344930 0.080581 0.010852
-0.342892 0.079157 0.013049
-0.340909 0.076318 0.016890
-0.338883 0.074904 0.019073
-0.336915 0.072084 0.022888
-0.334900 0.070679 0.025057
-0.332889 0.069277 0.027221
-0.330883 0.067879 0.029381
-0.328944 0.065090 0.033151
-0.326949 0.063701 0.035297
-0.325026 0.060931 0.039042
-0.323042 0.059551 0.041174
-0.321062 0.058174 0.043301
-0.319087 0.056800 0.045424
-0.317116 0.055429 0.047542
-0.315149 0.054061 0.049655
-0.313108 0.054061 0.050184
-0.311148 0.052696 0.052292
-0.309108 0.052696 0.052821
-0.307155 0.051333 0.054924
-0.305206 0.049974 0.057022
-0.303171 0.049974 0.057550
-0.301228 0.048618 0.059643
-0.299290 0.047265 0.061731
-0.297356 0.045915 0.063815
-0.295327 0.045915 0.064341
-0.293400 0.044568 0.066420
-0.291476 0.043224 0.068494
-0.289452 0.043224 0.069019
-0.287642 0.040544 0.072629
-0.285622 0.040544 0.073152
-0.283714 0.039209 0.075212
-0.281696 0.039209 0.075735
-0.279794 0.037876 0.077791
-0.277779 0.037876 0.078313
-0.275883 0.036546 0.080363
-0.273870 0.036546 0.080885
-0.271980 0.035220 0.082930
-0.269970 0.035220 0.083451
-0.268086 0.033896 0.085491
-0.266078 0.033896 0.086012
-0.264069 0.033896 0.086533
-0.262194 0.032575 0.088567
-0.260188 0.032575 0.089087
-0.258182 0.032575 0.089608
-0.256315 0.031256 0.091637
-0.254452 0.029941 0.093661
-0.252450 0.029941 0.094180
-0.250448 0.029941 0.094699
-0.248594 0.028629 0.096718
-0.246594 0.028629 0.097237
-0.244746 0.027319 0.099251
-0.242749 0.027319 0.099769
-0.240907 0.026012 0.101778
-0.238911 0.026012 0.102295
-0.237075 0.024708 0.104300
-0.235082 0.024708 0.104817
-0.233252 0.023407 0.106816
-0.231261 0.023407 0.107332
-0.229270 0.023407 0.107849
-0.227278 0.023407 0.108365
-0.225459 0.022109 0.110358
-0.223470 0.022109 0.110874
-0.221657 0.020813 0.112863
-0.219670 0.020813 0.113378
-0.217683 0.020813 0.113893
-0.215696 0.020813 0.114409
-0.213709 0.020813 0.114924
-0.211722 0.020813 0.115439
-0.209923 0.019520 0.117421
-0.207938 0.019520 0.117935
-0.205953 0.019520 0.118450
-0.203969 0.019520 0.118965
-0.201984 0.019520 0.119479
-0.199800 0.020813 0.118530
-0.197813 0.020813 0.119045
-0.195826 0.020813 0.119561
-0.193839 0.020813 0.120076
-0.191852 0.020813 0.120591
-0.189865 0.020813 0.121106
-0.187878 0.020813 0.121622
-0.185891 0.020813 0.122137
-0.183904 0.020813 0.122652
-0.181917 0.020813 0.123167
-0.180150 0.019520 0.125140
-0.178166 0.019520 0.125655
-0.176181 0.019520 0.126170
-0.174196 0.019520 0.126684
-0.172211 0.019520 0.127199
-0.170226 0.019520 0.127714
-0.168241 0.019520 0.128228
-0.166257 0.019520 0.128743
-0.164272 0.019520 0.129258
-0.162048 0.020813 0.128319
-0.160061 0.020813 0.128835
-0.158074 0.020813 0.129350
-0.156087 0.020813 0.129865
-0.154100 0.020813 0.130380
-0.152113 0.020813 0.130895
-0.150126 0.020813 0.131411
-0.147884 0.022109 0.130473
-0.145895 0.022109 0.130989
-0.143906 0.022109 0.131505
-0.141917 0.022109 0.132021
-0.139664 0.023407 0.131083
-0.137673 0.023407 0.131599
-0.135681 0.023407 0.132116
-0.133690 0.023407 0.132632
-0.131699 0.023407 0.133148
-0.129432 0.024708 0.132211
-0.127439 0.024708 0.132728
-0.125446 0.024708 0.133245
-0.123452 0.024708 0.133762
-0.121175 0.026012 0.132824
-0.119179 0.026012 0.133341
-0.117184 0.026012 0.133859
-0.114897 0.027319 0.132920
-0.112899 0.027319 0.133438
-0.110901 0.027319 0.133956
-0.108605 0.028629 0.133017
-0.106605 0.028629 0.133535
-0.104605 0.028629 0.134054
-0.102300 0.029941 0.133114
-0.100298 0.029941 0.133633
-0.098296 0.029941 0.134152
-0.095981 0.031256 0.133210
-0.093977 0.031256 0.133730
-0.091655 0.032575 0.132787
-0.089649 0.032575 0.133308
-0.087642 0.032575 0.133828
-0.085311 0.033896 0.132884
-0.083302 0.033896 0.133405
-0.081294 0.033896 0.133926
-0.078953 0.035220 0.132981
-0.076607 0.036546 0.132034
-0.074594 0.036546 0.132556
-0.072581 0.036546 0.133078
-0.070226 0.037876 0.132131
-0.068211 0.037876 0.132653
-0.065848 0.039209 0.131704
-0.063831 0.039209 0.132227
-0.061461 0.040544 0.131277
-0.059442 0.040544 0.131800
-0.056705 0.043224 0.129369
-0.054681 0.043224 0.129894
-0.052294 0.044568 0.128938
-0.050268 0.044568 0.129463
-0.048241 0.044568 0.129988
-0.045844 0.045915 0.129031
-0.043816 0.045915 0.129557
-0.041411 0.047265 0.128598
-0.039380 0.047265 0.129125
-0.036968 0.048618 0.128165
-0.034935 0.048618 0.128692
-0.032902 0.048618 0.129219
-0.030480 0.049974 0.128258
-0.028445 0.049974 0.128785
-0.026015 0.051333 0.127822
-0.023978 0.051333 0.128351
-0.021540 0.052696 0.127386
-0.019501 0.052696 0.127915
-0.017056 0.054061 0.126949
-0.015014 0.054061 0.127479
-0.012972 0.054061 0.128008
-0.010517 0.055429 0.127041
-0.008473 0.055429 0.127571
-0.006011 0.056800 0.126603
-0.003964 0.056800 0.127134
-0.001494 0.058174 0.126164
0.000554 0.058174 0.126695
0.003032 0.059551 0.125723
0.005083 0.059551 0.126255
0.007569 0.060931 0.125282
0.010060 0.062315 0.124307
0.012116 0.062315 0.124840
0.014615 0.063701 0.123863
0.016673 0.063701 0.124397
0.019180 0.065090 0.123418
0.021240 0.065090 0.123953
0.023755 0.066483 0.122973
0.025817 0.066483 0.123507
0.028340 0.067879 0.122526
0.030404 0.067879 0.123061
0.032935 0.069277 0.122078
0.035002 0.069277 0.122614
0.037068 0.069277 0.123150
0.039609 0.070679 0.122166
0.042156 0.072084 0.121179
0.044228 0.072084 0.121717
0.046299 0.072084 0.122254
0.048856 0.073492 0.121266
0.050930 0.073492 0.121804
0.053495 0.074904 0.120815
0.055571 0.074904 0.121353
0.058144 0.076318 0.120363
0.060223 0.076318 0.120902
0.062301 0.076318 0.121441
0.064379 0.076318 0.121980
0.066965 0.077736 0.120989
0.069557 0.079157 0.119996
0.071640 0.079157 0.120536
0.074240 0.080581 0.119541
0.076846 0.082008 0.118544
0.079458 0.083439 0.117545
0.081548 0.083439 0.118087
0.084168 0.084872 0.117086
0.086261 0.084872 0.117628
0.088353 0.084872 0.118171
0.090984 0.086309 0.117169
0.093079 0.086309 0.117712
0.095718 0.087750 0.116708
0.098363 0.089193 0.115702
0.100462 0.089193 0.116247
0.102562 0.089193 0.116791
0.105218 0.090640 0.115784
0.107320 0.090640 0.116329
0.109984 0.092090 0.115321
0.112088 0.092090 0.115866
0.115330 0.095000 0.113296
0.117439 0.095000 0.113843
0.120124 0.096460 0.112828
0.122236 0.096460 0.113376
0.124929 0.097923 0.112359
0.127629 0.099390 0.111340
0.129157 0.097923 0.113456
0.131271 0.097923 0.114004
0.133385 0.097923 0.114552
0.134905 0.096460 0.116661
0.137017 0.096460 0.117209
0.139129 0.096460 0.117756
0.140640 0.095000 0.119859
0.142750 0.095000 0.120406
0.144859 0.095000 0.120953
0.146362 0.093543 0.123050
0.148469 0.093543 0.123596
0.150576 0.093543 0.124143
0.152071 0.092090 0.126234
0.154176 0.092090 0.126779
0.156280 0.092090 0.127325
0.158385 0.092090 0.127871
0.159869 0.090640 0.129955
0.161971 0.090640 0.130500
0.164073 0.090640 0.131045
0.166175 0.090640 0.131590
0.168277 0.090640 0.132135
0.169749 0.089193 0.134213
0.171849 0.089193 0.134757
0.173949 0.089193 0.135301
0.175412 0.087750 0.137373
0.177510 0.087750 0.137917
0.180247 0.089193 0.136935
0.181704 0.087750 0.139004
0.182515 0.084872 0.142587
0.182682 0.080581 0.147659
0.182211 0.074904 0.154191
0.182378 0.070679 0.159185
0.182544 0.066483 0.164146
0.182079 0.060931 0.170532
0.136679 -0.042931 0.280484
0.138029 -0.044091 0.282194
0.139376 -0.045248 0.283900
0.140721 -0.046403 0.285602
0.141530 -0.048707 0.288511
0.142868 -0.049855 0.290204
0.144739 -0.049855 0.290689
0.146609 -0.049855 0.291174
0.149020 -0.048707 0.290453
0.150892 -0.048707 0.290939
0.153309 -0.047556 0.290217
0.154637 -0.048707 0.291910
0.157058 -0.047556 0.291189
0.158932 -0.047556 0.291675
0.160807 -0.047556 0.292161
0.163792 -0.045248 0.290231
0.166230 -0.044091 0.289506
0.168672 -0.042931 0.288780
0.171120 -0.041769 0.288052
0.173572 -0.040604 0.287323
0.176602 -0.038268 0.285371
0.179068 -0.037096 0.284637
0.181539 -0.035922 0.283902
0.182851 -0.037096 0.285618
0.184161 -0.038268 0.287331
0.184887 -0.040604 0.290257
0.186191 -0.041769 0.291960
0.187492 -0.042931 0.293660
0.189374 -0.042931 0.294148
0.190671 -0.044091 0.295843
0.191965 -0.045248 0.297536
0.193843 -0.045248 0.298023
0.196311 -0.044091 0.297306
0.198191 -0.044091 0.297793
0.200071 -0.044091 0.298281
0.201951 -0.044091 0.298768
0.204430 -0.042931 0.298052
0.206312 -0.042931 0.298540
0.208797 -0.041769 0.297822
0.211288 -0.040604 0.297103
0.213784 -0.039437 0.296383
0.216285 -0.038268 0.295661
0.218791 -0.037096 0.294937
0.221302 -0.035922 0.294212
0.224443 -0.033566 0.292266
