ply
format ascii 1.0
element vertex 1671
property float x
property float y
property float z
end_header
-0.107471 0.117601 -0.490024
-0.109233 0.117601 -0.489567
-0.111256 0.116362 -0.490057
-0.113016 0.116362 -0.489601
-0.115033 0.115126 -0.490090
-0.116792 0.115126 -0.489634
-0.118804 0.113892 -0.490124
-0.120561 0.113892 -0.489668
-0.122567 0.112661 -0.490157
-0.124322 0.112661 -0.489701
-0.126323 0.111431 -0.490190
-0.128077 0.111431 -0.489735
-0.129830 0.111431 -0.489280
-0.131824 0.110204 -0.489768
-0.133576 0.110204 -0.489314
-0.135564 0.108980 -0.489801
-0.137315 0.108980 -0.489348
-0.139065 0.108980 -0.488894
-0.141046 0.107758 -0.489381
-0.142795 0.107758 -0.488928
-0.144771 0.106538 -0.489415
-0.146518 0.106538 -0.488962
-0.148488 0.105320 -0.489448
-0.150234 0.105320 -0.488996
-0.152199 0.104105 -0.489482
-0.153942 0.104105 -0.489030
-0.155686 0.104105 -0.488578
-0.157644 0.102891 -0.489064
-0.159386 0.102891 -0.488612
-0.161339 0.101681 -0.489097
-0.163080 0.101681 -0.488646
-0.164820 0.101681 -0.488195
-0.166766 0.100472 -0.488680
-0.168505 0.100472 -0.488229
-0.170445 0.099266 -0.488714
-0.172183 0.099266 -0.488264
-0.174118 0.098062 -0.488748
-0.175854 0.098062 -0.488298
-0.177784 0.096860 -0.488782
-0.179518 0.096860 -0.488333
-0.181251 0.096860 -0.487883
-0.183175 0.095661 -0.488367
-0.184907 0.095661 -0.487918
-0.186825 0.094463 -0.488401
-0.188556 0.094463 -0.487952
-0.190468 0.093268 -0.488435
-0.192198 0.093268 -0.487987
-0.193927 0.093268 -0.487539
-0.195833 0.092075 -0.488022
-0.197560 0.092075 -0.487574
-0.199461 0.090885 -0.488056
-0.201187 0.090885 -0.487609
-0.203083 0.089697 -0.488090
-0.204807 0.089697 -0.487643
-0.206697 0.088510 -0.488125
-0.208420 0.088510 -0.487678
-0.210143 0.088510 -0.487231
-0.212027 0.087326 -0.487713
-0.213748 0.087326 -0.487267
-0.215784 0.084965 -0.488673
-0.217502 0.084965 -0.488227
-0.219373 0.083788 -0.488706
-0.221090 0.083788 -0.488261
-0.222806 0.083788 -0.487816
-0.224671 0.082613 -0.488296
-0.226386 0.082613 -0.487851
-0.228246 0.081440 -0.488329
-0.229959 0.081440 -0.487885
-0.231814 0.080269 -0.488363
-0.233526 0.080269 -0.487920
-0.235376 0.079100 -0.488397
-0.237086 0.079100 -0.487954
-0.238795 0.079100 -0.487510
-0.240639 0.077934 -0.487988
-0.242347 0.077934 -0.487545
-0.244186 0.076769 -0.488022
-0.245893 0.076769 -0.487580
-0.247726 0.075607 -0.488056
-0.249431 0.075607 -0.487614
-0.251137 0.075607 -0.487172
-0.252964 0.074447 -0.487648
-0.254667 0.074447 -0.487207
-0.256490 0.073289 -0.487683
-0.258192 0.073289 -0.487241
-0.260009 0.072133 -0.487717
-0.261709 0.072133 -0.487276
-0.263410 0.072133 -0.486835
-0.265221 0.070979 -0.487311
-0.266920 0.070979 -0.486870
-0.268619 0.070979 -0.486430
-0.270423 0.069828 -0.486905
-0.272016 0.070979 -0.485549
-0.273818 0.069828 -0.486025
-0.275515 0.069828 -0.485585
-0.277212 0.069828 -0.485145
-0.279007 0.068678 -0.485621
-0.280703 0.068678 -0.485181
-0.282399 0.068678 -0.484741
-0.284187 0.067531 -0.485218
-0.285882 0.067531 -0.484778
-0.287576 0.067531 -0.484339
-0.289270 0.067531 -0.483900
-0.291051 0.066385 -0.484376
-0.292744 0.066385 -0.483937
-0.294436 0.066385 -0.483498
-0.296210 0.065242 -0.483975
-0.297902 0.065242 -0.483536
-0.299749 0.062962 -0.484925
-0.301437 0.062962 -0.484487
-0.303125 0.062962 -0.484049
-0.304813 0.062962 -0.483612
-0.306501 0.062962 -0.483174
-0.308190 0.062962 -0.482736
-0.309878 0.062962 -0.482299
-0.311566 0.062962 -0.481861
-0.313254 0.062962 -0.481423
-0.314942 0.062962 -0.480985
-0.316630 0.062962 -0.480548
-0.318196 0.065242 -0.478274
-0.319887 0.065242 -0.477835
-0.321578 0.065242 -0.477397
-0.323269 0.065242 -0.476958
-0.324961 0.065242 -0.476520
-0.326759 0.062962 -0.477921
-0.328447 0.062962 -0.477484
-0.330135 0.062962 -0.477046
-0.331725 0.065242 -0.474766
-0.333417 0.065242 -0.474327
-0.335108 0.065242 -0.473889
-0.336799 0.065242 -0.473450
-0.338447 0.066385 -0.472086
-0.340140 0.066385 -0.471647
-0.341833 0.066385 -0.471208
-0.343487 0.067531 -0.469841
-0.345182 0.067531 -0.469402
-0.346876 0.067531 -0.468963
-0.348570 0.067531 -0.468523
-0.350232 0.068678 -0.467152
-0.351898 0.069828 -0.465779
-0.353595 0.069828 -0.465339
-0.355292 0.069828 -0.464899
-0.356990 0.069828 -0.464459
-0.358663 0.070979 -0.463082
-0.360362 0.070979 -0.462641
-0.362039 0.072133 -0.461261
-0.363740 0.072133 -0.460820
-0.365440 0.072133 -0.460379
-0.367124 0.073289 -0.458996
-0.368826 0.073289 -0.458554
-0.370515 0.074447 -0.457168
-0.372218 0.074447 -0.456726
-0.373922 0.074447 -0.456284
-0.375617 0.075607 -0.454895
-0.377322 0.075607 -0.454453
-0.379021 0.076769 -0.453060
-0.380728 0.076769 -0.452617
-0.382435 0.076769 -0.452175
-0.384142 0.076769 -0.451732
-0.385849 0.077934 -0.450336
-0.387557 0.077934 -0.449893
-0.389269 0.079100 -0.448493
-0.390979 0.079100 -0.448050
-0.392689 0.079100 -0.447606
-0.394408 0.080269 -0.446204
-0.396119 0.080269 -0.445760
-0.397842 0.081440 -0.444354
-0.399555 0.081440 -0.443910
-0.401268 0.081440 -0.443465
-0.402998 0.082613 -0.442056
-0.404713 0.082613 -0.441611
-0.406447 0.083788 -0.440199
-0.408184 0.084965 -0.438784
-0.409902 0.084965 -0.438339
-0.411620 0.084965 -0.437893
-0.413364 0.086145 -0.436475
-0.415083 0.086145 -0.436029
-0.416832 0.087326 -0.434608
-0.418584 0.088510 -0.433183
-0.420339 0.089697 -0.431757
-0.422098 0.090885 -0.430327
-0.423860 0.092075 -0.428895
-0.425625 0.093268 -0.427460
-0.427393 0.094463 -0.426023
-0.429165 0.095661 -0.424583
-0.430940 0.096860 -0.423140
-0.432718 0.098062 -0.421694
-0.434500 0.099266 -0.420246
-0.436237 0.099266 -0.419796
-0.438024 0.100472 -0.418344
-0.439865 0.102891 -0.415885
-0.441660 0.104105 -0.414426
-0.443459 0.105320 -0.412964
-0.445261 0.106538 -0.411499
-0.447066 0.107758 -0.410032
-0.448875 0.108980 -0.408561
-0.450687 0.110204 -0.407088
-0.452566 0.112661 -0.404589
-0.454387 0.113892 -0.403108
-0.456211 0.115126 -0.401624
-0.458108 0.117601 -0.399105
-0.459941 0.118842 -0.397613
-0.461850 0.121331 -0.395079
-0.463767 0.123829 -0.392536
-0.465691 0.126338 -0.389982
-0.467623 0.128855 -0.387419
-0.469643 0.132650 -0.383786
0.303492 0.248501 -0.486791
0.300832 0.246999 -0.487333
0.298177 0.245501 -0.487875
0.296240 0.245501 -0.487373
0.293593 0.244006 -0.487914
0.291657 0.244006 -0.487412
0.289018 0.242514 -0.487953
0.286384 0.241025 -0.488492
0.284453 0.241025 -0.487991
0.281826 0.239539 -0.488530
0.279205 0.238056 -0.489068
0.277278 0.238056 -0.488568
0.274664 0.236576 -0.489105
0.272739 0.236576 -0.488606
0.270133 0.235100 -0.489142
0.267532 0.233626 -0.489678
0.265611 0.233626 -0.489179
0.263017 0.232156 -0.489714
0.260429 0.230688 -0.490248
0.258512 0.230688 -0.489751
0.255931 0.229224 -0.490284
0.254016 0.229224 -0.489787
0.251442 0.227762 -0.490320
0.249529 0.227762 -0.489824
0.246963 0.226304 -0.490355
0.245052 0.226304 -0.489860
0.242493 0.224849 -0.490391
0.240584 0.224849 -0.489896
0.238032 0.223396 -0.490427
0.236125 0.223396 -0.489932
0.233580 0.221947 -0.490462
0.231041 0.220500 -0.490991
0.229138 0.220500 -0.490498
0.226606 0.219057 -0.491026
0.224705 0.219057 -0.490533
0.222180 0.217616 -0.491061
0.220280 0.217616 -0.490569
0.217762 0.216179 -0.491096
0.215865 0.216179 -0.490604
0.213354 0.214744 -0.491131
0.211459 0.214744 -0.490639
0.208955 0.213313 -0.491165
0.207061 0.213313 -0.490674
0.204565 0.211884 -0.491200
0.202673 0.211884 -0.490709
0.200184 0.210458 -0.491234
0.198294 0.210458 -0.490744
0.195811 0.209035 -0.491269
0.193924 0.209035 -0.490779
0.191448 0.207615 -0.491303
0.189562 0.207615 -0.490814
0.187094 0.206198 -0.491337
0.185210 0.206198 -0.490849
0.182748 0.204784 -0.491372
0.180866 0.204784 -0.490884
0.178411 0.203373 -0.491406
0.176531 0.203373 -0.490918
0.174083 0.201964 -0.491440
0.172205 0.201964 -0.490953
0.169764 0.200558 -0.491474
0.167888 0.200558 -0.490987
0.165453 0.199156 -0.491508
0.163579 0.199156 -0.491022
0.161151 0.197756 -0.491542
0.159279 0.197756 -0.491056
0.156858 0.196358 -0.491575
0.154988 0.196358 -0.491090
0.153117 0.196358 -0.490605
0.150705 0.194964 -0.491125
0.148837 0.194964 -0.490640
0.146431 0.193573 -0.491159
0.144565 0.193573 -0.490675
0.142166 0.192184 -0.491193
0.140301 0.192184 -0.490709
0.137909 0.190798 -0.491227
0.135522 0.189415 -0.491743
0.133661 0.189415 -0.491261
0.131281 0.188035 -0.491777
0.129422 0.188035 -0.491295
0.127048 0.186657 -0.491810
0.125190 0.186657 -0.491328
0.123333 0.186657 -0.490847
0.120968 0.185282 -0.491362
0.119112 0.185282 -0.490881
0.116754 0.183910 -0.491396
0.114900 0.183910 -0.490915
0.112548 0.182541 -0.491429
0.110696 0.182541 -0.490949
0.108350 0.181174 -0.491463
0.106500 0.181174 -0.490983
0.104650 0.181174 -0.490504
0.102313 0.179810 -0.491017
0.100465 0.179810 -0.490538
0.098135 0.178449 -0.491051
0.096288 0.178449 -0.490572
0.093964 0.177091 -0.491085
0.091645 0.175735 -0.491597
0.089802 0.175735 -0.491119
0.087019 0.173032 -0.492616
0.085180 0.173032 -0.492140
0.082876 0.171684 -0.492649
0.081039 0.171684 -0.492172
0.078742 0.170339 -0.492681
0.076906 0.170339 -0.492205
0.074615 0.168997 -0.492713
0.072782 0.168997 -0.492237
0.070948 0.168997 -0.491762
0.068665 0.167657 -0.492270
0.066833 0.167657 -0.491795
0.064557 0.166320 -0.492302
0.062727 0.166320 -0.491828
0.060457 0.164986 -0.492334
0.058628 0.164986 -0.491860
0.056800 0.164986 -0.491386
0.054538 0.163654 -0.491893
0.052712 0.163654 -0.491419
0.050456 0.162325 -0.491926
0.048631 0.162325 -0.491453
0.046381 0.160998 -0.491958
0.044559 0.160998 -0.491486
0.042315 0.159674 -0.491991
0.040494 0.159674 -0.491518
0.038673 0.159674 -0.491046
0.036438 0.158353 -0.491551
0.034619 0.158353 -0.491080
0.032389 0.157034 -0.491584
0.030572 0.157034 -0.491113
0.028349 0.155718 -0.491617
0.026533 0.155718 -0.491146
0.024718 0.155718 -0.490675
0.022502 0.154405 -0.491179
0.020688 0.154405 -0.490709
0.018479 0.153094 -0.491212
0.016667 0.153094 -0.490743
0.014464 0.151785 -0.491246
0.012654 0.151785 -0.490776
0.010457 0.150479 -0.491278
0.008648 0.150479 -0.490810
0.006840 0.150479 -0.490341
0.004651 0.149176 -0.490843
0.002844 0.149176 -0.490374
0.000661 0.147875 -0.490876
-0.001144 0.147875 -0.490408
-0.003321 0.146577 -0.490909
-0.005494 0.145281 -0.491410
-0.007296 0.145281 -0.490943
-0.009463 0.143988 -0.491442
-0.011263 0.143988 -0.490976
-0.013424 0.142697 -0.491475
-0.015222 0.142697 -0.491009
-0.017377 0.141409 -0.491507
-0.019173 0.141409 -0.491042
-0.021322 0.140123 -0.491540
-0.023117 0.140123 -0.491075
-0.024911 0.140123 -0.490609
-0.027053 0.138840 -0.491108
-0.028845 0.138840 -0.490643
-0.030981 0.137560 -0.491140
-0.032772 0.137560 -0.490676
-0.034902 0.136281 -0.491173
-0.036691 0.136281 -0.490709
-0.038480 0.136281 -0.490245
-0.040602 0.135006 -0.490742
-0.042390 0.135006 -0.490279
-0.044506 0.133732 -0.490775
-0.046292 0.133732 -0.490312
-0.048403 0.132461 -0.490808
-0.050187 0.132461 -0.490346
-0.052292 0.131193 -0.490841
-0.054074 0.131193 -0.490379
-0.055856 0.131193 -0.489917
-0.057954 0.129927 -0.490412
-0.059735 0.129927 -0.489951
-0.061826 0.128664 -0.490445
-0.063605 0.128664 -0.489984
-0.065691 0.127402 -0.490479
-0.067773 0.126144 -0.490972
-0.069549 0.126144 -0.490512
-0.071625 0.124887 -0.491005
-0.073399 0.124887 -0.490545
-0.075469 0.123634 -0.491037
-0.077241 0.123634 -0.490578
-0.079306 0.122382 -0.491070
-0.081077 0.122382 -0.490611
-0.083136 0.121133 -0.491102
-0.084905 0.121133 -0.490643
-0.086673 0.121133 -0.490185
-0.088725 0.119886 -0.490676
-0.090492 0.119886 -0.490218
-0.092539 0.118642 -0.490709
-0.094304 0.118642 -0.490251
-0.096345 0.117400 -0.490742
-0.098109 0.117400 -0.490284
-0.099872 0.117400 -0.489827
-0.101906 0.116160 -0.490317
-0.103668 0.116160 -0.489860
-0.105696 0.114923 -0.490350
-0.107456 0.114923 -0.489894
-0.109479 0.113688 -0.490383
-0.111237 0.113688 -0.489927
-0.113254 0.112456 -0.490416
-0.115011 0.112456 -0.489961
-0.116768 0.112456 -0.489505
-0.118778 0.111226 -0.489994
-0.120534 0.111226 -0.489539
-0.122538 0.109998 -0.490027
-0.124292 0.109998 -0.489572
-0.126290 0.108772 -0.490060
-0.128042 0.108772 -0.489606
-0.129794 0.108772 -0.489151
-0.131786 0.107549 -0.489639
-0.133537 0.107549 -0.489185
-0.135523 0.106328 -0.489673
-0.137272 0.106328 -0.489219
-0.139253 0.105109 -0.489706
-0.141000 0.105109 -0.489253
-0.142975 0.103893 -0.489739
-0.144721 0.103893 -0.489287
-0.146466 0.103893 -0.488834
-0.148435 0.102679 -0.489320
-0.150179 0.102679 -0.488868
-0.152142 0.101467 -0.489354
-0.153884 0.101467 -0.488902
-0.155842 0.100258 -0.489387
-0.157582 0.100258 -0.488936
-0.159323 0.100258 -0.488485
-0.161274 0.099050 -0.488970
-0.163013 0.099050 -0.488519
-0.164958 0.097846 -0.489004
-0.166696 0.097846 -0.488553
-0.168636 0.096643 -0.489037
-0.170372 0.096643 -0.488587
-0.172107 0.096643 -0.488137
-0.174041 0.095442 -0.488622
-0.175775 0.095442 -0.488172
-0.177703 0.094244 -0.488656
-0.179435 0.094244 -0.488206
-0.181359 0.093048 -0.488689
-0.183089 0.093048 -0.488241
-0.185007 0.091855 -0.488723
-0.186736 0.091855 -0.488275
-0.188465 0.091855 -0.487827
-0.190376 0.090663 -0.488309
-0.192104 0.090663 -0.487861
-0.194010 0.089474 -0.488344
-0.195736 0.089474 -0.487896
-0.197636 0.088287 -0.488378
-0.199361 0.088287 -0.487931
-0.201085 0.088287 -0.487483
-0.202979 0.087102 -0.487965
-0.204702 0.087102 -0.487518
-0.206591 0.085919 -0.487999
-0.208312 0.085919 -0.487553
-0.210195 0.084739 -0.488034
-0.211915 0.084739 -0.487588
-0.213794 0.083561 -0.488068
-0.215669 0.082385 -0.488547
-0.217385 0.082385 -0.488102
-0.219255 0.081211 -0.488581
-0.220970 0.081211 -0.488137
-0.222835 0.080039 -0.488615
-0.224548 0.080039 -0.488171
-0.226408 0.078869 -0.488648
-0.228120 0.078869 -0.488205
-0.229831 0.078869 -0.487761
-0.231685 0.077702 -0.488239
-0.233395 0.077702 -0.487795
-0.235243 0.076537 -0.488273
-0.236951 0.076537 -0.487830
-0.238795 0.075374 -0.488306
-0.240502 0.075374 -0.487864
-0.242340 0.074213 -0.488340
-0.244046 0.074213 -0.487898
-0.245751 0.074213 -0.487456
-0.247456 0.074213 -0.487014
-0.249286 0.073054 -0.487490
-0.250990 0.073054 -0.487049
-0.252816 0.071897 -0.487525
-0.254518 0.071897 -0.487084
-0.256338 0.070743 -0.487559
-0.258039 0.070743 -0.487118
-0.259739 0.070743 -0.486677
-0.261553 0.069590 -0.487153
-0.263252 0.069590 -0.486713
-0.265062 0.068440 -0.487188
-0.266759 0.068440 -0.486748
-0.268456 0.068440 -0.486308
-0.270259 0.067292 -0.486783
-0.271851 0.068440 -0.485427
-0.273651 0.067292 -0.485903
-0.275347 0.067292 -0.485464
-0.277043 0.067292 -0.485024
-0.278836 0.066146 -0.485500
-0.280530 0.066146 -0.485060
-0.282225 0.066146 -0.484621
-0.283919 0.066146 -0.484182
-0.285704 0.065002 -0.484658
-0.287397 0.065002 -0.484219
-0.289090 0.065002 -0.483780
-0.290869 0.063860 -0.484256
-0.292560 0.063860 -0.483818
-0.294251 0.063860 -0.483379
-0.295942 0.063860 -0.482941
-0.297793 0.061582 -0.484331
-0.299481 0.061582 -0.483893
-0.301246 0.060446 -0.484368
-0.302933 0.060446 -0.483930
-0.304546 0.061582 -0.482580
-0.306234 0.061582 -0.482142
-0.307922 0.061582 -0.481704
-0.309610 0.061582 -0.481267
-0.311298 0.061582 -0.480829
-0.313052 0.060446 -0.481306
-0.314674 0.061582 -0.479953
-0.316363 0.061582 -0.479516
-0.318051 0.061582 -0.479078
-0.319739 0.061582 -0.478640
-0.321427 0.061582 -0.478203
-0.323115 0.061582 -0.477765
-0.324803 0.061582 -0.477327
-0.326491 0.061582 -0.476889
-0.328179 0.061582 -0.476452
-0.329867 0.061582 -0.476014
-0.331556 0.061582 -0.475576
-0.333244 0.061582 -0.475138
-0.334932 0.061582 -0.474701
-0.336531 0.063860 -0.472416
-0.338222 0.063860 -0.471978
-0.339913 0.063860 -0.471539
-0.341605 0.063860 -0.471101
-0.343257 0.065002 -0.469735
-0.344950 0.065002 -0.469296
-0.346643 0.065002 -0.468857
-0.348302 0.066146 -0.467488
-0.349996 0.066146 -0.467048
-0.351690 0.066146 -0.466609
-0.353355 0.067292 -0.465236
-0.355051 0.067292 -0.464797
-0.356747 0.067292 -0.464357
-0.358418 0.068440 -0.462981
-0.360116 0.068440 -0.462541
-0.361813 0.068440 -0.462101
-0.363490 0.069590 -0.460721
-0.365189 0.069590 -0.460281
-0.366871 0.070743 -0.458899
-0.368572 0.070743 -0.458458
-0.370272 0.070743 -0.458017
-0.371961 0.071897 -0.456631
-0.373663 0.071897 -0.456190
-0.375356 0.073054 -0.454801
-0.377059 0.073054 -0.454359
-0.378763 0.073054 -0.453918
-0.380462 0.074213 -0.452526
-0.382167 0.074213 -0.452084
-0.383873 0.074213 -0.451641
-0.385578 0.075374 -0.450246
-0.387285 0.075374 -0.449804
-0.388992 0.075374 -0.449361
-0.390703 0.076537 -0.447962
-0.392412 0.076537 -0.447519
-0.394128 0.077702 -0.446118
-0.395838 0.077702 -0.445674
-0.397548 0.077702 -0.445231
-0.399271 0.078869 -0.443826
-0.400982 0.078869 -0.443382
-0.402710 0.080039 -0.441974
-0.404423 0.080039 -0.441530
-0.406136 0.080039 -0.441086
-0.407891 0.082385 -0.438705
-0.409607 0.082385 -0.438260
-0.411324 0.082385 -0.437815
-0.413066 0.083561 -0.436398
-0.414783 0.083561 -0.435952
-0.416530 0.084739 -0.434532
-0.418280 0.085919 -0.433109
-0.420034 0.087102 -0.431684
-0.421790 0.088287 -0.430255
-0.423550 0.089474 -0.428825
-0.425313 0.090663 -0.427391
-0.427041 0.090663 -0.426943
-0.428809 0.091855 -0.425507
-0.430580 0.093048 -0.424067
-0.432355 0.094244 -0.422625
-0.434133 0.095442 -0.421181
-0.435914 0.096643 -0.419733
-0.437699 0.097846 -0.418283
-0.439487 0.099050 -0.416830
-0.441278 0.100258 -0.415375
-0.443073 0.101467 -0.413916
-0.444871 0.102679 -0.412455
-0.446673 0.103893 -0.410992
-0.448478 0.105109 -0.409525
-0.450286 0.106328 -0.408056
-0.452098 0.107549 -0.406584
-0.453978 0.109998 -0.404086
-0.455798 0.111226 -0.402606
-0.457622 0.112456 -0.401123
-0.459520 0.114923 -0.398605
-0.461353 0.116160 -0.397114
-0.463337 0.119886 -0.393541
-0.465181 0.121133 -0.392039
-0.467184 0.124887 -0.388438
-0.469118 0.127402 -0.385872
-0.471060 0.129927 -0.383295
0.305017 0.245414 -0.487154
0.302358 0.243917 -0.487695
0.300421 0.243917 -0.487193
0.297769 0.242424 -0.487734
0.295834 0.242424 -0.487233
0.293190 0.240933 -0.487773
0.290552 0.239446 -0.488313
0.288621 0.239446 -0.487812
0.285990 0.237962 -0.488351
0.283364 0.236481 -0.488889
0.281437 0.236481 -0.488389
0.278819 0.235003 -0.488926
0.276894 0.235003 -0.488427
0.274283 0.233528 -0.488964
0.271678 0.232056 -0.489499
0.269757 0.232056 -0.489001
0.267159 0.230587 -0.489536
0.264567 0.229121 -0.490070
0.262650 0.229121 -0.489573
0.260065 0.227658 -0.490106
0.258150 0.227658 -0.489610
0.255572 0.226198 -0.490142
0.252999 0.224742 -0.490674
0.251088 0.224742 -0.490178
0.248523 0.223288 -0.490709
0.246614 0.223288 -0.490214
0.244056 0.221837 -0.490744
0.242149 0.221837 -0.490250
0.239598 0.220389 -0.490780
0.237693 0.220389 -0.490286
0.235149 0.218944 -0.490815
0.233246 0.218944 -0.490321
0.230710 0.217503 -0.490850
0.228808 0.217503 -0.490357
0.226279 0.216064 -0.490885
0.224380 0.216064 -0.490392
0.221858 0.214628 -0.490920
0.219960 0.214628 -0.490428
0.217446 0.213195 -0.490955
0.215550 0.213195 -0.490463
0.213042 0.211765 -0.490990
0.211149 0.211765 -0.490499
0.208648 0.210337 -0.491024
0.206756 0.210337 -0.490534
0.204262 0.208913 -0.491059
0.202373 0.208913 -0.490569
0.199886 0.207492 -0.491094
0.197404 0.206074 -0.491617
0.195519 0.206074 -0.491128
0.193633 0.206074 -0.490639
0.191160 0.204658 -0.491163
0.189276 0.204658 -0.490674
0.186810 0.203245 -0.491197
0.184928 0.203245 -0.490709
0.182469 0.201835 -0.491231
0.180589 0.201835 -0.490744
0.178137 0.200429 -0.491266
0.176259 0.200429 -0.490779
0.173814 0.199024 -0.491300
0.171937 0.199024 -0.490813
0.169499 0.197623 -0.491334
0.167625 0.197623 -0.490848
0.165193 0.196225 -0.491368
0.162767 0.194829 -0.491887
0.160896 0.194829 -0.491402
0.159025 0.194829 -0.490917
0.157155 0.194829 -0.490432
0.154739 0.193436 -0.490951
0.152870 0.193436 -0.490467
0.150461 0.192046 -0.490986
0.148056 0.190659 -0.491503
0.146192 0.190659 -0.491020
0.143794 0.189275 -0.491537
0.141931 0.189275 -0.491054
0.139540 0.187893 -0.491571
0.137153 0.186514 -0.492086
0.135294 0.186514 -0.491604
0.132915 0.185138 -0.492119
0.131057 0.185138 -0.491638
0.129200 0.185138 -0.491156
0.126829 0.183765 -0.491671
0.124973 0.183765 -0.491190
0.123117 0.183765 -0.490709
0.120755 0.182395 -0.491224
0.118901 0.182395 -0.490743
0.116545 0.181027 -0.491258
0.114693 0.181027 -0.490778
0.112344 0.179662 -0.491291
0.110494 0.179662 -0.490812
0.108151 0.178299 -0.491325
0.106303 0.178299 -0.490846
0.103966 0.176940 -0.491359
0.102120 0.176940 -0.490880
0.099790 0.175583 -0.491392
0.097945 0.175583 -0.490914
0.095622 0.174228 -0.491426
0.093779 0.174228 -0.490948
0.090989 0.171528 -0.492446
0.088679 0.170182 -0.492955
0.086842 0.170182 -0.492478
0.085005 0.170182 -0.492002
0.082703 0.168838 -0.492510
0.080868 0.168838 -0.492035
0.078573 0.167498 -0.492543
0.076739 0.167498 -0.492067
0.074451 0.166159 -0.492575
0.072619 0.166159 -0.492100
0.070337 0.164824 -0.492607
0.068507 0.164824 -0.492132
0.066231 0.163491 -0.492639
0.064403 0.163491 -0.492165
0.062133 0.162161 -0.492671
0.060306 0.162161 -0.492197
0.058480 0.162161 -0.491724
0.056218 0.160833 -0.492229
0.054394 0.160833 -0.491756
0.052569 0.160833 -0.491283
0.050316 0.159508 -0.491789
0.048493 0.159508 -0.491317
0.046246 0.158186 -0.491822
0.044425 0.158186 -0.491350
0.042184 0.156866 -0.491854
0.040364 0.156866 -0.491383
0.038129 0.155548 -0.491887
0.036312 0.155548 -0.491416
0.034083 0.154234 -0.491919
0.032268 0.154234 -0.491449
0.030045 0.152922 -0.491952
0.028231 0.152922 -0.491481
0.026417 0.152922 -0.491011
0.024202 0.151612 -0.491514
0.022390 0.151612 -0.491044
0.020578 0.151612 -0.490575
0.018371 0.150305 -0.491078
0.016561 0.150305 -0.490608
0.014360 0.149001 -0.491111
0.012552 0.149001 -0.490642
0.010357 0.147699 -0.491144
0.008550 0.147699 -0.490675
0.006362 0.146400 -0.491177
0.004557 0.146400 -0.490709
0.002374 0.145103 -0.491210
0.000571 0.145103 -0.490742
-0.001606 0.143809 -0.491243
-0.003407 0.143809 -0.490776
-0.005578 0.142517 -0.491275
-0.007745 0.141227 -0.491774
-0.009543 0.141227 -0.491308
-0.011341 0.141227 -0.490842
-0.013500 0.139941 -0.491341
-0.015296 0.139941 -0.490875
-0.017449 0.138656 -0.491374
-0.019243 0.138656 -0.490908
-0.021390 0.137375 -0.491406
-0.023183 0.137375 -0.490941
-0.025324 0.136095 -0.491439
-0.027115 0.136095 -0.490974
-0.029250 0.134819 -0.491471
-0.031040 0.134819 -0.491007
-0.033169 0.133544 -0.491503
-0.034957 0.133544 -0.491040
-0.036744 0.133544 -0.490576
-0.038866 0.132272 -0.491073
-0.040652 0.132272 -0.490610
-0.042438 0.132272 -0.490147
-0.044552 0.131003 -0.490643
-0.046336 0.131003 -0.490180
-0.048445 0.129736 -0.490676
-0.050227 0.129736 -0.490214
-0.052330 0.128471 -0.490709
-0.054110 0.128471 -0.490247
-0.056207 0.127209 -0.490742
-0.057986 0.127209 -0.490280
-0.060078 0.125949 -0.490775
-0.061855 0.125949 -0.490314
-0.063941 0.124692 -0.490807
-0.065716 0.124692 -0.490347
-0.067796 0.123437 -0.490840
-0.069872 0.122185 -0.491332
-0.071644 0.122185 -0.490873
-0.073416 0.122185 -0.490413
-0.075485 0.120935 -0.490905
-0.077255 0.120935 -0.490446
-0.079318 0.119687 -0.490938
-0.081087 0.119687 -0.490479
-0.083144 0.118442 -0.490971
-0.084911 0.118442 -0.490512
-0.086963 0.117199 -0.491003
-0.088728 0.117199 -0.490545
-0.090774 0.115958 -0.491035
-0.092538 0.115958 -0.490578
-0.094579 0.114720 -0.491068
-0.096341 0.114720 -0.490611
-0.098103 0.114720 -0.490154
-0.100136 0.113484 -0.490644
-0.101896 0.113484 -0.490187
-0.103657 0.113484 -0.489731
-0.105683 0.112250 -0.490220
-0.107441 0.112250 -0.489764
-0.109462 0.111019 -0.490253
-0.111219 0.111019 -0.489798
-0.113234 0.109790 -0.490286
-0.114989 0.109790 -0.489831
-0.116999 0.108564 -0.490319
-0.118753 0.108564 -0.489864
-0.120757 0.107340 -0.490352
-0.122509 0.107340 -0.489898
-0.124507 0.106118 -0.490385
-0.126258 0.106118 -0.489931
-0.128008 0.106118 -0.489477
-0.130000 0.104898 -0.489964
-0.131748 0.104898 -0.489510
-0.133497 0.104898 -0.489057
-0.135482 0.103681 -0.489544
-0.137229 0.103681 -0.489091
-0.139208 0.102466 -0.489577
-0.140953 0.102466 -0.489125
-0.142927 0.101253 -0.489611
-0.144671 0.101253 -0.489159
-0.146639 0.100043 -0.489644
-0.148382 0.100043 -0.489192
-0.150345 0.098835 -0.489677
-0.152085 0.098835 -0.489226
-0.153826 0.098835 -0.488775
-0.155782 0.097629 -0.489259
-0.157521 0.097629 -0.488809
-0.159471 0.096425 -0.489293
-0.161209 0.096425 -0.488843
-0.162946 0.096425 -0.488392
-0.164890 0.095224 -0.488876
-0.166625 0.095224 -0.488426
-0.168564 0.094025 -0.488910
-0.170298 0.094025 -0.488461
-0.172232 0.092828 -0.488944
-0.173964 0.092828 -0.488495
-0.175696 0.092828 -0.488046
-0.177623 0.091633 -0.488529
-0.179353 0.091633 -0.488080
-0.181275 0.090441 -0.488563
-0.183004 0.090441 -0.488115
-0.184920 0.089251 -0.488597
-0.186648 0.089251 -0.488149
-0.188559 0.088063 -0.488631
-0.190285 0.088063 -0.488183
-0.192010 0.088063 -0.487736
-0.193915 0.086877 -0.488218
-0.195639 0.086877 -0.487771
-0.197538 0.085694 -0.488252
-0.199261 0.085694 -0.487805
-0.201155 0.084512 -0.488286
-0.202876 0.084512 -0.487840
-0.204597 0.084512 -0.487394
-0.206484 0.083333 -0.487874
-0.208203 0.083333 -0.487429
-0.210086 0.082156 -0.487909
-0.211803 0.082156 -0.487463
-0.213680 0.080981 -0.487943
-0.215554 0.079809 -0.488422
-0.217424 0.078638 -0.488900
-0.219137 0.078638 -0.488456
-0.220850 0.078638 -0.488012
-0.222714 0.077470 -0.488490
-0.224425 0.077470 -0.488046
-0.226137 0.077470 -0.487602
-0.227994 0.076304 -0.488080
-0.229704 0.076304 -0.487637
-0.231556 0.075140 -0.488114
-0.233264 0.075140 -0.487671
-0.234972 0.075140 -0.487228
-0.236818 0.073978 -0.487706
-0.238524 0.073978 -0.487263
-0.240365 0.072819 -0.487740
-0.242070 0.072819 -0.487298
-0.243905 0.071661 -0.487774
-0.245609 0.071661 -0.487332
-0.247440 0.070506 -0.487808
-0.249142 0.070506 -0.487367
-0.250844 0.070506 -0.486926
-0.252668 0.069352 -0.487402
-0.254368 0.069352 -0.486961
-0.256187 0.068201 -0.487436
-0.257886 0.068201 -0.486996
-0.259700 0.067052 -0.487471
-0.261398 0.067052 -0.487030
-0.263095 0.067052 -0.486590
-0.264903 0.065905 -0.487065
-0.266599 0.065905 -0.486625
-0.268295 0.065905 -0.486186
-0.270096 0.064760 -0.486661
-0.271686 0.065905 -0.485306
-0.273484 0.064760 -0.485782
-0.275179 0.064760 -0.485343
-0.276873 0.064760 -0.484903
-0.278665 0.063618 -0.485379
-0.280358 0.063618 -0.484940
-0.282050 0.063618 -0.484501
-0.283743 0.063618 -0.484062
-0.285527 0.062477 -0.484538
-0.287218 0.062477 -0.484100
-0.288909 0.062477 -0.483661
-0.290773 0.060202 -0.485049
-0.292461 0.060202 -0.484612
-0.294150 0.060202 -0.484174
-0.295838 0.060202 -0.483736
-0.297606 0.059067 -0.484211
-0.299292 0.059067 -0.483774
-0.301056 0.057935 -0.484248
-0.302665 0.059067 -0.482899
-0.304352 0.059067 -0.482462
-0.306039 0.059067 -0.482025
-0.307725 0.059067 -0.481587
-0.309412 0.059067 -0.481150
-0.311098 0.059067 -0.480713
-0.312785 0.059067 -0.480275
-0.314471 0.059067 -0.479838
-0.316158 0.059067 -0.479401
-0.317845 0.059067 -0.478963
-0.319531 0.059067 -0.478526
-0.321218 0.059067 -0.478089
-0.322904 0.059067 -0.477651
-0.324536 0.060202 -0.476295
-0.326277 0.059067 -0.476777
-0.327964 0.059067 -0.476339
-0.329651 0.059067 -0.475902
-0.331337 0.059067 -0.475465
-0.333024 0.059067 -0.475028
-0.334710 0.059067 -0.474590
-0.336352 0.060202 -0.473231
-0.338040 0.060202 -0.472793
-0.339729 0.060202 -0.472356
-0.341336 0.062477 -0.470067
-0.343028 0.062477 -0.469628
-0.344719 0.062477 -0.469190
-0.346410 0.062477 -0.468751
-0.348067 0.063618 -0.467383
-0.349760 0.063618 -0.466944
-0.351453 0.063618 -0.466505
-0.353116 0.064760 -0.465134
-0.354810 0.064760 -0.464695
-0.356505 0.064760 -0.464255
-0.358174 0.065905 -0.462880
-0.359870 0.065905 -0.462441
-0.361566 0.065905 -0.462001
-0.363241 0.067052 -0.460623
-0.364939 0.067052 -0.460183
-0.366619 0.068201 -0.458802
-0.368318 0.068201 -0.458361
-0.370017 0.068201 -0.457921
-0.371703 0.069352 -0.456536
-0.373404 0.069352 -0.456095
-0.375095 0.070506 -0.454708
-0.376797 0.070506 -0.454266
-0.378499 0.070506 -0.453825
-0.380201 0.070506 -0.453384
-0.381900 0.071661 -0.451993
-0.383604 0.071661 -0.451551
-0.385307 0.072819 -0.450157
-0.387013 0.072819 -0.449715
-0.388718 0.072819 -0.449273
-0.390428 0.073978 -0.447875
-0.392135 0.073978 -0.447433
-0.393849 0.075140 -0.446032
-0.395558 0.075140 -0.445589
-0.397266 0.075140 -0.445146
-0.398987 0.076304 -0.443742
-0.400697 0.076304 -0.443299
-0.402423 0.077470 -0.441892
-0.404134 0.077470 -0.441448
-0.405865 0.078638 -0.440038
-0.407598 0.079809 -0.438626
-0.409313 0.079809 -0.438181
-0.411052 0.080981 -0.436766
-0.412768 0.080981 -0.436321
-0.414511 0.082156 -0.434902
-0.416229 0.082156 -0.434457
-0.417977 0.083333 -0.433035
-0.419729 0.084512 -0.431611
-0.421483 0.085694 -0.430184
-0.423206 0.085694 -0.429737
-0.424966 0.086877 -0.428307
-0.426728 0.088063 -0.426875
-0.428494 0.089251 -0.425439
-0.430264 0.090441 -0.424001
-0.432037 0.091633 -0.422560
-0.433813 0.092828 -0.421117
-0.435545 0.092828 -0.420668
-0.437326 0.094025 -0.419221
-0.439110 0.095224 -0.417772
-0.440898 0.096425 -0.416320
-0.442689 0.097629 -0.414866
-0.444539 0.100043 -0.412400
-0.446339 0.101253 -0.410937
-0.448142 0.102466 -0.409472
-0.449948 0.103681 -0.408004
-0.451758 0.104898 -0.406533
-0.453571 0.106118 -0.405060
-0.455387 0.107340 -0.403583
-0.457207 0.108564 -0.402104
-0.459031 0.109790 -0.400622
-0.460929 0.112250 -0.398106
-0.462835 0.114720 -0.395580
-0.464749 0.117199 -0.393045
-0.466669 0.119687 -0.390500
-0.468597 0.122185 -0.387945
-0.470614 0.125949 -0.384324
-0.472559 0.128471 -0.381745
0.306539 0.242334 -0.487516
0.304602 0.242334 -0.487013
0.301946 0.240842 -0.487555
0.300011 0.240842 -0.487053
0.297363 0.239353 -0.487594
0.294720 0.237867 -0.488134
0.292789 0.237867 -0.487633
0.290154 0.236385 -0.488172
0.287524 0.234905 -0.488710
0.285597 0.234905 -0.488211
0.282974 0.233429 -0.488748
0.281049 0.233429 -0.488249
0.278434 0.231955 -0.488786
0.275825 0.230485 -0.489321
0.273904 0.230485 -0.488823
0.271302 0.229018 -0.489358
0.268705 0.227554 -0.489892
0.266788 0.227554 -0.489395
0.264198 0.226092 -0.489929
0.262283 0.226092 -0.489432
0.259701 0.224634 -0.489965
0.257125 0.223179 -0.490496
0.255213 0.223179 -0.490001
0.252644 0.221727 -0.490532
0.250735 0.221727 -0.490037
0.248173 0.220278 -0.490568
0.246265 0.220278 -0.490073
0.243710 0.218832 -0.490603
0.241805 0.218832 -0.490109
0.239258 0.217388 -0.490638
0.237354 0.217388 -0.490145
0.234814 0.215948 -0.490674
0.232912 0.215948 -0.490181
0.230379 0.214511 -0.490709
0.228480 0.214511 -0.490216
0.225953 0.213077 -0.490744
0.223432 0.211645 -0.491270
0.221537 0.211645 -0.490779
0.219023 0.210217 -0.491305
0.217129 0.210217 -0.490814
0.214622 0.208791 -0.491339
0.212731 0.208791 -0.490849
0.210231 0.207368 -0.491374
0.208341 0.207368 -0.490884
0.205848 0.205949 -0.491408
0.203961 0.205949 -0.490919
0.201475 0.204532 -0.491442
0.199589 0.204532 -0.490953
0.197110 0.203118 -0.491476
0.195226 0.203118 -0.490988
0.192754 0.201707 -0.491510
0.190872 0.201707 -0.491022
0.188407 0.200298 -0.491544
0.186527 0.200298 -0.491057
0.184069 0.198893 -0.491578
0.182191 0.198893 -0.491091
0.179740 0.197490 -0.491612
0.177864 0.197490 -0.491126
0.175419 0.196091 -0.491646
0.173545 0.196091 -0.491160
0.171107 0.194694 -0.491680
0.169235 0.194694 -0.491194
0.166804 0.193300 -0.491713
0.164934 0.193300 -0.491228
0.162510 0.191909 -0.491747
0.160641 0.191909 -0.491262
0.158772 0.191909 -0.490778
0.156357 0.190520 -0.491296
0.154490 0.190520 -0.490812
0.152082 0.189135 -0.491330
0.150217 0.189135 -0.490847
0.147815 0.187752 -0.491364
0.145952 0.187752 -0.490881
0.143557 0.186372 -0.491398
0.141167 0.184994 -0.491914
0.139307 0.184994 -0.491432
0.136924 0.183620 -0.491947
0.135066 0.183620 -0.491466
0.132689 0.182248 -0.491980
0.130834 0.182248 -0.491499
0.128464 0.180879 -0.492013
0.126610 0.180879 -0.491533
0.124756 0.180879 -0.491052
0.122394 0.179513 -0.491566
0.120542 0.179513 -0.491086
0.118187 0.178149 -0.491600
0.116337 0.178149 -0.491120
0.113988 0.176788 -0.491633
0.112140 0.176788 -0.491154
0.110292 0.176788 -0.490674
0.107951 0.175430 -0.491187
0.106105 0.175430 -0.490709
0.103771 0.174075 -0.491221
0.101927 0.174075 -0.490743
0.099599 0.172722 -0.491255
0.097757 0.172722 -0.490777
0.094958 0.170025 -0.492275
0.093119 0.170025 -0.491799
0.090807 0.168680 -0.492308
0.088500 0.167338 -0.492816
0.086665 0.167338 -0.492340
0.084364 0.165999 -0.492848
0.082531 0.165999 -0.492373
0.080236 0.164662 -0.492880
0.078404 0.164662 -0.492405
0.076573 0.164662 -0.491930
0.074286 0.163328 -0.492437
0.072457 0.163328 -0.491963
0.070177 0.161996 -0.492469
0.068348 0.161996 -0.491995
0.066075 0.160668 -0.492501
0.064249 0.160668 -0.492028
0.061981 0.159341 -0.492533
0.060157 0.159341 -0.492060
0.058332 0.159341 -0.491587
0.056073 0.158018 -0.492093
0.054250 0.158018 -0.491620
0.051997 0.156697 -0.492125
0.050176 0.156697 -0.491653
0.047929 0.155379 -0.492157
0.046110 0.155379 -0.491686
0.044291 0.155379 -0.491214
0.042052 0.154063 -0.491718
0.040235 0.154063 -0.491247
0.038002 0.152749 -0.491751
0.036186 0.152749 -0.491280
0.033960 0.151439 -0.491784
0.032146 0.151439 -0.491313
0.029926 0.150131 -0.491816
0.028114 0.150131 -0.491346
0.026302 0.150131 -0.490876
0.024089 0.148825 -0.491379
0.022279 0.148825 -0.490910
0.020072 0.147522 -0.491412
0.018264 0.147522 -0.490943
0.016064 0.146222 -0.491445
0.014257 0.146222 -0.490976
0.012450 0.146222 -0.490508
0.010258 0.144924 -0.491009
0.008453 0.144924 -0.490541
0.006266 0.143629 -0.491043
0.004463 0.143629 -0.490575
0.002282 0.142336 -0.491076
0.000481 0.142336 -0.490608
-0.001694 0.141045 -0.491109
-0.003493 0.141045 -0.490642
-0.005662 0.139758 -0.491141
-0.007826 0.138472 -0.491640
-0.009623 0.138472 -0.491174
-0.011781 0.137189 -0.491672
-0.013575 0.137189 -0.491207
-0.015728 0.135909 -0.491705
-0.017521 0.135909 -0.491240
-0.019313 0.135909 -0.490775
-0.021458 0.134631 -0.491273
-0.023249 0.134631 -0.490808
-0.025388 0.133356 -0.491305
-0.027178 0.133356 -0.490841
-0.029311 0.132083 -0.491338
-0.031098 0.132083 -0.490874
-0.033226 0.130812 -0.491370
-0.035011 0.130812 -0.490907
-0.036797 0.130812 -0.490444
-0.038917 0.129544 -0.490940
-0.040701 0.129544 -0.490477
-0.042815 0.128279 -0.490973
-0.044597 0.128279 -0.490510
-0.046706 0.127016 -0.491005
-0.048486 0.127016 -0.490544
-0.050267 0.127016 -0.490082
-0.052368 0.125755 -0.490577
-0.054147 0.125755 -0.490115
-0.056242 0.124496 -0.490610
-0.058019 0.124496 -0.490149
-0.060108 0.123241 -0.490643
-0.061884 0.123241 -0.490182
-0.063967 0.121987 -0.490676
-0.065741 0.121987 -0.490216
-0.067819 0.120736 -0.490709
-0.069893 0.119487 -0.491200
-0.071663 0.119487 -0.490741
-0.073732 0.118241 -0.491233
-0.075500 0.118241 -0.490774
-0.077563 0.116997 -0.491265
-0.079330 0.116997 -0.490807
-0.081097 0.116997 -0.490349
-0.083152 0.115755 -0.490839
-0.084918 0.115755 -0.490382
-0.086967 0.114516 -0.490872
-0.088731 0.114516 -0.490415
-0.090775 0.113279 -0.490904
-0.092537 0.113279 -0.490447
-0.094576 0.112045 -0.490937
-0.096336 0.112045 -0.490480
-0.098097 0.112045 -0.490024
-0.100128 0.110813 -0.490513
-0.101887 0.110813 -0.490057
-0.103912 0.109583 -0.490546
-0.105669 0.109583 -0.490090
-0.107690 0.108355 -0.490578
-0.109445 0.108355 -0.490123
-0.111200 0.108355 -0.489668
-0.113214 0.107130 -0.490156
-0.114967 0.107130 -0.489702
-0.116975 0.105907 -0.490189
-0.118727 0.105907 -0.489735
-0.120729 0.104687 -0.490222
-0.122480 0.104687 -0.489768
-0.124477 0.103469 -0.490255
-0.126225 0.103469 -0.489802
-0.127974 0.103469 -0.489348
-0.129964 0.102253 -0.489835
-0.131711 0.102253 -0.489382
-0.133695 0.101039 -0.489868
-0.135441 0.101039 -0.489415
-0.137420 0.099828 -0.489901
-0.139163 0.099828 -0.489449
-0.140907 0.099828 -0.488997
-0.142879 0.098619 -0.489482
-0.144621 0.098619 -0.489031
-0.146588 0.097412 -0.489516
-0.148328 0.097412 -0.489065
-0.150290 0.096207 -0.489549
-0.152028 0.096207 -0.489098
-0.153767 0.096207 -0.488647
-0.155722 0.095005 -0.489132
-0.157459 0.095005 -0.488681
-0.159408 0.093805 -0.489166
-0.161144 0.093805 -0.488716
-0.163087 0.092607 -0.489199
-0.164821 0.092607 -0.488750
-0.166555 0.092607 -0.488300
-0.168492 0.091412 -0.488783
-0.170225 0.091412 -0.488334
-0.172156 0.090218 -0.488817
-0.173887 0.090218 -0.488368
-0.175814 0.089027 -0.488851
-0.177543 0.089027 -0.488403
-0.179464 0.087839 -0.488885
-0.181191 0.087839 -0.488437
-0.182919 0.087839 -0.487989
-0.184833 0.086652 -0.488471
-0.186559 0.086652 -0.488023
-0.188469 0.085468 -0.488505
-0.190193 0.085468 -0.488058
-0.192097 0.084285 -0.488539
-0.193820 0.084285 -0.488092
-0.195542 0.084285 -0.487646
-0.197440 0.083105 -0.488127
-0.199161 0.083105 -0.487680
-0.201053 0.081927 -0.488161
-0.202772 0.081927 -0.487715
-0.204660 0.080752 -0.488195
-0.206543 0.079578 -0.488674
-0.208260 0.079578 -0.488229
-0.209976 0.079578 -0.487784
-0.211853 0.078407 -0.488263
-0.213568 0.078407 -0.487819
-0.215440 0.077238 -0.488297
-0.217153 0.077238 -0.487853
-0.219020 0.076071 -0.488331
-0.220731 0.076071 -0.487887
-0.222593 0.074906 -0.488365
-0.224303 0.074906 -0.487922
-0.226013 0.074906 -0.487478
-0.227868 0.073744 -0.487956
-0.229576 0.073744 -0.487513
-0.231427 0.072583 -0.487990
-0.233134 0.072583 -0.487547
-0.234979 0.071425 -0.488024
-0.236684 0.071425 -0.487582
-0.238389 0.071425 -0.487140
-0.240228 0.070268 -0.487616
-0.241932 0.070268 -0.487174
-0.243766 0.069114 -0.487651
-0.245468 0.069114 -0.487209
-0.247297 0.067962 -0.487685
-0.248997 0.067962 -0.487244
-0.250821 0.066812 -0.487719
-0.252520 0.066812 -0.487279
-0.254219 0.066812 -0.486838
-0.256037 0.065665 -0.487313
-0.257734 0.065665 -0.486873
-0.259547 0.064519 -0.487348
-0.261242 0.064519 -0.486908
-0.263050 0.063375 -0.487382
-0.264745 0.063375 -0.486943
-0.266439 0.063375 -0.486504
-0.268133 0.063375 -0.486064
-0.269933 0.062234 -0.486539
-0.271522 0.063375 -0.485186
-0.273318 0.062234 -0.485661
-0.275011 0.062234 -0.485222
-0.276704 0.062234 -0.484783
-0.278494 0.061094 -0.485258
-0.280185 0.061094 -0.484820
-0.281877 0.061094 -0.484381
-0.283568 0.061094 -0.483943
-0.285441 0.058822 -0.485331
-0.287130 0.058822 -0.484893
-0.288818 0.058822 -0.484455
-0.290592 0.057689 -0.484930
-0.292279 0.057689 -0.484492
-0.293965 0.057689 -0.484055
-0.295652 0.057689 -0.483618
-0.297418 0.056557 -0.484092
-0.299103 0.056557 -0.483655
-0.300788 0.056557 -0.483218
-0.302474 0.056557 -0.482781
-0.304159 0.056557 -0.482344
-0.305844 0.056557 -0.481908
-0.307529 0.056557 -0.481471
-0.309214 0.056557 -0.481034
-0.310899 0.056557 -0.480597
-0.312584 0.056557 -0.480160
-0.314269 0.056557 -0.479723
-0.315954 0.056557 -0.479286
-0.317639 0.056557 -0.478849
-0.319264 0.057689 -0.477495
-0.320950 0.057689 -0.477058
-0.322637 0.057689 -0.476620
-0.324324 0.057689 -0.476183
-0.326064 0.056557 -0.476664
-0.327749 0.056557 -0.476228
-0.329434 0.056557 -0.475791
-0.331070 0.057689 -0.474434
-0.332756 0.057689 -0.473996
-0.334443 0.057689 -0.473559
-0.336130 0.057689 -0.473122
-0.337816 0.057689 -0.472685
-0.339461 0.058822 -0.471324
-0.341149 0.058822 -0.470886
-0.342837 0.058822 -0.470448
-0.344525 0.058822 -0.470010
-0.346142 0.061094 -0.467717
-0.347833 0.061094 -0.467279
-0.349524 0.061094 -0.466840
-0.351216 0.061094 -0.466402
-0.352877 0.062234 -0.465032
-0.354542 0.063375 -0.463659
-0.356236 0.063375 -0.463219
-0.357930 0.063375 -0.462780
-0.359625 0.063375 -0.462341
-0.361319 0.063375 -0.461901
-0.362993 0.064519 -0.460524
-0.364689 0.064519 -0.460085
-0.366367 0.065665 -0.458705
-0.368064 0.065665 -0.458265
-0.369762 0.065665 -0.457825
-0.371447 0.066812 -0.456441
-0.373146 0.066812 -0.456001
-0.374835 0.067962 -0.454615
-0.376535 0.067962 -0.454174
-0.378236 0.067962 -0.453733
-0.379936 0.067962 -0.453292
-0.381634 0.069114 -0.451902
-0.383336 0.069114 -0.451461
-0.385037 0.070268 -0.450068
-0.386741 0.070268 -0.449626
-0.388445 0.070268 -0.449184
-0.390153 0.071425 -0.447788
-0.391858 0.071425 -0.447346
-0.393571 0.072583 -0.445947
-0.395278 0.072583 -0.445504
-0.396984 0.072583 -0.445061
-0.398704 0.073744 -0.443659
-0.400412 0.073744 -0.443216
-0.402136 0.074906 -0.441810
-0.403846 0.074906 -0.441367
-0.405574 0.076071 -0.439958
-0.407306 0.077238 -0.438547
-0.409019 0.077238 -0.438103
-0.410756 0.078407 -0.436688
-0.412471 0.078407 -0.436244
-0.414212 0.079578 -0.434826
-0.415928 0.079578 -0.434381
-0.417675 0.080752 -0.432961
-0.419424 0.081927 -0.431538
-0.421144 0.081927 -0.431092
-0.422898 0.083105 -0.429666
-0.424656 0.084285 -0.428237
-0.426416 0.085468 -0.426806
-0.428181 0.086652 -0.425372
-0.429948 0.087839 -0.423935
-0.431719 0.089027 -0.422496
-0.433448 0.089027 -0.422047
-0.435224 0.090218 -0.420605
-0.437003 0.091412 -0.419160
-0.438785 0.092607 -0.417712
-0.440571 0.093805 -0.416261
-0.442360 0.095005 -0.414808
-0.444152 0.096207 -0.413352
-0.445948 0.097412 -0.411893
-0.447747 0.098619 -0.410431
-0.449550 0.099828 -0.408967
-0.451356 0.101039 -0.407500
-0.453165 0.102253 -0.406030
-0.454978 0.103469 -0.404557
-0.456794 0.104687 -0.403082
-0.458614 0.105907 -0.401604
-0.460508 0.108355 -0.399094
-0.462336 0.109583 -0.397608
-0.464243 0.112045 -0.395084
-0.466157 0.114516 -0.392550
-0.468157 0.118241 -0.388960
-0.470088 0.120736 -0.386402
-0.472026 0.123241 -0.383834
-0.474057 0.127016 -0.380195
0.306123 0.239260 -0.487375
0.304188 0.239260 -0.486874
0.301535 0.237773 -0.487415
0.298888 0.236289 -0.487955
0.296957 0.236289 -0.487454
0.294317 0.234808 -0.487993
0.291683 0.233330 -0.488531
0.289756 0.233330 -0.488032
0.287129 0.231855 -0.488569
0.285204 0.231855 -0.488070
0.282585 0.230383 -0.488607
0.279971 0.228915 -0.489143
0.278050 0.228915 -0.488645
0.275444 0.227449 -0.489180
0.272843 0.225986 -0.489714
0.270926 0.225986 -0.489217
0.268332 0.224527 -0.489751
0.265744 0.223070 -0.490283
0.263831 0.223070 -0.489787
0.261250 0.221617 -0.490319
0.259339 0.221617 -0.489824
0.256765 0.220166 -0.490355
0.254196 0.218719 -0.490885
0.252289 0.218719 -0.490391
0.249728 0.217274 -0.490920
0.247823 0.217274 -0.490426
0.245269 0.215832 -0.490955
0.243366 0.215832 -0.490462
0.240819 0.214394 -0.490990
0.238918 0.214394 -0.490497
0.236378 0.212958 -0.491025
0.234479 0.212958 -0.490533
0.231946 0.211525 -0.491060
0.230049 0.211525 -0.490568
0.227524 0.210096 -0.491095
0.225628 0.210096 -0.490603
0.223110 0.208669 -0.491129
0.221217 0.208669 -0.490638
0.218705 0.207245 -0.491164
0.216814 0.207245 -0.490673
0.214310 0.205823 -0.491199
0.212420 0.205823 -0.490709
0.209923 0.204405 -0.491233
0.208035 0.204405 -0.490743
0.205545 0.202990 -0.491267
0.203060 0.201578 -0.491790
0.201177 0.201578 -0.491302
0.198699 0.200168 -0.491824
0.196817 0.200168 -0.491336
0.194346 0.198761 -0.491858
0.192466 0.198761 -0.491370
0.190585 0.198761 -0.490883
0.188123 0.197358 -0.491404
0.186245 0.197358 -0.490917
0.183790 0.195957 -0.491438
0.181913 0.195957 -0.490952
0.179465 0.194558 -0.491472
0.177591 0.194558 -0.490986
0.175149 0.193163 -0.491506
0.173277 0.193163 -0.491021
0.170842 0.191771 -0.491540
0.168412 0.190381 -0.492058
0.166543 0.190381 -0.491574
0.164120 0.188994 -0.492091
0.162253 0.188994 -0.491607
0.159837 0.187610 -0.492125
0.158520 0.188994 -0.490639
0.156107 0.187610 -0.491158
0.153700 0.186229 -0.491675
0.151837 0.186229 -0.491192
0.149436 0.184850 -0.491708
0.147574 0.184850 -0.491226
0.145180 0.183474 -0.491742
0.142791 0.182101 -0.492257
0.140933 0.182101 -0.491775
0.138550 0.180731 -0.492289
0.136695 0.180731 -0.491808
0.134839 0.180731 -0.491327
0.132465 0.179364 -0.491841
0.130611 0.179364 -0.491361
0.128243 0.177999 -0.491875
0.126391 0.177999 -0.491394
0.124540 0.177999 -0.490914
0.122180 0.176637 -0.491428
0.120330 0.176637 -0.490948
0.117977 0.175277 -0.491462
0.116129 0.175277 -0.490982
0.113783 0.173921 -0.491495
0.111937 0.173921 -0.491016
0.109597 0.172567 -0.491528
0.107753 0.172567 -0.491050
0.105419 0.171216 -0.491562
0.103577 0.171216 -0.491084
0.100767 0.168521 -0.492582
0.098928 0.168521 -0.492105
0.097089 0.168521 -0.491628
0.094773 0.167178 -0.492138
0.092936 0.167178 -0.491661
0.090627 0.165837 -0.492170
0.088322 0.164500 -0.492678
0.086488 0.164500 -0.492203
0.084190 0.163164 -0.492710
0.082358 0.163164 -0.492235
0.080066 0.161832 -0.492742
0.078236 0.161832 -0.492267
0.075951 0.160502 -0.492774
0.074123 0.160502 -0.492300
0.071843 0.159175 -0.492806
0.070017 0.159175 -0.492332
0.067744 0.157850 -0.492837
0.065919 0.157850 -0.492364
0.064095 0.157850 -0.491891
0.061830 0.156528 -0.492396
0.060007 0.156528 -0.491924
0.058184 0.156528 -0.491451
0.055927 0.155208 -0.491956
0.054107 0.155208 -0.491484
0.051856 0.153891 -0.491989
0.050037 0.153891 -0.491517
0.047792 0.152577 -0.492021
0.045975 0.152577 -0.491550
0.043736 0.151265 -0.492053
0.041921 0.151265 -0.491583
0.039689 0.149956 -0.492086
0.037875 0.149956 -0.491615
0.035649 0.148649 -0.492118
0.033837 0.148649 -0.491648
0.032025 0.148649 -0.491178
0.029807 0.147345 -0.491681
0.027996 0.147345 -0.491211
0.026186 0.147345 -0.490742
0.023976 0.146044 -0.491244
0.022168 0.146044 -0.490775
0.019963 0.144745 -0.491277
0.018157 0.144745 -0.490809
0.015958 0.143448 -0.491310
0.014153 0.143448 -0.490842
0.011961 0.142154 -0.491343
0.010158 0.142154 -0.490875
0.007972 0.140863 -0.491376
0.006171 0.140863 -0.490909
0.003991 0.139574 -0.491408
0.002191 0.139574 -0.490942
0.000391 0.139574 -0.490475
-0.001781 0.138288 -0.490975
-0.003579 0.138288 -0.490509
-0.005745 0.137004 -0.491008
-0.007908 0.135722 -0.491506
-0.009702 0.135722 -0.491041
-0.011858 0.134443 -0.491538
-0.013651 0.134443 -0.491074
-0.015802 0.133167 -0.491571
-0.017592 0.133167 -0.491106
-0.019737 0.131893 -0.491603
-0.021526 0.131893 -0.491139
-0.023665 0.130621 -0.491635
-0.025452 0.130621 -0.491172
-0.027585 0.129352 -0.491668
-0.029371 0.129352 -0.491205
-0.031157 0.129352 -0.490741
-0.033282 0.128086 -0.491237
-0.035066 0.128086 -0.490774
-0.036850 0.128086 -0.490312
-0.038968 0.126822 -0.490807
-0.040750 0.126822 -0.490345
-0.042862 0.125560 -0.490840
-0.044643 0.125560 -0.490379
-0.046749 0.124300 -0.490873
-0.048528 0.124300 -0.490412
-0.050628 0.123043 -0.490906
-0.052405 0.123043 -0.490445
-0.054500 0.121789 -0.490939
-0.056276 0.121789 -0.490478
-0.058365 0.120537 -0.490971
-0.060138 0.120537 -0.490511
-0.061912 0.120537 -0.490051
-0.063994 0.119287 -0.490544
-0.065766 0.119287 -0.490085
-0.067842 0.118040 -0.490577
-0.069914 0.116795 -0.491069
-0.071682 0.116795 -0.490610
-0.073749 0.115552 -0.491101
-0.075516 0.115552 -0.490643
-0.077576 0.114312 -0.491133
-0.079342 0.114312 -0.490676
-0.081397 0.113074 -0.491166
-0.083161 0.113074 -0.490708
-0.085210 0.111839 -0.491198
-0.086972 0.111839 -0.490741
-0.089016 0.110606 -0.491230
-0.090776 0.110606 -0.490773
-0.092537 0.110606 -0.490317
-0.094573 0.109375 -0.490806
-0.096332 0.109375 -0.490350
-0.098091 0.109375 -0.489894
-0.100120 0.108146 -0.490383
-0.101877 0.108146 -0.489927
-0.103901 0.106920 -0.490416
-0.105656 0.106920 -0.489961
-0.107675 0.105697 -0.490448
-0.109428 0.105697 -0.489994
-0.111441 0.104475 -0.490481
-0.113193 0.104475 -0.490027
-0.115201 0.103256 -0.490514
-0.116951 0.103256 -0.490060
-0.118953 0.102039 -0.490546
-0.120702 0.102039 -0.490093
-0.122451 0.102039 -0.489639
-0.124446 0.100824 -0.490126
-0.126193 0.100824 -0.489673
-0.127940 0.100824 -0.489220
-0.129928 0.099612 -0.489706
-0.131673 0.099612 -0.489254
-0.133656 0.098402 -0.489739
-0.135399 0.098402 -0.489287
-0.137377 0.097194 -0.489773
-0.139119 0.097194 -0.489321
-0.141091 0.095989 -0.489806
-0.142831 0.095989 -0.489354
-0.144798 0.094786 -0.489839
-0.146536 0.094786 -0.489388
-0.148498 0.093585 -0.489872
-0.150235 0.093585 -0.489421
-0.151972 0.093585 -0.488971
-0.153926 0.092386 -0.489455
-0.155662 0.092386 -0.489005
-0.157397 0.092386 -0.488555
-0.159345 0.091190 -0.489038
-0.161079 0.091190 -0.488589
-0.163021 0.089995 -0.489072
-0.164753 0.089995 -0.488623
-0.166690 0.088804 -0.489105
-0.168421 0.088804 -0.488657
-0.170352 0.087614 -0.489139
-0.172081 0.087614 -0.488691
-0.173810 0.087614 -0.488242
-0.175735 0.086426 -0.488725
-0.177463 0.086426 -0.488277
-0.179382 0.085241 -0.488758
-0.181108 0.085241 -0.488311
-0.183022 0.084058 -0.488792
-0.184747 0.084058 -0.488345
-0.186656 0.082877 -0.488826
-0.188379 0.082877 -0.488379
-0.190283 0.081698 -0.488859
-0.192004 0.081698 -0.488413
-0.193903 0.080522 -0.488893
