ply
format ascii 1.0
element vertex 1682
property float x
property float y
property float z
end_header
-0.222094 0.332762 -0.115073
-0.220324 0.332762 -0.116020
-0.217782 0.334086 -0.115830
-0.215245 0.335407 -0.115640
-0.212713 0.336725 -0.115450
-0.210186 0.338041 -0.115261
-0.207665 0.339354 -0.115072
-0.205905 0.339354 -0.116014
-0.203391 0.340664 -0.115825
-0.201632 0.340664 -0.116766
-0.199125 0.341971 -0.116576
-0.196623 0.343276 -0.116386
-0.194127 0.344578 -0.116197
-0.192373 0.344578 -0.117136
-0.189884 0.345877 -0.116946
-0.187399 0.347174 -0.116756
-0.185650 0.347174 -0.117693
-0.183172 0.348468 -0.117503
-0.180700 0.349759 -0.117313
-0.178954 0.349759 -0.118248
-0.176488 0.351048 -0.118057
-0.174744 0.351048 -0.118991
-0.172286 0.352334 -0.118800
-0.169832 0.353617 -0.118610
-0.167384 0.354898 -0.118420
-0.165645 0.354898 -0.119351
-0.163204 0.356176 -0.119160
-0.161466 0.356176 -0.120090
-0.159032 0.357451 -0.119899
-0.156602 0.358724 -0.119708
-0.154177 0.359994 -0.119517
-0.152446 0.359994 -0.120444
-0.150028 0.361261 -0.120253
-0.148298 0.361261 -0.121179
-0.145887 0.362526 -0.120988
-0.144158 0.362526 -0.121913
-0.141754 0.363788 -0.121721
-0.139354 0.365048 -0.121529
-0.137630 0.365048 -0.122452
-0.135237 0.366305 -0.122260
-0.133514 0.366305 -0.123182
-0.131127 0.367560 -0.122990
-0.129406 0.367560 -0.123911
-0.127027 0.368812 -0.123718
-0.125307 0.368812 -0.124638
-0.123588 0.368812 -0.125558
-0.121217 0.370061 -0.125363
-0.119499 0.370061 -0.126283
-0.117134 0.371308 -0.126087
-0.115418 0.371308 -0.127006
-0.113060 0.372553 -0.126810
-0.111346 0.372553 -0.127727
-0.109632 0.372553 -0.128645
-0.107282 0.373795 -0.128448
-0.105570 0.373795 -0.129364
-0.103857 0.373795 -0.130281
-0.102145 0.373795 -0.131197
-0.100432 0.373795 -0.132114
-0.098720 0.373795 -0.133030
-0.097008 0.373795 -0.133947
-0.094673 0.375034 -0.133744
-0.092962 0.375034 -0.134660
-0.091252 0.375034 -0.135575
-0.089541 0.375034 -0.136491
-0.087830 0.375034 -0.137407
-0.085507 0.376271 -0.137201
-0.083798 0.376271 -0.138115
-0.082089 0.376271 -0.139030
-0.080380 0.376271 -0.139945
-0.078067 0.377505 -0.139737
-0.076360 0.377505 -0.140650
-0.075254 0.376271 -0.142689
-0.073545 0.376271 -0.143603
-0.071836 0.376271 -0.144518
-0.070127 0.376271 -0.145433
-0.067824 0.377505 -0.145219
-0.066117 0.377505 -0.146133
-0.064410 0.377505 -0.147047
-0.062703 0.377505 -0.147960
-0.060995 0.377505 -0.148874
-0.059288 0.377505 -0.149788
-0.057581 0.377505 -0.150702
-0.055874 0.377505 -0.151615
-0.053588 0.378737 -0.151396
-0.051882 0.378737 -0.152308
-0.050177 0.378737 -0.153221
-0.048471 0.378737 -0.154134
-0.047338 0.377505 -0.156184
-0.045631 0.377505 -0.157098
-0.043924 0.377505 -0.158011
-0.042216 0.377505 -0.158925
-0.040509 0.377505 -0.159839
-0.038239 0.378737 -0.159611
-0.036533 0.378737 -0.160524
-0.034828 0.378737 -0.161437
-0.033122 0.378737 -0.162349
-0.031417 0.378737 -0.163262
-0.029711 0.378737 -0.164175
-0.028006 0.378737 -0.165088
-0.026301 0.378737 -0.166001
-0.024595 0.378737 -0.166913
-0.022890 0.378737 -0.167826
-0.021184 0.378737 -0.168739
-0.019479 0.378737 -0.169652
-0.017773 0.378737 -0.170565
-0.016068 0.378737 -0.171477
-0.014362 0.378737 -0.172390
-0.012657 0.378737 -0.173303
-0.010417 0.379967 -0.173062
-0.008713 0.379967 -0.173974
-0.007009 0.379967 -0.174886
-0.005306 0.379967 -0.175797
-0.003602 0.379967 -0.176709
-0.001898 0.379967 -0.177621
-0.000194 0.379967 -0.178533
0.001509 0.379967 -0.179445
0.003213 0.379967 -0.180357
0.004917 0.379967 -0.181269
0.006621 0.379967 -0.182181
0.008324 0.379967 -0.183093
0.009514 0.378737 -0.185170
0.010706 0.377505 -0.187251
0.011901 0.376271 -0.189337
0.013098 0.375034 -0.191427
0.014297 0.373795 -0.193521
0.015499 0.372553 -0.195619
0.016703 0.371308 -0.197722
0.017910 0.370061 -0.199828
0.019119 0.368812 -0.201940
0.020331 0.367560 -0.204055
0.021545 0.366305 -0.206175
0.022762 0.365048 -0.208299
0.023474 0.362526 -0.211635
0.024697 0.361261 -0.213772
0.025415 0.358724 -0.217130
0.026643 0.357451 -0.219278
0.027368 0.354898 -0.222658
0.028602 0.353617 -0.224819
0.029334 0.351048 -0.228220
0.030573 0.349759 -0.230394
0.031311 0.347174 -0.233817
0.032557 0.345877 -0.236003
0.034308 0.345877 -0.236941
0.035559 0.344578 -0.239132
0.036811 0.343276 -0.241328
0.038067 0.341971 -0.243529
0.039824 0.341971 -0.244469
0.040585 0.339354 -0.247944
0.041848 0.338041 -0.250158
0.043114 0.336725 -0.252377
0.044383 0.335407 -0.254601
0.045654 0.334086 -0.256829
0.046928 0.332762 -0.259062
0.048204 0.331435 -0.261300
0.049484 0.330105 -0.263542
0.050765 0.328773 -0.265789
0.052050 0.327438 -0.268041
0.053337 0.326100 -0.270298
0.054627 0.324759 -0.272559
0.055920 0.323416 -0.274826
0.057216 0.322069 -0.277097
0.058514 0.320720 -0.279372
0.059815 0.319368 -0.281653
0.061119 0.318013 -0.283938
0.062425 0.316655 -0.286229
0.063734 0.315294 -0.288524
0.065047 0.313930 -0.290824
0.066843 0.313930 -0.291785
0.068160 0.312564 -0.294091
0.069479 0.311194 -0.296402
0.070802 0.309822 -0.298718
0.072127 0.308446 -0.301039
0.073455 0.307068 -0.303365
0.074786 0.305687 -0.305695
0.076120 0.304302 -0.308031
0.077457 0.302915 -0.310372
0.078796 0.301525 -0.312718
0.080138 0.300132 -0.315069
0.081484 0.298736 -0.317425
0.082832 0.297336 -0.319786
0.084183 0.295934 -0.322152
0.085537 0.294529 -0.324523
0.086894 0.293121 -0.326899
0.088254 0.291709 -0.329281
0.089617 0.290295 -0.331668
0.090983 0.288877 -0.334059
0.092352 0.287457 -0.336456
0.093723 0.286033 -0.338859
0.095098 0.284606 -0.341266
0.096476 0.283176 -0.343679
0.097397 0.280307 -0.347534
0.098782 0.278868 -0.349961
0.100170 0.277425 -0.352394
0.101561 0.275980 -0.354832
0.102955 0.274531 -0.357276
0.104352 0.273079 -0.359725
0.105752 0.271624 -0.362179
0.107155 0.270166 -0.364639
0.108561 0.268704 -0.367104
0.110421 0.268704 -0.368099
0.111383 0.265771 -0.372050
0.112799 0.264300 -0.374532
0.115111 0.265771 -0.374046
0.116974 0.265771 -0.375043
0.119279 0.267239 -0.374557
0.121141 0.267239 -0.375553
0.123438 0.268704 -0.375067
0.125731 0.270166 -0.374581
0.128018 0.271624 -0.374097
0.130301 0.273079 -0.373614
0.132578 0.274531 -0.373131
0.134430 0.274531 -0.374122
0.136700 0.275980 -0.373640
0.138550 0.275980 -0.374630
0.140399 0.275980 -0.375620
0.142249 0.275980 -0.376610
0.144098 0.275980 -0.377600
0.146355 0.277425 -0.377114
0.148203 0.277425 -0.378103
0.150050 0.277425 -0.379092
0.151898 0.277425 -0.380080
0.153745 0.277425 -0.381069
0.155989 0.278868 -0.380580
0.157835 0.278868 -0.381568
0.159680 0.278868 -0.382556
0.161526 0.278868 -0.383544
0.163371 0.278868 -0.384531
0.165216 0.278868 -0.385519
0.167446 0.280307 -0.385026
0.169289 0.280307 -0.386013
0.171133 0.280307 -0.386999
0.172976 0.280307 -0.387986
0.174819 0.280307 -0.388972
0.177408 0.283176 -0.386996
0.179247 0.283176 -0.387981
0.181087 0.283176 -0.388965
0.182926 0.283176 -0.389950
0.184765 0.283176 -0.390934
0.186966 0.284606 -0.390437
0.188804 0.284606 -0.391420
0.190641 0.284606 -0.392404
0.192478 0.284606 -0.393387
0.194316 0.284606 -0.394371
0.196153 0.284606 -0.395354
0.198339 0.286033 -0.394852
0.200174 0.286033 -0.395835
0.202010 0.286033 -0.396817
0.203845 0.286033 -0.397799
0.205680 0.286033 -0.398782
0.207854 0.287457 -0.398277
0.209687 0.287457 -0.399258
0.211520 0.287457 -0.400239
0.213354 0.287457 -0.401221
0.215187 0.287457 -0.402202
0.217348 0.288877 -0.401694
0.219179 0.288877 -0.402674
0.221010 0.288877 -0.403654
0.222842 0.288877 -0.404635
0.224673 0.288877 -0.405615
0.226505 0.288877 -0.406595
0.228650 0.290295 -0.406083
0.230480 0.290295 -0.407062
0.232309 0.290295 -0.408041
0.233830 0.288877 -0.410516
0.235661 0.288877 -0.411496
0.237797 0.290295 -0.410979
0.239627 0.290295 -0.411958
0.241456 0.290295 -0.412937
0.243286 0.290295 -0.413916
0.245115 0.290295 -0.414895
0.247238 0.291709 -0.414374
0.249066 0.291709 -0.415352
0.250893 0.291709 -0.416331
0.252721 0.291709 -0.417309
0.254548 0.291709 -0.418287
0.256659 0.293121 -0.417763
0.258484 0.293121 -0.418740
0.260310 0.293121 -0.419717
0.262135 0.293121 -0.420694
0.263961 0.293121 -0.421671
0.265512 0.291709 -0.424155
0.267340 0.291709 -0.425133
0.269167 0.291709 -0.426111
0.270995 0.291709 -0.427090
0.272822 0.291709 -0.428068
0.274385 0.290295 -0.430562
0.276215 0.290295 -0.431541
0.278044 0.290295 -0.432520
0.279873 0.290295 -0.433499
0.281446 0.288877 -0.436001
0.283277 0.288877 -0.436982
0.285108 0.288877 -0.437962
0.286940 0.288877 -0.438942
0.288522 0.287457 -0.441453
0.290107 0.286033 -0.443970
0.291942 0.286033 -0.444952
0.293533 0.284606 -0.447475
0.294639 0.280307 -0.453104
0.296240 0.278868 -0.455647
0.297844 0.277425 -0.458196
0.299452 0.275980 -0.460750
0.301063 0.274531 -0.463310
0.302677 0.273079 -0.465875
0.304296 0.271624 -0.468446
0.305918 0.270166 -0.471023
0.306843 0.264300 -0.478391
-0.478831 0.099201 -0.247511
-0.474270 0.102910 -0.245616
-0.469731 0.106601 -0.243731
-0.465214 0.110274 -0.241855
-0.460720 0.113928 -0.239988
-0.456248 0.117565 -0.238130
-0.452986 0.119376 -0.237758
-0.449733 0.121183 -0.237386
-0.446487 0.122986 -0.237016
-0.443250 0.124784 -0.236646
-0.440020 0.126578 -0.236277
-0.436798 0.128368 -0.235910
-0.433585 0.130153 -0.235543
-0.431533 0.130153 -0.236641
-0.428329 0.131934 -0.236274
-0.425133 0.133710 -0.235907
-0.364178 0.225196 -0.161576
-0.349425 0.245171 -0.146118
-0.337934 0.260145 -0.134763
-0.330418 0.268971 -0.128467
-0.325772 0.273340 -0.125845
-0.322075 0.276237 -0.124437
-0.319310 0.277681 -0.124229
-0.314730 0.281993 -0.121639
-0.311985 0.283424 -0.121435
-0.309246 0.284852 -0.121231
-0.305618 0.287699 -0.119845
-0.302895 0.289118 -0.119644
-0.300177 0.290534 -0.119443
-0.297466 0.291946 -0.119243
-0.293883 0.294762 -0.117868
-0.291187 0.296166 -0.117670
-0.288497 0.297566 -0.117473
-0.285813 0.298964 -0.117276
-0.283134 0.300358 -0.117079
-0.279605 0.303138 -0.115718
-0.276942 0.304524 -0.115524
-0.274284 0.305906 -0.115330
-0.271633 0.307286 -0.115136
-0.268987 0.308663 -0.114943
-0.267184 0.308663 -0.115907
-0.264546 0.310036 -0.115713
-0.261913 0.311407 -0.115520
-0.259286 0.312775 -0.115327
-0.256664 0.314140 -0.115134
-0.254048 0.315502 -0.114942
-0.251438 0.316861 -0.114751
-0.248833 0.318217 -0.114559
-0.246233 0.319571 -0.114368
-0.243639 0.320921 -0.114178
-0.241051 0.322269 -0.113988
-0.238468 0.323614 -0.113798
-0.235890 0.324956 -0.113609
-0.233318 0.326295 -0.113420
-0.230751 0.327631 -0.113231
-0.228190 0.328965 -0.113043
-0.225634 0.330295 -0.112855
-0.223862 0.330295 -0.113804
-0.221314 0.331623 -0.113615
-0.218770 0.332948 -0.113427
-0.216232 0.334271 -0.113240
-0.213699 0.335590 -0.113053
-0.211172 0.336907 -0.112866
-0.208650 0.338221 -0.112679
-0.206889 0.338221 -0.113622
-0.205129 0.338221 -0.114564
-0.202615 0.339533 -0.114376
-0.200107 0.340841 -0.114189
-0.197604 0.342147 -0.114001
-0.195849 0.342147 -0.114941
-0.193354 0.343450 -0.114753
-0.190863 0.344751 -0.114566
-0.188378 0.346049 -0.114379
-0.186628 0.346049 -0.115315
-0.184150 0.347344 -0.115128
-0.181676 0.348636 -0.114940
-0.179930 0.348636 -0.115875
-0.177464 0.349926 -0.115687
-0.175719 0.349926 -0.116621
-0.173260 0.351213 -0.116432
-0.170806 0.352497 -0.116245
-0.169065 0.352497 -0.117176
-0.166617 0.353779 -0.116988
-0.164175 0.355058 -0.116799
-0.162438 0.355058 -0.117729
-0.160002 0.356335 -0.117541
-0.158267 0.356335 -0.118469
-0.155838 0.357609 -0.118280
-0.153414 0.358880 -0.118091
-0.150995 0.360148 -0.117903
-0.149265 0.360148 -0.118829
-0.146853 0.361414 -0.118640
-0.145125 0.361414 -0.119565
-0.142719 0.362678 -0.119375
-0.140319 0.363939 -0.119186
-0.138594 0.363939 -0.120109
-0.136200 0.365197 -0.119919
-0.134477 0.365197 -0.120841
-0.132090 0.366453 -0.120651
-0.130369 0.366453 -0.121572
-0.127988 0.367706 -0.121381
-0.126269 0.367706 -0.122301
-0.124549 0.367706 -0.123222
-0.122177 0.368957 -0.123029
-0.120459 0.368957 -0.123949
-0.118094 0.370205 -0.123756
-0.116378 0.370205 -0.124674
-0.114019 0.371450 -0.124481
-0.112304 0.371450 -0.125398
-0.109952 0.372693 -0.125204
-0.108239 0.372693 -0.126121
-0.106527 0.372693 -0.127037
-0.104815 0.372693 -0.127954
-0.103102 0.372693 -0.128870
-0.101390 0.372693 -0.129787
-0.099051 0.373934 -0.129588
-0.097340 0.373934 -0.130504
-0.095629 0.373934 -0.131420
-0.093919 0.373934 -0.132335
-0.092208 0.373934 -0.133251
-0.089881 0.375172 -0.133049
-0.088172 0.375172 -0.133964
-0.086463 0.375172 -0.134879
-0.084754 0.375172 -0.135793
-0.082436 0.376407 -0.135589
-0.080729 0.376407 -0.136503
-0.079022 0.376407 -0.137417
-0.077315 0.376407 -0.138331
-0.075607 0.376407 -0.139244
-0.073900 0.376407 -0.140158
-0.072193 0.376407 -0.141072
-0.070486 0.376407 -0.141986
-0.068779 0.376407 -0.142899
-0.067072 0.376407 -0.143813
-0.065364 0.376407 -0.144727
-0.063657 0.376407 -0.145640
-0.061950 0.376407 -0.146554
-0.060243 0.376407 -0.147468
-0.058536 0.376407 -0.148382
-0.056247 0.377640 -0.148165
-0.054541 0.377640 -0.149078
-0.052836 0.377640 -0.149991
-0.051131 0.377640 -0.150904
-0.049425 0.377640 -0.151816
-0.047720 0.377640 -0.152729
-0.046014 0.377640 -0.153642
-0.044309 0.377640 -0.154555
-0.042603 0.377640 -0.155468
-0.040898 0.377640 -0.156381
-0.039192 0.377640 -0.157293
-0.037487 0.377640 -0.158206
-0.035781 0.377640 -0.159119
-0.034076 0.377640 -0.160032
-0.032371 0.377640 -0.160945
-0.030665 0.377640 -0.161857
-0.028960 0.377640 -0.162770
-0.027254 0.377640 -0.163683
-0.025549 0.377640 -0.164596
-0.023843 0.377640 -0.165509
-0.022138 0.377640 -0.166422
-0.020432 0.377640 -0.167334
-0.018184 0.378871 -0.167099
-0.016481 0.378871 -0.168011
-0.014777 0.378871 -0.168923
-0.013073 0.378871 -0.169835
-0.011369 0.378871 -0.170747
-0.009666 0.378871 -0.171658
-0.007962 0.378871 -0.172570
-0.006258 0.378871 -0.173482
-0.004555 0.378871 -0.174394
-0.002851 0.378871 -0.175306
-0.001147 0.378871 -0.176218
0.000557 0.378871 -0.177130
0.002260 0.378871 -0.178042
0.003964 0.378871 -0.178954
0.005668 0.378871 -0.179866
0.007372 0.378871 -0.180777
0.009075 0.378871 -0.181689
0.010779 0.378871 -0.182601
0.011971 0.377640 -0.184678
0.013166 0.376407 -0.186759
0.014363 0.375172 -0.188844
0.015562 0.373934 -0.190933
0.016764 0.372693 -0.193027
0.017969 0.371450 -0.195125
0.019176 0.370205 -0.197227
0.020385 0.368957 -0.199333
0.021597 0.367706 -0.201444
0.022811 0.366453 -0.203559
0.024027 0.365197 -0.205678
0.025247 0.363939 -0.207802
0.025964 0.361414 -0.211137
0.027189 0.360148 -0.213273
0.027913 0.357609 -0.216630
0.029144 0.356335 -0.218778
0.029874 0.353779 -0.222156
0.030607 0.351213 -0.225549
0.031847 0.349926 -0.227717
0.032586 0.347344 -0.231132
0.033832 0.346049 -0.233313
0.034578 0.343450 -0.236750
0.036331 0.343450 -0.237688
0.037585 0.342147 -0.239883
0.039340 0.342147 -0.240822
0.040598 0.340841 -0.243022
0.041859 0.339533 -0.245227
0.043122 0.338221 -0.247436
0.044388 0.336907 -0.249650
0.045656 0.335590 -0.251868
0.046928 0.334271 -0.254092
0.048201 0.332948 -0.256319
0.049478 0.331623 -0.258552
0.050757 0.330295 -0.260789
0.052039 0.328965 -0.263031
0.053324 0.327631 -0.265277
0.054611 0.326295 -0.267529
0.055901 0.324956 -0.269785
0.057194 0.323614 -0.272046
0.058489 0.322269 -0.274311
0.059787 0.320921 -0.276582
0.061088 0.319571 -0.278857
0.062392 0.318217 -0.281137
0.063699 0.316861 -0.283422
0.065008 0.315502 -0.285712
0.066320 0.314140 -0.288006
0.068114 0.314140 -0.288967
0.069431 0.312775 -0.291267
0.070751 0.311407 -0.293573
0.072073 0.310036 -0.295883
0.073398 0.308663 -0.298198
0.074726 0.307286 -0.300519
0.076057 0.305906 -0.302844
0.077391 0.304524 -0.305174
0.078727 0.303138 -0.307509
0.080067 0.301750 -0.309849
0.081409 0.300358 -0.312195
0.082754 0.298964 -0.314545
0.084103 0.297566 -0.316900
0.085454 0.296166 -0.319261
0.086341 0.293356 -0.323021
0.088165 0.293356 -0.323997
0.089524 0.291946 -0.326373
0.090887 0.290534 -0.328754
0.092253 0.289118 -0.331140
0.093622 0.287699 -0.333531
0.094993 0.286277 -0.335928
0.096368 0.284852 -0.338329
0.097746 0.283424 -0.340736
0.099126 0.281993 -0.343148
0.100053 0.279121 -0.347002
0.101441 0.277681 -0.349429
0.102832 0.276237 -0.351861
0.104226 0.274790 -0.354299
0.105622 0.273340 -0.356742
0.107022 0.271887 -0.359190
0.108425 0.270430 -0.361644
0.109831 0.268971 -0.364103
0.111241 0.267508 -0.366568
0.112653 0.266042 -0.369038
0.114068 0.264572 -0.371513
0.115487 0.263100 -0.373994
0.117353 0.263100 -0.374993
0.119660 0.264572 -0.374506
0.121961 0.266042 -0.374020
0.123823 0.266042 -0.375016
0.126118 0.267508 -0.374530
0.127977 0.267508 -0.375526
0.130692 0.270430 -0.373562
0.132972 0.271887 -0.373079
0.134825 0.271887 -0.374071
0.137098 0.273340 -0.373588
0.138949 0.273340 -0.374579
0.141214 0.274790 -0.374097
0.143064 0.274790 -0.375086
0.144913 0.274790 -0.376076
0.146763 0.274790 -0.377066
0.149017 0.276237 -0.376581
0.150865 0.276237 -0.377570
0.152712 0.276237 -0.378559
0.154560 0.276237 -0.379548
0.156407 0.276237 -0.380536
0.158254 0.276237 -0.381525
0.160494 0.277681 -0.381036
0.162339 0.277681 -0.382024
0.164185 0.277681 -0.383011
0.166030 0.277681 -0.383999
0.167875 0.277681 -0.384987
0.169721 0.277681 -0.385975
0.171945 0.279121 -0.385481
0.173789 0.279121 -0.386468
0.175632 0.279121 -0.387454
0.177475 0.279121 -0.388441
0.180058 0.281993 -0.386466
0.181898 0.281993 -0.387450
0.183737 0.281993 -0.388435
0.185576 0.281993 -0.389419
0.187416 0.281993 -0.390404
0.189255 0.281993 -0.391388
0.191451 0.283424 -0.390890
0.193288 0.283424 -0.391874
0.195126 0.283424 -0.392857
0.196963 0.283424 -0.393841
0.198800 0.283424 -0.394824
0.200638 0.283424 -0.395808
0.202819 0.284852 -0.395305
0.204654 0.284852 -0.396288
0.206489 0.284852 -0.397270
0.208325 0.284852 -0.398252
0.210495 0.286277 -0.397748
0.212329 0.286277 -0.398729
0.214162 0.286277 -0.399711
0.215995 0.286277 -0.400692
0.217829 0.286277 -0.401673
0.219662 0.286277 -0.402654
0.221818 0.287699 -0.402146
0.223649 0.287699 -0.403126
0.225480 0.287699 -0.404106
0.227312 0.287699 -0.405087
0.229143 0.287699 -0.406067
0.230975 0.287699 -0.407047
0.233116 0.289118 -0.406534
0.234637 0.287699 -0.409007
0.236469 0.287699 -0.409988
0.238300 0.287699 -0.410968
0.240433 0.289118 -0.410451
0.242263 0.289118 -0.411430
0.244092 0.289118 -0.412409
0.245921 0.289118 -0.413388
0.247751 0.289118 -0.414368
0.249580 0.289118 -0.415347
0.251699 0.290534 -0.414825
0.253526 0.290534 -0.415804
0.255354 0.290534 -0.416782
0.257181 0.290534 -0.417760
0.259289 0.291946 -0.417237
0.261115 0.291946 -0.418214
0.262940 0.291946 -0.419191
0.264765 0.291946 -0.420168
0.266318 0.290534 -0.422650
0.268145 0.290534 -0.423628
0.269973 0.290534 -0.424606
0.271800 0.290534 -0.425584
0.273628 0.290534 -0.426563
0.275192 0.289118 -0.429055
0.277021 0.289118 -0.430034
0.278850 0.289118 -0.431013
0.280680 0.289118 -0.431992
0.282253 0.287699 -0.434493
0.284084 0.287699 -0.435473
0.285916 0.287699 -0.436453
0.287496 0.286277 -0.438962
0.289330 0.286277 -0.439943
0.290916 0.284852 -0.442458
0.292506 0.283424 -0.444978
0.294099 0.281993 -0.447504
0.295452 0.279121 -0.451586
0.297053 0.277681 -0.454127
0.298658 0.276237 -0.456674
0.300267 0.274790 -0.459227
0.301879 0.273340 -0.461785
0.303495 0.271887 -0.464348
0.305114 0.270430 -0.466918
0.306736 0.268971 -0.469493
0.307899 0.264572 -0.475257
-0.479147 0.095990 -0.247296
-0.474579 0.099712 -0.245399
-0.470033 0.103415 -0.243512
-0.465511 0.107100 -0.241634
-0.461010 0.110767 -0.239765
-0.456532 0.114416 -0.237906
-0.453266 0.116233 -0.237533
-0.450008 0.118047 -0.237161
-0.446758 0.119855 -0.236791
-0.443516 0.121660 -0.236421
-0.440283 0.123460 -0.236052
-0.437057 0.125255 -0.235684
-0.435000 0.125255 -0.236785
-0.431784 0.127046 -0.236417
-0.428576 0.128833 -0.236049
-0.425376 0.130616 -0.235683
-0.351457 0.242437 -0.144797
-0.339931 0.257458 -0.133443
-0.333333 0.264844 -0.128358
-0.327736 0.270695 -0.124529
-0.324031 0.273601 -0.123122
-0.320342 0.276494 -0.121721
-0.317582 0.277936 -0.121517
-0.313013 0.282242 -0.118938
-0.310273 0.283672 -0.118737
-0.306642 0.286521 -0.117356
-0.303918 0.287941 -0.117158
-0.301199 0.289358 -0.116960
-0.298487 0.290772 -0.116762
-0.294901 0.293591 -0.115393
-0.292204 0.294996 -0.115198
-0.289513 0.296397 -0.115003
-0.286828 0.297796 -0.114808
-0.284149 0.299192 -0.114614
-0.280617 0.301974 -0.113259
-0.277953 0.303361 -0.113067
-0.275294 0.304745 -0.112876
-0.272641 0.306126 -0.112685
-0.269994 0.307503 -0.112494
-0.268192 0.307503 -0.113459
-0.265553 0.308878 -0.113267
-0.262919 0.310250 -0.113077
-0.260290 0.311619 -0.112886
-0.257668 0.312986 -0.112696
-0.255050 0.314349 -0.112507
-0.252439 0.315709 -0.112317
-0.249833 0.317067 -0.112129
-0.247232 0.318421 -0.111940
-0.244637 0.319773 -0.111752
-0.242048 0.321122 -0.111565
-0.239464 0.322468 -0.111378
-0.236885 0.323811 -0.111191
-0.234312 0.325152 -0.111004
-0.231744 0.326489 -0.110818
-0.229182 0.327824 -0.110633
-0.227408 0.327824 -0.111582
-0.224853 0.329156 -0.111396
-0.222303 0.330485 -0.111210
-0.219759 0.331811 -0.111025
-0.217220 0.333135 -0.110840
-0.214686 0.334455 -0.110655
-0.212157 0.335773 -0.110471
-0.209634 0.337089 -0.110287
-0.207874 0.337089 -0.111229
-0.205358 0.338401 -0.111045
-0.203599 0.338401 -0.111986
-0.201090 0.339711 -0.111801
-0.199333 0.339711 -0.112741
-0.196831 0.341018 -0.112556
-0.194334 0.342323 -0.112370
-0.191842 0.343624 -0.112186
-0.190091 0.343624 -0.113123
-0.187606 0.344923 -0.112938
-0.185127 0.346219 -0.112752
-0.182653 0.347513 -0.112568
-0.180906 0.347513 -0.113502
-0.178439 0.348804 -0.113317
-0.176695 0.348804 -0.114251
-0.174234 0.350092 -0.114065
-0.172492 0.350092 -0.114997
-0.170038 0.351378 -0.114811
-0.167590 0.352661 -0.114625
-0.165146 0.353941 -0.114439
-0.163409 0.353941 -0.115369
-0.160972 0.355219 -0.115183
-0.159237 0.355219 -0.116111
-0.156807 0.356494 -0.115925
-0.154382 0.357766 -0.115738
-0.152651 0.357766 -0.116665
-0.150232 0.359036 -0.116478
-0.147819 0.360303 -0.116291
-0.146091 0.360303 -0.117216
-0.143685 0.361567 -0.117029
-0.141283 0.362830 -0.116842
-0.139558 0.362830 -0.117765
-0.137163 0.364089 -0.117578
-0.135440 0.364089 -0.118500
-0.133052 0.365346 -0.118312
-0.131331 0.365346 -0.119233
-0.128949 0.366600 -0.119045
-0.127230 0.366600 -0.119965
-0.124855 0.367852 -0.119776
-0.123137 0.367852 -0.120695
-0.121420 0.367852 -0.121615
-0.119053 0.369101 -0.121424
-0.117337 0.369101 -0.122342
-0.114977 0.370348 -0.122151
-0.113263 0.370348 -0.123069
-0.110909 0.371592 -0.122877
-0.109197 0.371592 -0.123794
-0.107485 0.371592 -0.124710
-0.105139 0.372833 -0.124517
-0.103428 0.372833 -0.125433
-0.101718 0.372833 -0.126348
-0.100007 0.372833 -0.127264
-0.098297 0.372833 -0.128179
-0.095963 0.374073 -0.127983
-0.094254 0.374073 -0.128898
-0.092545 0.374073 -0.129812
-0.090836 0.374073 -0.130727
-0.089127 0.374073 -0.131642
-0.087418 0.374073 -0.132556
-0.085098 0.375309 -0.132356
-0.083391 0.375309 -0.133269
-0.081077 0.376543 -0.133068
-0.079371 0.376543 -0.133981
-0.077666 0.376543 -0.134894
-0.075961 0.376543 -0.135807
-0.074255 0.376543 -0.136720
-0.072550 0.376543 -0.137632
-0.070844 0.376543 -0.138545
-0.069139 0.376543 -0.139458
-0.067433 0.376543 -0.140371
-0.065728 0.376543 -0.141284
-0.064022 0.376543 -0.142196
-0.062317 0.376543 -0.143109
-0.060611 0.376543 -0.144022
-0.058906 0.376543 -0.144935
-0.056619 0.377775 -0.144722
-0.054915 0.377775 -0.145634
-0.053212 0.377775 -0.146546
-0.051508 0.377775 -0.147458
-0.049804 0.377775 -0.148370
-0.048100 0.377775 -0.149282
-0.046397 0.377775 -0.150194
-0.045262 0.376543 -0.152237
-0.042989 0.377775 -0.152017
-0.041286 0.377775 -0.152929
-0.039582 0.377775 -0.153841
-0.037878 0.377775 -0.154753
-0.036174 0.377775 -0.155665
-0.034471 0.377775 -0.156577
-0.032767 0.377775 -0.157489
-0.031063 0.377775 -0.158401
-0.029359 0.377775 -0.159313
-0.027656 0.377775 -0.160224
-0.025952 0.377775 -0.161136
-0.024248 0.377775 -0.162048
-0.022545 0.377775 -0.162960
-0.020841 0.377775 -0.163872
-0.019137 0.377775 -0.164784
-0.017433 0.377775 -0.165696
-0.015191 0.379004 -0.165462
-0.013489 0.379004 -0.166373
-0.011787 0.379004 -0.167284
-0.010085 0.379004 -0.168195
-0.008383 0.379004 -0.169106
-0.006681 0.379004 -0.170017
-0.004979 0.379004 -0.170928
-0.003277 0.379004 -0.171839
-0.001575 0.379004 -0.172750
0.000127 0.379004 -0.173661
0.001829 0.379004 -0.174572
0.003532 0.379004 -0.175483
0.005234 0.379004 -0.176394
0.006936 0.379004 -0.177305
0.008638 0.379004 -0.178216
0.009826 0.377775 -0.180286
0.011530 0.377775 -0.181198
0.013234 0.377775 -0.182110
0.014429 0.376543 -0.184186
0.015626 0.375309 -0.186266
0.017333 0.375309 -0.187180
0.018534 0.374073 -0.189266
0.019738 0.372833 -0.191355
0.020944 0.371592 -0.193449
0.022153 0.370348 -0.195548
0.023364 0.369101 -0.197650
0.024577 0.367852 -0.199757
0.025291 0.365346 -0.203062
0.026510 0.364089 -0.205181
0.027229 0.361567 -0.208508
0.028454 0.360303 -0.210639
0.029180 0.357766 -0.213987
0.030411 0.356494 -0.216130
0.031143 0.353941 -0.219499
0.032379 0.352661 -0.221655
0.033118 0.350092 -0.225046
0.033859 0.347513 -0.228452
0.035105 0.346219 -0.230628
0.035853 0.343624 -0.234056
0.037104 0.342323 -0.236244
0.038858 0.342323 -0.237182
0.040114 0.341018 -0.239376
0.041373 0.339711 -0.241575
0.043130 0.339711 -0.242515
0.044393 0.338401 -0.244719
0.045659 0.337089 -0.246928
0.046927 0.335773 -0.249142
0.048198 0.334455 -0.251360
0.049472 0.333135 -0.253582
0.050749 0.331811 -0.255809
0.052028 0.330485 -0.258041
0.053310 0.329156 -0.260278
0.054594 0.327824 -0.262519
0.055882 0.326489 -0.264765
0.057172 0.325152 -0.267016
0.058464 0.323811 -0.269272
0.059760 0.322468 -0.271532
0.061058 0.321122 -0.273797
0.062359 0.319773 -0.276067
0.063663 0.318421 -0.278342
0.064969 0.317067 -0.280621
0.066278 0.315709 -0.282905
0.067590 0.314349 -0.285195
0.069383 0.314349 -0.286154
0.070700 0.312986 -0.288449
0.072019 0.311619 -0.290749
0.073341 0.310250 -0.293054
0.074667 0.308878 -0.295364
0.075995 0.307503 -0.297679
0.077325 0.306126 -0.299998
0.078659 0.304745 -0.302323
0.079996 0.303361 -0.304653
0.081335 0.301974 -0.306987
0.082677 0.300584 -0.309327
0.084022 0.299192 -0.311672
0.085370 0.297796 -0.314021
0.086721 0.296397 -0.316376
0.088075 0.294996 -0.318736
0.089432 0.293591 -0.321101
0.090792 0.292183 -0.323471
0.092155 0.290772 -0.325846
0.093520 0.289358 -0.328227
0.094889 0.287941 -0.330612
0.096260 0.286521 -0.333003
0.097635 0.285098 -0.335399
0.099012 0.283672 -0.337800
0.100393 0.282242 -0.340206
0.101776 0.280810 -0.342618
0.102709 0.277936 -0.346470
0.104100 0.276494 -0.348897
0.105494 0.275049 -0.351328
0.106890 0.273601 -0.353765
0.108290 0.272149 -0.356208
0.109693 0.270695 -0.358656
0.111099 0.269237 -0.361109
0.112508 0.267776 -0.363567
0.113920 0.266312 -0.366031
0.115335 0.264844 -0.368501
0.116754 0.263374 -0.370975
0.118175 0.261900 -0.373456
0.120041 0.261900 -0.374454
0.122345 0.263374 -0.373968
0.124209 0.263374 -0.374966
0.126506 0.264844 -0.374479
0.128367 0.264844 -0.375476
0.130657 0.266312 -0.374989
0.132942 0.267776 -0.374504
0.135642 0.270695 -0.372544
0.137496 0.270695 -0.373536
0.139765 0.272149 -0.373054
0.141617 0.272149 -0.374045
0.143879 0.273601 -0.373563
0.145729 0.273601 -0.374553
0.147578 0.273601 -0.375543
0.149428 0.273601 -0.376533
0.151277 0.273601 -0.377523
0.153526 0.275049 -0.377037
0.155374 0.275049 -0.378026
0.157221 0.275049 -0.379015
0.159069 0.275049 -0.380004
0.160916 0.275049 -0.380992
0.162764 0.275049 -0.381981
0.164998 0.276494 -0.381491
0.166843 0.276494 -0.382479
0.168689 0.276494 -0.383467
0.170534 0.276494 -0.384455
0.172380 0.276494 -0.385442
0.174601 0.277936 -0.384949
0.176445 0.277936 -0.385936
0.178288 0.277936 -0.386923
0.180131 0.277936 -0.387909
0.181975 0.277936 -0.388896
0.184548 0.280810 -0.386920
0.186387 0.280810 -0.387904
0.188226 0.280810 -0.388889
0.190066 0.280810 -0.389873
0.191905 0.280810 -0.390858
0.193745 0.280810 -0.391842
0.195936 0.282242 -0.391344
0.197773 0.282242 -0.392327
0.199610 0.282242 -0.393311
0.201448 0.282242 -0.394294
0.203285 0.282242 -0.395278
0.205463 0.283672 -0.394776
0.207299 0.283672 -0.395758
0.209134 0.283672 -0.396741
0.210969 0.283672 -0.397723
0.212805 0.283672 -0.398705
0.214970 0.285098 -0.398201
0.216804 0.285098 -0.399182
0.218637 0.285098 -0.400163
0.220470 0.285098 -0.401144
0.222304 0.285098 -0.402126
0.224137 0.285098 -0.403107
0.226288 0.286521 -0.402598
0.228119 0.286521 -0.403578
0.229951 0.286521 -0.404558
0.231782 0.286521 -0.405539
0.233613 0.286521 -0.406519
0.235445 0.286521 -0.407499
0.237276 0.286521 -0.408479
0.239107 0.286521 -0.409459
0.240939 0.286521 -0.410440
0.242770 0.286521 -0.411420
0.244898 0.287941 -0.410902
0.246728 0.287941 -0.411882
0.248557 0.287941 -0.412861
0.250387 0.287941 -0.413840
0.252216 0.287941 -0.414819
0.254045 0.287941 -0.415798
0.256159 0.289358 -0.415276
0.257987 0.289358 -0.416255
0.259814 0.289358 -0.417233
0.261919 0.290772 -0.416710
0.263469 0.289358 -0.419189
0.265296 0.289358 -0.420167
0.267124 0.289358 -0.421145
0.268951 0.289358 -0.422123
0.270778 0.289358 -0.423101
0.272606 0.289358 -0.424079
0.274169 0.287941 -0.426569
0.275998 0.287941 -0.427548
0.277827 0.287941 -0.428527
0.279657 0.287941 -0.429506
0.281486 0.287941 -0.430485
0.283060 0.286521 -0.432985
0.284892 0.286521 -0.433965
0.286723 0.286521 -0.434945
0.288305 0.285098 -0.437452
0.290138 0.285098 -0.438433
0.291725 0.283672 -0.440946
0.293316 0.282242 -0.443465
0.294909 0.280810 -0.445989
0.296264 0.277936 -0.450067
0.297867 0.276494 -0.452607
0.299233 0.273601 -0.456713
0.300844 0.272149 -0.459269
0.302458 0.270695 -0.461830
0.304076 0.269237 -0.464396
0.305698 0.267776 -0.466969
0.307323 0.266312 -0.469547
0.308720 0.263374 -0.473722
-0.481954 0.089019 -0.250115
-0.474889 0.096506 -0.245181
-0.470337 0.100221 -0.243292
-0.465808 0.103919 -0.241412
-0.461301 0.107598 -0.239542
-0.456816 0.111259 -0.237681
-0.453546 0.113083 -0.237308
-0.450284 0.114902 -0.236936
-0.447030 0.116717 -0.236565
-0.443784 0.118527 -0.236195
-0.440545 0.120333 -0.235826
-0.437315 0.122135 -0.235458
-0.434093 0.123932 -0.235091
-0.430878 0.125725 -0.234725
-0.428824 0.125725 -0.235824
-0.355458 0.236643 -0.145977
-0.342890 0.253274 -0.133345
-0.335316 0.262175 -0.127038
-0.330638 0.266581 -0.124413
-0.325991 0.270958 -0.121805
-0.323215 0.272411 -0.121599
-0.318613 0.276750 -0.119012
-0.314948 0.279627 -0.117624
-0.311299 0.282491 -0.116243
-0.308564 0.283919 -0.116045
-0.305834 0.285343 -0.115848
-0.302221 0.288183 -0.114477
-0.299508 0.289598 -0.114282
-0.296800 0.291010 -0.114087
-0.293222 0.293825 -0.112725
-0.290530 0.295228 -0.112533
-0.287843 0.296628 -0.112341
-0.285163 0.298025 -0.112150
-0.282488 0.299419 -0.111959
-0.278963 0.302198 -0.110610
-0.276304 0.303583 -0.110422
-0.273650 0.304965 -0.110233
-0.271002 0.306344 -0.110045
-0.268359 0.307721 -0.109858
-0.265722 0.309094 -0.109671
-0.263091 0.310464 -0.109484
-0.260465 0.311831 -0.109297
-0.257845 0.313196 -0.109112
-0.256053 0.313196 -0.110071
-0.253440 0.314557 -0.109884
-0.250833 0.315916 -0.109698
-0.248231 0.317272 -0.109512
-0.245635 0.318625 -0.109327
-0.243045 0.319975 -0.109142
-0.241262 0.319975 -0.110096
-0.238678 0.321322 -0.109911
-0.236101 0.322667 -0.109725
-0.233528 0.324008 -0.109541
-0.230961 0.325347 -0.109356
-0.228400 0.326683 -0.109172
-0.225844 0.328016 -0.108988
-0.223293 0.329346 -0.108805
-0.220747 0.330674 -0.108622
-0.218979 0.330674 -0.109569
-0.216441 0.331999 -0.109385
-0.213908 0.333321 -0.109202
-0.212144 0.333321 -0.110146
-0.209618 0.334640 -0.109962
-0.207097 0.335956 -0.109779
-0.204582 0.337270 -0.109596
-0.202072 0.338581 -0.109414
-0.200315 0.338581 -0.110354
-0.197812 0.339889 -0.110171
-0.195314 0.341195 -0.109988
-0.192822 0.342498 -0.109806
-0.190334 0.343798 -0.109623
-0.187852 0.345095 -0.109442
-0.186104 0.345095 -0.110377
-0.184356 0.345095 -0.111313
-0.181883 0.346390 -0.111130
-0.179414 0.347682 -0.110947
-0.177670 0.347682 -0.111880
-0.175209 0.348971 -0.111697
-0.173466 0.348971 -0.112630
-0.171012 0.350258 -0.112446
-0.168562 0.351542 -0.112262
-0.166117 0.352824 -0.112079
-0.164380 0.352824 -0.113008
-0.161943 0.354102 -0.112824
-0.160207 0.354102 -0.113753
-0.157777 0.355378 -0.113569
-0.155351 0.356652 -0.113385
-0.153619 0.356652 -0.114312
-0.151200 0.357923 -0.114127
-0.149470 0.357923 -0.115053
-0.147057 0.359191 -0.114868
-0.145329 0.359191 -0.115793
-0.142923 0.360457 -0.115607
-0.141197 0.360457 -0.116531
-0.138798 0.361720 -0.116345
-0.136404 0.362981 -0.116159
-0.134681 0.362981 -0.117081
-0.132293 0.364239 -0.116894
-0.130572 0.364239 -0.117816
-0.128191 0.365494 -0.117629
-0.125815 0.366747 -0.117442
-0.124098 0.366747 -0.118361
-0.122380 0.366747 -0.119281
-0.120013 0.367997 -0.119092
-0.118297 0.367997 -0.120011
-0.115936 0.369245 -0.119822
-0.114221 0.369245 -0.120740
-0.111867 0.370490 -0.120550
-0.110154 0.370490 -0.121467
-0.108442 0.370490 -0.122383
-0.106730 0.370490 -0.123300
-0.104385 0.371733 -0.123108
-0.102674 0.371733 -0.124024
-0.100336 0.372973 -0.123832
-0.098627 0.372973 -0.124746
-0.096918 0.372973 -0.125661
-0.094588 0.374211 -0.125467
-0.092881 0.374211 -0.126381
-0.091174 0.374211 -0.127295
-0.089467 0.374211 -0.128208
-0.087760 0.374211 -0.129122
-0.086053 0.374211 -0.130036
-0.083736 0.375446 -0.129838
-0.082031 0.375446 -0.130751
-0.080325 0.375446 -0.131664
-0.078620 0.375446 -0.132576
-0.076914 0.375446 -0.133489
-0.075209 0.375446 -0.134402
-0.073503 0.375446 -0.135315
-0.071202 0.376679 -0.135112
-0.069498 0.376679 -0.136024
-0.067794 0.376679 -0.136936
-0.066090 0.376679 -0.137848
-0.064387 0.376679 -0.138759
-0.062683 0.376679 -0.139671
-0.060979 0.376679 -0.140583
-0.058693 0.377909 -0.140375
-0.057572 0.376679 -0.142407
-0.055868 0.376679 -0.143319
-0.054164 0.376679 -0.144231
-0.052461 0.376679 -0.145143
-0.050757 0.376679 -0.146055
-0.049053 0.376679 -0.146967
-0.047349 0.376679 -0.147878
-0.045646 0.376679 -0.148790
-0.043375 0.377909 -0.148574
-0.041673 0.377909 -0.149485
-0.039971 0.377909 -0.150396
-0.038268 0.377909 -0.151307
-0.036566 0.377909 -0.152218
-0.034864 0.377909 -0.153129
-0.033162 0.377909 -0.154040
-0.031460 0.377909 -0.154951
-0.029758 0.377909 -0.155862
-0.028056 0.377909 -0.156773
-0.026354 0.377909 -0.157684
-0.024652 0.377909 -0.158595
-0.022950 0.377909 -0.159506
-0.021248 0.377909 -0.160417
-0.019546 0.377909 -0.161328
-0.017844 0.377909 -0.162238
-0.016142 0.377909 -0.163149
-0.014440 0.377909 -0.164060
-0.012738 0.377909 -0.164971
-0.011036 0.377909 -0.165882
-0.009334 0.377909 -0.166793
-0.007632 0.377909 -0.167704
-0.005930 0.377909 -0.168615
-0.004228 0.377909 -0.169526
-0.002526 0.377909 -0.170437
-0.000824 0.377909 -0.171348
0.000878 0.377909 -0.172259
0.002580 0.377909 -0.173170
0.004282 0.377909 -0.174081
0.005984 0.377909 -0.174992
0.007686 0.377909 -0.175903
0.009388 0.377909 -0.176814
0.011090 0.377909 -0.177725
0.012792 0.377909 -0.178636
0.013985 0.376679 -0.180707
0.015180 0.375446 -0.182781
0.016886 0.375446 -0.183694
0.018085 0.374211 -0.185774
0.019288 0.372973 -0.187858
0.020996 0.372973 -0.188773
0.022203 0.371733 -0.190862
0.023411 0.370490 -0.192956
0.024622 0.369245 -0.195053
0.025836 0.367997 -0.197155
0.027052 0.366747 -0.199262
0.027770 0.364239 -0.202566
0.028992 0.362981 -0.204684
0.030216 0.361720 -0.206807
0.030944 0.359191 -0.210140
0.031675 0.356652 -0.213487
0.032908 0.355378 -0.215630
0.033646 0.352824 -0.218998
0.034386 0.350258 -0.222381
0.035628 0.348971 -0.224544
0.036375 0.346390 -0.227948
0.037623 0.345095 -0.230124
0.038376 0.342498 -0.233550
0.039631 0.341195 -0.235738
0.040888 0.339889 -0.237931
0.042643 0.339889 -0.238870
0.043904 0.338581 -0.241068
0.045168 0.337270 -0.243271
0.046435 0.335956 -0.245478
0.047704 0.334640 -0.247690
0.049467 0.334640 -0.248633
0.050741 0.333321 -0.250851
0.052017 0.331999 -0.253073
0.053296 0.330674 -0.255299
0.054578 0.329346 -0.257531
0.055863 0.328016 -0.259767
0.057150 0.326683 -0.262008
0.058440 0.325347 -0.264253
0.059733 0.324008 -0.266504
0.061028 0.322667 -0.268759
0.062326 0.321322 -0.271018
0.063627 0.319975 -0.273283
0.064931 0.318625 -0.275552
0.066237 0.317272 -0.277826
0.067546 0.315916 -0.280105
0.068858 0.314557 -0.282389
0.070173 0.313196 -0.284678
0.071491 0.311831 -0.286971
0.072811 0.310464 -0.289270
0.074134 0.309094 -0.291573
0.075460 0.307721 -0.293881
0.076789 0.306344 -0.296194
0.078121 0.304965 -0.298512
0.079455 0.303583 -0.300836
0.080793 0.302198 -0.303164
0.082133 0.300810 -0.305497
0.083476 0.299419 -0.307835
0.084822 0.298025 -0.310178
0.086171 0.296628 -0.312526
0.087523 0.295228 -0.314879
0.088877 0.293825 -0.317237
0.090235 0.292419 -0.319601
0.092057 0.292419 -0.320576
0.093419 0.291010 -0.322945
0.094785 0.289598 -0.325320
0.096153 0.288183 -0.327700
0.097525 0.286765 -0.330085
0.098899 0.285343 -0.332475
0.100276 0.283919 -0.334870
0.101657 0.282491 -0.337271
0.103040 0.281061 -0.339676
0.104427 0.279627 -0.342088
0.105365 0.276750 -0.345939
0.106759 0.275307 -0.348365
0.108155 0.273860 -0.350796
0.109555 0.272411 -0.353232
0.110510 0.269502 -0.357129
0.111917 0.268043 -0.359580
0.113772 0.268043 -0.360574
0.115184 0.266581 -0.363031
0.116600 0.265115 -0.365495
0.118018 0.263647 -0.367964
0.119439 0.262175 -0.370438
0.120864 0.260699 -0.372918
0.122730 0.260699 -0.373916
0.124595 0.260699 -0.374915
0.126894 0.262175 -0.374428
0.129188 0.263647 -0.373942
0.131050 0.263647 -0.374939
0.133336 0.265115 -0.374453
0.135196 0.265115 -0.375448
0.137476 0.266581 -0.374962
0.140166 0.269502 -0.373002
0.142020 0.269502 -0.373994
0.144284 0.270958 -0.373511
0.146544 0.272411 -0.373030
0.148393 0.272411 -0.374020
0.150243 0.272411 -0.375010
0.152092 0.272411 -0.375999
0.153942 0.272411 -0.376989
0.156188 0.273860 -0.376504
0.158036 0.273860 -0.377493
0.159883 0.273860 -0.378482
0.161731 0.273860 -0.379471
0.163578 0.273860 -0.380460
0.165425 0.273860 -0.381448
0.167657 0.275307 -0.380959
0.169502 0.275307 -0.381947
0.171348 0.275307 -0.382935
0.173193 0.275307 -0.383922
0.175039 0.275307 -0.384910
0.177257 0.276750 -0.384418
0.179101 0.276750 -0.385404
0.180944 0.276750 -0.386391
0.182787 0.276750 -0.387378
0.184631 0.276750 -0.388364
0.187198 0.279627 -0.386389
0.189037 0.279627 -0.387374
0.190877 0.279627 -0.388358
0.192716 0.279627 -0.389343
0.194555 0.279627 -0.390327
0.196395 0.279627 -0.391312
0.198583 0.281061 -0.390814
0.200420 0.281061 -0.391797
0.202258 0.281061 -0.392781
0.204095 0.281061 -0.393764
0.205932 0.281061 -0.394748
0.208108 0.282491 -0.394247
0.209943 0.282491 -0.395229
0.211778 0.282491 -0.396211
0.213614 0.282491 -0.397194
0.215449 0.282491 -0.398176
0.217612 0.283919 -0.397672
0.219445 0.283919 -0.398653
0.221278 0.283919 -0.399634
0.223112 0.283919 -0.400616
0.224945 0.283919 -0.401597
0.226779 0.283919 -0.402578
0.228927 0.285343 -0.402070
0.230758 0.285343 -0.403050
0.232589 0.285343 -0.404030
0.234421 0.285343 -0.405010
0.235945 0.283919 -0.407485
0.238083 0.285343 -0.406971
0.239915 0.285343 -0.407951
0.241746 0.285343 -0.408931
0.243578 0.285343 -0.409911
0.245409 0.285343 -0.410892
0.247534 0.286765 -0.410375
0.249364 0.286765 -0.411354
0.251193 0.286765 -0.412333
0.253022 0.286765 -0.413312
0.254852 0.286765 -0.414291
0.256681 0.286765 -0.415271
0.258792 0.288183 -0.414749
0.260620 0.288183 -0.415728
0.262447 0.288183 -0.416706
0.264549 0.289598 -0.416184
0.266375 0.289598 -0.417161
0.267929 0.288183 -0.419640
0.269757 0.288183 -0.420618
0.271584 0.288183 -0.421596
0.273411 0.288183 -0.422574
0.275239 0.288183 -0.423552
0.276805 0.286765 -0.426041
0.278634 0.286765 -0.427020
0.280463 0.286765 -0.428000
0.282036 0.285343 -0.430496
0.283868 0.285343 -0.431476
0.285699 0.285343 -0.432456
0.287280 0.283919 -0.434960
0.289113 0.283919 -0.435942
0.290699 0.282491 -0.438452
0.292534 0.282491 -0.439435
0.294125 0.281061 -0.441952
0.295720 0.279627 -0.444474
0.297077 0.276750 -0.448549
0.298680 0.275307 -0.451087
0.300287 0.273860 -0.453631
0.301897 0.272411 -0.456180
0.303275 0.269502 -0.460303
0.304894 0.268043 -0.462868
0.306517 0.266581 -0.465439
0.308143 0.265115 -0.468015
0.309542 0.262175 -0.472187
-0.475199 0.093291 -0.244963
-0.470641 0.097020 -0.243072
-0.466105 0.100730 -0.241190
-0.461592 0.104421 -0.239318
-0.457101 0.108095 -0.237455
-0.453827 0.109925 -0.237082
-0.450560 0.111750 -0.236710
-0.447302 0.113571 -0.236339
-0.444052 0.115387 -0.235969
-0.440809 0.117199 -0.235600
-0.437575 0.119007 -0.235232
-0.434348 0.120810 -0.234864
-0.431129 0.122609 -0.234498
-0.362472 0.226167 -0.150960
-0.344899 0.250571 -0.132020
-0.338251 0.258019 -0.126926
-0.332614 0.263919 -0.123090
-0.327955 0.268310 -0.120484
-0.324249 0.271221 -0.119086
-0.321479 0.272672 -0.118883
-0.315976 0.278444 -0.115125
-0.313230 0.279879 -0.114928
-0.309589 0.282740 -0.113554
-0.306858 0.284165 -0.113359
-0.303243 0.287007 -0.111993
-0.300528 0.288424 -0.111801
-0.297820 0.289837 -0.111609
-0.294239 0.292655 -0.110253
-0.291546 0.294059 -0.110063
-0.288859 0.295460 -0.109874
-0.286177 0.296859 -0.109685
-0.282641 0.299646 -0.108340
-0.280831 0.299646 -0.109309
-0.278166 0.301035 -0.109121
-0.274659 0.303805 -0.107782
-0.272009 0.305185 -0.107597
-0.269366 0.306563 -0.107412
-0.266728 0.307937 -0.107227
-0.264095 0.309309 -0.107043
-0.261469 0.310677 -0.106859
-0.258847 0.312043 -0.106676
-0.257055 0.312043 -0.107635
-0.254441 0.313406 -0.107451
-0.251833 0.314766 -0.107268
-0.249230 0.316123 -0.107084
-0.246633 0.317477 -0.106902
-0.244042 0.318828 -0.106719
-0.241455 0.320177 -0.106537
-0.239674 0.320177 -0.107490
-0.237096 0.321522 -0.107308
-0.234522 0.322865 -0.107125
-0.231954 0.324205 -0.106943
-0.229392 0.325542 -0.106762
-0.226834 0.326876 -0.106581
-0.224283 0.328208 -0.106400
-0.221736 0.329537 -0.106220
-0.219968 0.329537 -0.107166
-0.217429 0.330863 -0.106985
-0.214895 0.332186 -0.106804
-0.213130 0.332186 -0.107749
-0.210604 0.333506 -0.107567
-0.208082 0.334824 -0.107387
-0.206321 0.334824 -0.108329
-0.203807 0.336139 -0.108148
-0.201298 0.337451 -0.107966
-0.198794 0.338760 -0.107786
-0.196295 0.340067 -0.107605
-0.193801 0.341371 -0.107425
-0.191313 0.342672 -0.107246
-0.189563 0.342672 -0.108182
-0.187082 0.343971 -0.108002
-0.185334 0.343971 -0.108938
-0.182859 0.345267 -0.108757
-0.181113 0.345267 -0.109692
-0.178645 0.346560 -0.109510
-0.176183 0.347851 -0.109329
-0.174440 0.347851 -0.110262
-0.171985 0.349138 -0.110080
-0.169534 0.350424 -0.109899
-0.167795 0.350424 -0.110830
-0.165352 0.351706 -0.110648
-0.162913 0.352986 -0.110466
-0.161178 0.352986 -0.111395
-0.158746 0.354263 -0.111213
-0.157012 0.354263 -0.112141
-0.154587 0.355538 -0.111958
-0.152167 0.356810 -0.111776
-0.150437 0.356810 -0.112702
-0.148024 0.358080 -0.112520
-0.145615 0.359346 -0.112337
-0.143889 0.359346 -0.113261
-0.142162 0.359346 -0.114185
-0.139762 0.360611 -0.114001
-0.137367 0.361873 -0.113818
-0.135644 0.361873 -0.114740
-0.133256 0.363132 -0.114556
-0.131535 0.363132 -0.115477
-0.129153 0.364388 -0.115292
-0.126776 0.365642 -0.115108
-0.125058 0.365642 -0.116027
-0.122688 0.366894 -0.115842
-0.120972 0.366894 -0.116761
-0.119256 0.366894 -0.117679
-0.116894 0.368143 -0.117493
-0.115180 0.368143 -0.118410
-0.112824 0.369389 -0.118223
-0.111112 0.369389 -0.119140
-0.109400 0.369389 -0.120056
-0.107052 0.370633 -0.119868
-0.105342 0.370633 -0.120784
-0.103631 0.370633 -0.121699
-0.101920 0.370633 -0.122615
-0.099583 0.371874 -0.122424
-0.097250 0.373113 -0.122234
-0.095543 0.373113 -0.123147
-0.093836 0.373113 -0.124061
-0.092129 0.373113 -0.124975
-0.089806 0.374349 -0.124782
-0.088101 0.374349 -0.125695
-0.086395 0.374349 -0.126608
-0.084690 0.374349 -0.127521
-0.082984 0.374349 -0.128433
-0.080673 0.375583 -0.128237
-0.078969 0.375583 -0.129149
-0.077266 0.375583 -0.130061
-0.075562 0.375583 -0.130973
-0.073858 0.375583 -0.131885
-0.072154 0.375583 -0.132797
-0.069856 0.376814 -0.132596
-0.068154 0.376814 -0.133507
-0.066452 0.376814 -0.134418
-0.064750 0.376814 -0.135329
-0.063048 0.376814 -0.136240
-0.061346 0.376814 -0.137151
-0.059644 0.376814 -0.138062
-0.057942 0.376814 -0.138973
-0.056240 0.376814 -0.139884
-0.054538 0.376814 -0.140795
-0.052836 0.376814 -0.141706
-0.051134 0.376814 -0.142617
-0.049432 0.376814 -0.143528
-0.047730 0.376814 -0.144439
-0.046028 0.376814 -0.145350
-0.044326 0.376814 -0.146261
-0.042624 0.376814 -0.147172
-0.040922 0.376814 -0.148083
-0.039220 0.376814 -0.148994
-0.037518 0.376814 -0.149905
-0.035816 0.376814 -0.150816
-0.034114 0.376814 -0.151727
-0.031857 0.378043 -0.151508
-0.030157 0.378043 -0.152418
-0.028456 0.378043 -0.153328
-0.026756 0.378043 -0.154238
-0.025056 0.378043 -0.155148
-0.023355 0.378043 -0.156058
-0.021655 0.378043 -0.156968
-0.019955 0.378043 -0.157878
-0.018255 0.378043 -0.158788
-0.016554 0.378043 -0.159698
-0.015392 0.376814 -0.161748
-0.013690 0.376814 -0.162659
-0.011988 0.376814 -0.163570
-0.010286 0.376814 -0.164481
-0.008584 0.376814 -0.165392
-0.006882 0.376814 -0.166302
-0.004652 0.378043 -0.166069
-0.002952 0.378043 -0.166979
-0.001252 0.378043 -0.167889
0.000449 0.378043 -0.168799
0.002149 0.378043 -0.169709
0.003849 0.378043 -0.170619
0.005550 0.378043 -0.171529
0.007250 0.378043 -0.172439
0.008950 0.378043 -0.173349
0.010651 0.378043 -0.174259
0.011840 0.376814 -0.176323
0.013542 0.376814 -0.177234
0.015244 0.376814 -0.178145
0.016440 0.375583 -0.180215
0.017638 0.374349 -0.182289
0.019343 0.374349 -0.183202
0.020545 0.373113 -0.185282
0.021750 0.371874 -0.187365
0.023459 0.371874 -0.188280
0.024667 0.370633 -0.190369
0.025879 0.369389 -0.192462
0.027092 0.368143 -0.194559
0.028308 0.366894 -0.196661
0.029527 0.365642 -0.198766
0.030250 0.363132 -0.202070
0.031475 0.361873 -0.204187
0.032204 0.359346 -0.207512
0.032937 0.356810 -0.210850
0.034170 0.355538 -0.212988
0.034909 0.352986 -0.216347
0.036148 0.351706 -0.218497
0.036894 0.349138 -0.221879
0.037642 0.346560 -0.225274
0.038891 0.345267 -0.227445
0.039646 0.342672 -0.230862
0.040900 0.341371 -0.233045
0.042157 0.340067 -0.235233
0.043417 0.338760 -0.237425
0.044679 0.337451 -0.239621
0.045944 0.336139 -0.241822
0.047211 0.334824 -0.244028
0.048481 0.333506 -0.246238
0.050244 0.333506 -0.247182
0.051518 0.332186 -0.249398
0.052796 0.330863 -0.251618
0.054562 0.330863 -0.252563
0.055844 0.329537 -0.254790
0.057128 0.328208 -0.257020
0.058415 0.326876 -0.259256
0.059705 0.325542 -0.261496
0.060998 0.324205 -0.263741
0.062293 0.322865 -0.265991
0.063592 0.321522 -0.268245
0.064892 0.320177 -0.270505
0.066196 0.318828 -0.272769
0.067502 0.317477 -0.275037
0.068812 0.316123 -0.277311
0.070124 0.314766 -0.279589
0.070963 0.312043 -0.283201
0.072282 0.310677 -0.285493
0.073603 0.309309 -0.287790
0.075399 0.309309 -0.288752
0.076725 0.307937 -0.291054
0.078054 0.306563 -0.293362
0.079385 0.305185 -0.295675
0.080720 0.303805 -0.297992
0.082057 0.302422 -0.300315
0.083397 0.301035 -0.302642
0.084740 0.299646 -0.304975
0.086086 0.298254 -0.307312
0.087435 0.296859 -0.309655
0.088787 0.295460 -0.312002
0.090141 0.294059 -0.314355
0.091499 0.292655 -0.316713
0.092860 0.291248 -0.319075
0.094223 0.289837 -0.321443
0.095589 0.288424 -0.323816
0.097415 0.288424 -0.324793
0.098786 0.287007 -0.327173
0.100160 0.285588 -0.329557
0.101538 0.284165 -0.331947
0.102918 0.282740 -0.334341
0.104301 0.281311 -0.336741
0.105688 0.279879 -0.339147
0.107077 0.278444 -0.341557
0.108021 0.275564 -0.345407
0.109418 0.274120 -0.347832
0.110817 0.272672 -0.350263
0.112220 0.271221 -0.352699
0.113625 0.269767 -0.355140
0.114590 0.266850 -0.359045
0.116003 0.265386 -0.361501
0.117419 0.263919 -0.363963
0.119279 0.263919 -0.364959
0.120700 0.262449 -0.367427
0.122125 0.260976 -0.369900
0.123552 0.259499 -0.372380
0.125418 0.259499 -0.373378
0.127284 0.259499 -0.374377
0.129580 0.260976 -0.373891
0.131443 0.260976 -0.374888
0.133732 0.262449 -0.374402
0.136016 0.263919 -0.373917
0.137875 0.263919 -0.374912
0.140152 0.265386 -0.374427
0.142424 0.266850 -0.373942
0.144690 0.268310 -0.373459
0.146952 0.269767 -0.372977
0.148804 0.269767 -0.373968
0.151058 0.271221 -0.373486
0.152908 0.271221 -0.374476
0.154757 0.271221 -0.375466
0.156607 0.271221 -0.376456
0.158456 0.271221 -0.377446
0.160698 0.272672 -0.376960
0.162545 0.272672 -0.377949
0.164392 0.272672 -0.378938
0.166240 0.272672 -0.379927
