ply
format ascii 1.0
element vertex 1620
property float x
property float y
property float z
end_header
0.274989 -0.114848 -0.065317
0.277843 -0.113143 -0.065468
0.279784 -0.113143 -0.064429
0.281725 -0.113143 -0.063390
0.284591 -0.111434 -0.063539
0.286534 -0.111434 -0.062499
0.289409 -0.109720 -0.062646
0.291354 -0.109720 -0.061605
0.294237 -0.108003 -0.061752
0.297128 -0.106282 -0.061899
0.299078 -0.106282 -0.060856
0.301977 -0.104556 -0.061002
0.303929 -0.104556 -0.059957
0.306837 -0.102827 -0.060103
0.308791 -0.102827 -0.059057
0.311708 -0.101094 -0.059202
0.314632 -0.099356 -0.059347
0.316591 -0.099356 -0.058298
0.319524 -0.097615 -0.058442
0.322464 -0.095870 -0.058587
0.325410 -0.094120 -0.058732
0.328364 -0.092367 -0.058877
0.331324 -0.090609 -0.059022
0.334291 -0.088847 -0.059168
0.337266 -0.087081 -0.059314
0.340247 -0.085311 -0.059461
0.343235 -0.083537 -0.059608
0.346230 -0.081759 -0.059755
0.349232 -0.079976 -0.059903
0.352242 -0.078190 -0.060051
0.355258 -0.076399 -0.060199
0.358282 -0.074604 -0.060347
0.361313 -0.072804 -0.060496
0.364350 -0.071000 -0.060646
0.366347 -0.071000 -0.059577
0.369394 -0.069193 -0.059726
0.372449 -0.067380 -0.059875
0.374450 -0.067380 -0.058804
0.378580 -0.063743 -0.060173
0.381656 -0.061918 -0.060323
0.385819 -0.058254 -0.061701
0.390001 -0.054573 -0.063086
0.394203 -0.050874 -0.064477
0.398426 -0.047158 -0.065875
0.402669 -0.043424 -0.067280
0.406932 -0.039671 -0.068691
0.411216 -0.035901 -0.070109
0.416656 -0.030211 -0.072798
0.422136 -0.024479 -0.075507
0.435838 -0.005066 -0.087281
-0.311198 -0.070478 -0.426118
-0.309942 -0.075884 -0.420113
-0.308448 -0.079468 -0.415779
-0.306961 -0.083034 -0.411465
-0.305481 -0.086583 -0.407171
-0.304008 -0.090116 -0.402897
-0.302541 -0.093633 -0.398643
-0.301082 -0.097133 -0.394409
-0.299629 -0.100617 -0.390195
-0.298183 -0.104084 -0.386000
-0.296486 -0.105812 -0.383388
-0.295052 -0.109256 -0.379223
-0.293625 -0.112683 -0.375078
-0.292205 -0.116096 -0.370952
-0.291052 -0.121184 -0.365315
-0.289907 -0.126238 -0.359717
-0.288508 -0.129588 -0.355663
-0.286587 -0.129588 -0.354635
-0.285198 -0.132923 -0.350602
-0.283549 -0.134585 -0.348080
-0.281635 -0.134585 -0.347055
-0.279991 -0.136243 -0.344540
-0.278352 -0.137897 -0.342031
-0.276716 -0.139547 -0.339527
-0.275084 -0.141194 -0.337029
-0.273456 -0.142837 -0.334536
-0.271831 -0.144476 -0.332050
-0.270210 -0.146112 -0.329569
-0.268592 -0.147744 -0.327093
-0.266979 -0.149372 -0.324623
-0.265083 -0.149372 -0.323608
-0.263762 -0.152618 -0.319699
-0.261871 -0.152618 -0.318687
-0.260270 -0.154235 -0.316235
-0.258673 -0.155849 -0.313788
-0.257079 -0.157459 -0.311347
-0.255195 -0.157459 -0.310338
-0.253607 -0.159066 -0.307903
-0.252022 -0.160669 -0.305474
-0.250441 -0.162268 -0.303050
-0.248864 -0.163864 -0.300631
-0.247290 -0.165456 -0.298218
-0.245416 -0.165456 -0.297215
-0.243847 -0.167045 -0.294808
-0.242282 -0.168630 -0.292407
-0.240721 -0.170212 -0.290011
-0.238853 -0.170212 -0.289011
-0.237297 -0.171790 -0.286622
-0.235431 -0.171790 -0.285623
-0.233881 -0.173365 -0.283240
-0.232017 -0.173365 -0.282242
-0.230472 -0.174936 -0.279865
-0.228611 -0.174936 -0.278869
-0.227071 -0.176504 -0.276498
-0.225211 -0.176504 -0.275503
-0.223677 -0.178068 -0.273139
-0.221820 -0.178068 -0.272144
-0.220291 -0.179629 -0.269786
-0.218436 -0.179629 -0.268793
-0.216912 -0.181186 -0.266442
-0.215059 -0.181186 -0.265449
-0.213541 -0.182740 -0.263104
-0.211690 -0.182740 -0.262113
-0.209838 -0.182740 -0.261122
-0.208328 -0.184291 -0.258784
-0.206478 -0.184291 -0.257794
-0.204973 -0.185838 -0.255462
-0.203471 -0.187382 -0.253135
-0.201626 -0.187382 -0.252148
-0.200129 -0.188923 -0.249827
-0.198286 -0.188923 -0.248840
-0.196443 -0.188923 -0.247854
-0.195307 -0.191993 -0.244217
-0.193467 -0.191993 -0.243232
-0.191628 -0.191993 -0.242248
-0.190147 -0.193524 -0.239945
-0.188310 -0.193524 -0.238962
-0.186473 -0.193524 -0.237978
-0.184999 -0.195051 -0.235683
-0.183164 -0.195051 -0.234701
-0.181328 -0.195051 -0.233719
-0.179862 -0.196575 -0.231431
-0.178399 -0.198095 -0.229148
-0.176939 -0.199612 -0.226870
-0.175482 -0.201126 -0.224596
-0.173655 -0.201126 -0.223618
-0.172203 -0.202637 -0.221351
-0.170755 -0.204144 -0.219089
-0.168931 -0.204144 -0.218113
-0.167488 -0.205648 -0.215857
-0.165666 -0.205648 -0.214882
-0.163845 -0.205648 -0.213907
-0.162793 -0.208647 -0.210386
-0.160975 -0.208647 -0.209413
-0.159157 -0.208647 -0.208440
-0.157729 -0.210141 -0.206202
-0.155914 -0.210141 -0.205230
-0.154098 -0.210141 -0.204258
-0.152282 -0.210141 -0.203286
-0.150467 -0.210141 -0.202314
-0.149049 -0.211632 -0.200085
-0.147236 -0.211632 -0.199114
-0.145422 -0.211632 -0.198143
-0.144012 -0.213120 -0.195921
-0.142200 -0.213120 -0.194951
-0.140795 -0.214605 -0.192734
-0.138985 -0.214605 -0.191765
-0.137175 -0.214605 -0.190797
-0.135776 -0.216086 -0.188587
-0.133969 -0.216086 -0.187619
-0.132161 -0.216086 -0.186651
-0.130769 -0.217565 -0.184448
-0.128963 -0.217565 -0.183481
-0.127157 -0.217565 -0.182515
-0.125772 -0.219040 -0.180318
-0.123969 -0.219040 -0.179353
-0.122589 -0.220512 -0.177162
-0.120787 -0.220512 -0.176198
-0.118984 -0.220512 -0.175233
-0.117611 -0.221981 -0.173049
-0.115811 -0.221981 -0.172085
-0.114443 -0.223447 -0.169907
-0.112645 -0.223447 -0.168945
-0.110847 -0.223447 -0.167982
-0.109485 -0.224910 -0.165811
-0.107689 -0.224910 -0.164849
-0.105892 -0.224910 -0.163888
-0.104096 -0.224910 -0.162926
-0.102743 -0.226369 -0.160762
-0.100949 -0.226369 -0.159802
-0.099154 -0.226369 -0.158841
-0.097360 -0.226369 -0.157881
-0.095566 -0.226369 -0.156921
-0.093771 -0.226369 -0.155960
-0.092431 -0.227826 -0.153806
-0.090638 -0.227826 -0.152847
-0.088846 -0.227826 -0.151887
-0.087053 -0.227826 -0.150928
-0.085261 -0.227826 -0.149968
-0.083469 -0.227826 -0.149009
-0.081676 -0.227826 -0.148050
-0.079884 -0.227826 -0.147090
-0.078091 -0.227826 -0.146131
-0.076299 -0.227826 -0.145172
-0.074506 -0.227826 -0.144212
-0.072714 -0.227826 -0.143253
-0.070921 -0.227826 -0.142293
-0.069129 -0.227826 -0.141334
-0.067337 -0.227826 -0.140375
-0.065544 -0.227826 -0.139415
-0.063752 -0.227826 -0.138456
-0.061959 -0.227826 -0.137497
-0.060167 -0.227826 -0.136537
-0.058374 -0.227826 -0.135578
-0.056582 -0.227826 -0.134618
-0.054789 -0.227826 -0.133659
-0.052997 -0.227826 -0.132700
-0.051204 -0.227826 -0.131740
-0.049412 -0.227826 -0.130781
-0.047620 -0.227826 -0.129822
-0.045827 -0.227826 -0.128862
-0.044035 -0.227826 -0.127903
-0.041735 -0.226369 -0.128109
-0.039941 -0.226369 -0.127148
-0.038146 -0.226369 -0.126188
-0.036352 -0.226369 -0.125228
-0.034558 -0.226369 -0.124267
-0.032763 -0.226369 -0.123307
-0.030969 -0.226369 -0.122346
-0.029175 -0.226369 -0.121386
-0.026857 -0.224910 -0.121585
-0.025060 -0.224910 -0.120624
-0.023264 -0.224910 -0.119662
-0.021468 -0.224910 -0.118701
-0.019139 -0.223447 -0.118897
-0.017875 -0.224910 -0.116778
-0.016079 -0.224910 -0.115817
-0.013745 -0.223447 -0.116010
-0.011947 -0.223447 -0.115048
-0.010148 -0.223447 -0.114085
-0.007805 -0.221981 -0.114277
-0.006005 -0.221981 -0.113314
-0.003655 -0.220512 -0.113505
-0.001853 -0.220512 -0.112540
0.000504 -0.219040 -0.112731
0.002308 -0.219040 -0.111765
0.004672 -0.217565 -0.111955
0.006478 -0.217565 -0.110989
0.008284 -0.217565 -0.110022
0.010657 -0.216086 -0.110211
0.012465 -0.216086 -0.109243
0.014845 -0.214605 -0.109431
0.016654 -0.214605 -0.108462
0.018464 -0.214605 -0.107493
0.020274 -0.214605 -0.106525
0.022665 -0.213120 -0.106710
0.024477 -0.213120 -0.105740
0.026288 -0.213120 -0.104770
0.029278 -0.210141 -0.106109
0.031093 -0.210141 -0.105137
0.033504 -0.208647 -0.105321
0.035321 -0.208647 -0.104349
0.037739 -0.207149 -0.104532
0.039558 -0.207149 -0.103558
0.041983 -0.205648 -0.103741
0.044413 -0.204144 -0.103924
0.046236 -0.204144 -0.102948
0.048674 -0.202637 -0.103131
0.050499 -0.202637 -0.102154
0.052943 -0.201126 -0.102335
0.054771 -0.201126 -0.101357
0.057223 -0.199612 -0.101539
0.059052 -0.199612 -0.100559
0.061511 -0.198095 -0.100740
0.063975 -0.196575 -0.100921
0.066445 -0.195051 -0.101102
0.068920 -0.193524 -0.101284
0.071401 -0.191993 -0.101466
0.073240 -0.191993 -0.100481
0.076378 -0.188923 -0.101831
0.078875 -0.187382 -0.102014
0.081377 -0.185838 -0.102198
0.083885 -0.184291 -0.102382
0.086398 -0.182740 -0.102567
0.089586 -0.179629 -0.103930
0.092113 -0.178068 -0.104117
0.095324 -0.174936 -0.105488
0.098549 -0.171790 -0.106866
0.101101 -0.170212 -0.107057
0.105042 -0.165456 -0.109639
0.108310 -0.162268 -0.111034
0.111593 -0.159066 -0.112436
0.115600 -0.154235 -0.115057
0.118203 -0.152618 -0.115259
0.122250 -0.147744 -0.117901
0.126325 -0.142837 -0.120560
0.128229 -0.142837 -0.119541
0.130133 -0.142837 -0.118523
0.132036 -0.142837 -0.117504
0.133940 -0.142837 -0.116485
0.135844 -0.142837 -0.115466
0.137748 -0.142837 -0.114447
0.140395 -0.141194 -0.114650
0.142301 -0.141194 -0.113630
0.144207 -0.141194 -0.112610
0.146113 -0.141194 -0.111590
0.148019 -0.141194 -0.110570
0.149925 -0.141194 -0.109550
0.151831 -0.141194 -0.108530
0.154498 -0.139547 -0.108727
0.156406 -0.139547 -0.107706
0.158314 -0.139547 -0.106684
0.160222 -0.139547 -0.105663
0.162130 -0.139547 -0.104642
0.164038 -0.139547 -0.103621
0.165946 -0.139547 -0.102600
0.167854 -0.139547 -0.101578
0.169762 -0.139547 -0.100557
0.172452 -0.137897 -0.100745
0.174362 -0.137897 -0.099723
0.176272 -0.137897 -0.098701
0.178183 -0.137897 -0.097678
0.180093 -0.137897 -0.096656
0.182003 -0.137897 -0.095633
0.183913 -0.137897 -0.094611
0.186622 -0.136243 -0.094793
0.188535 -0.136243 -0.093769
0.190447 -0.136243 -0.092746
0.192360 -0.136243 -0.091722
0.194272 -0.136243 -0.090698
0.196184 -0.136243 -0.089675
0.198097 -0.136243 -0.088651
0.200009 -0.136243 -0.087628
0.201921 -0.136243 -0.086604
0.204654 -0.134585 -0.086777
0.206569 -0.134585 -0.085752
0.208483 -0.134585 -0.084728
0.210398 -0.134585 -0.083703
0.212312 -0.134585 -0.082678
0.214227 -0.134585 -0.081654
0.216141 -0.134585 -0.080629
0.218056 -0.134585 -0.079604
0.220810 -0.132923 -0.079769
0.222727 -0.132923 -0.078743
0.225489 -0.131257 -0.078908
0.227408 -0.131257 -0.077881
0.229327 -0.131257 -0.076854
0.232101 -0.129588 -0.077016
0.234022 -0.129588 -0.075988
0.236804 -0.127915 -0.076149
0.238727 -0.127915 -0.075120
0.241517 -0.126238 -0.075281
0.243443 -0.126238 -0.074250
0.245368 -0.126238 -0.073219
0.248169 -0.124557 -0.073378
0.250097 -0.124557 -0.072346
0.252907 -0.122873 -0.072504
0.254837 -0.122873 -0.071471
0.257655 -0.121184 -0.071629
0.259587 -0.121184 -0.070594
0.262414 -0.119492 -0.070751
0.264349 -0.119492 -0.069715
0.267185 -0.117796 -0.069871
0.269121 -0.117796 -0.068834
0.271966 -0.116096 -0.068989
0.273905 -0.116096 -0.067951
0.276758 -0.114392 -0.068105
0.279618 -0.112683 -0.068259
0.281561 -0.112683 -0.067219
0.283504 -0.112683 -0.066179
0.286375 -0.110972 -0.066331
0.288321 -0.110972 -0.065290
0.291201 -0.109256 -0.065441
0.293148 -0.109256 -0.064399
0.296037 -0.107536 -0.064549
0.297987 -0.107536 -0.063506
0.300885 -0.105812 -0.063655
0.303789 -0.104084 -0.063805
0.305744 -0.104084 -0.062759
0.308657 -0.102352 -0.062908
0.310614 -0.102352 -0.061861
0.313537 -0.100617 -0.062009
0.315496 -0.100617 -0.060960
0.318427 -0.098877 -0.061107
0.321366 -0.097133 -0.061255
0.324311 -0.095385 -0.061403
0.327263 -0.093633 -0.061551
0.330222 -0.091877 -0.061700
0.333188 -0.090116 -0.061849
0.336161 -0.088352 -0.061998
0.339141 -0.086583 -0.062148
0.342128 -0.084811 -0.062298
0.345122 -0.083034 -0.062448
0.348123 -0.081253 -0.062599
0.351131 -0.079468 -0.062750
0.354146 -0.077678 -0.062902
0.357168 -0.075884 -0.063053
0.359160 -0.075884 -0.061988
0.363234 -0.072284 -0.063358
0.365230 -0.072284 -0.062290
0.368277 -0.070478 -0.062441
0.371330 -0.068667 -0.062593
0.374391 -0.066852 -0.062746
0.376394 -0.066852 -0.061674
0.379464 -0.065033 -0.061825
0.383616 -0.061381 -0.063205
0.387788 -0.057712 -0.064592
0.391980 -0.054025 -0.065985
0.396192 -0.050321 -0.067385
0.400424 -0.046599 -0.068791
0.404677 -0.042858 -0.070205
0.408951 -0.039100 -0.071625
0.415510 -0.031529 -0.075583
0.419841 -0.027715 -0.077027
0.426502 -0.020033 -0.081041
-0.308822 -0.060844 -0.437761
-0.308568 -0.073568 -0.425044
-0.307073 -0.077165 -0.420688
-0.305586 -0.080745 -0.416352
-0.304357 -0.086084 -0.410416
-0.302885 -0.089622 -0.406130
-0.301165 -0.091385 -0.403466
-0.299705 -0.094899 -0.399211
-0.298252 -0.098396 -0.394976
-0.296806 -0.101877 -0.390760
-0.295367 -0.105341 -0.386564
-0.293934 -0.108790 -0.382387
-0.292508 -0.112223 -0.378230
-0.290825 -0.113933 -0.375638
-0.289411 -0.117343 -0.371511
-0.288532 -0.124114 -0.364345
-0.287397 -0.129152 -0.358757
-0.285740 -0.130824 -0.356217
-0.284086 -0.132492 -0.353683
-0.282437 -0.134156 -0.351154
-0.280791 -0.135816 -0.348632
-0.279148 -0.137473 -0.346115
-0.277510 -0.139126 -0.343604
-0.275875 -0.140775 -0.341098
-0.274244 -0.142420 -0.338599
-0.272616 -0.144062 -0.336104
-0.270713 -0.144062 -0.335085
-0.269091 -0.145700 -0.332598
-0.267473 -0.147334 -0.330116
-0.265859 -0.148964 -0.327640
-0.264248 -0.150591 -0.325169
-0.262641 -0.152215 -0.322704
-0.261037 -0.153834 -0.320245
-0.259438 -0.155450 -0.317791
-0.257549 -0.155450 -0.316780
-0.255954 -0.157063 -0.314332
-0.254364 -0.158671 -0.311890
-0.252777 -0.160277 -0.309454
-0.251193 -0.161878 -0.307023
-0.249313 -0.161878 -0.306016
-0.247735 -0.163476 -0.303592
-0.246160 -0.165071 -0.301173
-0.244589 -0.166662 -0.298759
-0.243022 -0.168249 -0.296350
-0.241458 -0.169833 -0.293947
-0.239588 -0.169833 -0.292946
-0.238030 -0.171413 -0.290550
-0.236162 -0.171413 -0.289550
-0.234609 -0.172990 -0.287160
-0.232743 -0.172990 -0.286161
-0.230877 -0.172990 -0.285162
-0.229332 -0.174564 -0.282780
-0.227790 -0.176133 -0.280402
-0.225928 -0.176133 -0.279406
-0.224392 -0.177700 -0.277035
-0.222532 -0.177700 -0.276039
-0.221001 -0.179263 -0.273674
-0.219143 -0.179263 -0.272680
-0.217618 -0.180823 -0.270322
-0.215762 -0.180823 -0.269328
-0.214242 -0.182379 -0.266976
-0.212388 -0.182379 -0.265984
-0.210873 -0.183931 -0.263638
-0.209022 -0.183931 -0.262647
-0.207512 -0.185481 -0.260307
-0.205663 -0.185481 -0.259317
-0.203813 -0.185481 -0.258328
-0.202311 -0.187027 -0.255995
-0.200812 -0.188569 -0.253668
-0.198967 -0.188569 -0.252680
-0.197473 -0.190108 -0.250359
-0.195630 -0.190108 -0.249372
-0.193787 -0.190108 -0.248385
-0.192657 -0.193177 -0.244747
-0.190817 -0.193177 -0.243763
-0.188978 -0.193177 -0.242778
-0.187500 -0.194706 -0.240475
-0.185663 -0.194706 -0.239492
-0.183825 -0.194706 -0.238508
-0.182355 -0.196232 -0.236213
-0.180519 -0.196232 -0.235230
-0.179054 -0.197754 -0.232941
-0.177220 -0.197754 -0.231959
-0.175760 -0.199273 -0.229676
-0.174303 -0.200789 -0.227397
-0.172474 -0.200789 -0.226418
-0.171022 -0.202302 -0.224145
-0.169573 -0.203811 -0.221878
-0.168127 -0.205317 -0.219615
-0.166304 -0.205317 -0.218639
-0.164863 -0.206820 -0.216382
-0.163426 -0.208319 -0.214130
-0.161606 -0.208319 -0.213156
-0.160174 -0.209816 -0.210910
-0.158356 -0.209816 -0.209937
-0.156539 -0.209816 -0.208964
-0.155113 -0.211309 -0.206725
-0.153298 -0.211309 -0.205753
-0.151482 -0.211309 -0.204782
-0.149666 -0.211309 -0.203810
-0.147851 -0.211309 -0.202838
-0.146436 -0.212799 -0.200608
-0.144623 -0.212799 -0.199637
-0.142809 -0.212799 -0.198666
-0.141401 -0.214285 -0.196443
-0.139590 -0.214285 -0.195473
-0.138187 -0.215769 -0.193256
-0.136377 -0.215769 -0.192287
-0.134567 -0.215769 -0.191319
-0.133172 -0.217249 -0.189108
-0.131364 -0.217249 -0.188140
-0.129556 -0.217249 -0.187173
-0.128167 -0.218726 -0.184969
-0.126361 -0.218726 -0.184002
-0.124977 -0.220200 -0.181804
-0.123173 -0.220200 -0.180839
-0.121369 -0.220200 -0.179873
-0.119992 -0.221671 -0.177682
-0.118190 -0.221671 -0.176717
-0.116388 -0.221671 -0.175753
-0.115018 -0.223139 -0.173568
-0.113218 -0.223139 -0.172605
-0.111852 -0.224604 -0.170426
-0.110054 -0.224604 -0.169463
-0.108256 -0.224604 -0.168501
-0.106897 -0.226065 -0.166329
-0.105101 -0.226065 -0.165367
-0.103304 -0.226065 -0.164406
-0.101508 -0.226065 -0.163444
-0.100158 -0.227523 -0.161280
-0.098363 -0.227523 -0.160319
-0.096569 -0.227523 -0.159359
-0.094775 -0.227523 -0.158399
-0.092980 -0.227523 -0.157438
-0.091186 -0.227523 -0.156478
-0.089392 -0.227523 -0.155517
-0.087597 -0.227523 -0.154557
-0.085803 -0.227523 -0.153597
-0.084009 -0.227523 -0.152636
-0.082214 -0.227523 -0.151676
-0.080420 -0.227523 -0.150715
-0.078626 -0.227523 -0.149755
-0.076831 -0.227523 -0.148795
-0.075037 -0.227523 -0.147834
-0.073242 -0.227523 -0.146874
-0.071448 -0.227523 -0.145913
-0.069654 -0.227523 -0.144953
-0.067859 -0.227523 -0.143993
-0.066065 -0.227523 -0.143032
-0.064271 -0.227523 -0.142072
-0.062476 -0.227523 -0.141111
-0.060682 -0.227523 -0.140151
-0.058888 -0.227523 -0.139191
-0.057093 -0.227523 -0.138230
-0.055299 -0.227523 -0.137270
-0.053505 -0.227523 -0.136309
-0.051710 -0.227523 -0.135349
-0.049916 -0.227523 -0.134389
-0.048121 -0.227523 -0.133428
-0.046327 -0.227523 -0.132468
-0.045037 -0.228979 -0.130338
-0.043245 -0.228979 -0.129379
-0.040944 -0.227523 -0.129587
-0.039150 -0.227523 -0.128626
-0.037355 -0.227523 -0.127666
-0.035561 -0.227523 -0.126705
-0.033767 -0.227523 -0.125745
-0.031972 -0.227523 -0.124785
-0.030178 -0.227523 -0.123824
-0.027861 -0.226065 -0.124026
-0.026065 -0.226065 -0.123065
-0.024269 -0.226065 -0.122103
-0.022472 -0.226065 -0.121142
-0.020676 -0.226065 -0.120180
-0.018347 -0.224604 -0.120379
-0.017083 -0.226065 -0.118258
-0.015287 -0.226065 -0.117296
-0.012952 -0.224604 -0.117491
-0.011154 -0.224604 -0.116529
-0.008812 -0.223139 -0.116723
-0.007012 -0.223139 -0.115760
-0.005212 -0.223139 -0.114796
-0.003411 -0.223139 -0.113833
-0.001059 -0.221671 -0.114025
0.001299 -0.220200 -0.114217
0.003103 -0.220200 -0.113251
0.005468 -0.218726 -0.113443
0.007274 -0.218726 -0.112476
0.009080 -0.218726 -0.111510
0.011454 -0.217249 -0.111700
0.013262 -0.217249 -0.110732
0.015642 -0.215769 -0.110921
0.017452 -0.215769 -0.109953
0.019262 -0.215769 -0.108984
0.021072 -0.215769 -0.108015
0.023464 -0.214285 -0.108202
0.025275 -0.214285 -0.107232
0.027674 -0.212799 -0.107418
0.030078 -0.211309 -0.107605
0.031894 -0.211309 -0.106633
0.034305 -0.209816 -0.106818
0.036721 -0.208319 -0.107005
0.038541 -0.208319 -0.106031
0.040965 -0.206820 -0.106216
0.042786 -0.206820 -0.105241
0.045217 -0.205317 -0.105426
0.047653 -0.203811 -0.105611
0.049478 -0.203811 -0.104634
0.051922 -0.202302 -0.104819
0.053749 -0.202302 -0.103841
0.055576 -0.202302 -0.102862
0.058029 -0.200789 -0.103045
0.059858 -0.200789 -0.102066
0.062950 -0.197754 -0.103412
0.065419 -0.196232 -0.103596
0.067254 -0.196232 -0.102614
0.069730 -0.194706 -0.102797
0.072212 -0.193177 -0.102981
0.075347 -0.190108 -0.104336
0.077843 -0.188569 -0.104522
0.079688 -0.188569 -0.103534
0.082851 -0.185481 -0.104895
0.085363 -0.183931 -0.105083
0.087880 -0.182379 -0.105270
0.091075 -0.179263 -0.106641
0.093607 -0.177700 -0.106831
0.097506 -0.172990 -0.109401
0.100057 -0.171413 -0.109595
0.103994 -0.166662 -0.112185
0.107260 -0.163476 -0.113587
0.110540 -0.160277 -0.114994
0.113835 -0.157063 -0.116409
0.117145 -0.153834 -0.117829
0.120470 -0.150591 -0.119256
0.124534 -0.145700 -0.121917
0.127164 -0.144062 -0.122128
0.129068 -0.144062 -0.121109
0.131706 -0.142420 -0.121321
0.133612 -0.142420 -0.120300
0.135518 -0.142420 -0.119280
0.137424 -0.142420 -0.118260
0.139330 -0.142420 -0.117240
0.141236 -0.142420 -0.116220
0.143142 -0.142420 -0.115200
0.145799 -0.140775 -0.115405
0.147707 -0.140775 -0.114383
0.149615 -0.140775 -0.113362
0.151523 -0.140775 -0.112341
0.153431 -0.140775 -0.111320
0.155339 -0.140775 -0.110298
0.157247 -0.140775 -0.109277
0.159155 -0.140775 -0.108256
0.161063 -0.140775 -0.107235
0.163743 -0.139126 -0.107431
0.165653 -0.139126 -0.106408
0.167564 -0.139126 -0.105386
0.169474 -0.139126 -0.104363
0.171384 -0.139126 -0.103341
0.173294 -0.139126 -0.102319
0.175991 -0.137473 -0.102509
0.177904 -0.137473 -0.101486
0.179816 -0.137473 -0.100462
0.181728 -0.137473 -0.099438
0.183641 -0.137473 -0.098415
0.185553 -0.137473 -0.097391
0.187466 -0.137473 -0.096368
0.189378 -0.137473 -0.095344
0.192096 -0.135816 -0.095527
0.194011 -0.135816 -0.094502
0.195926 -0.135816 -0.093478
0.197840 -0.135816 -0.092453
0.199755 -0.135816 -0.091428
0.201669 -0.135816 -0.090403
0.203584 -0.135816 -0.089379
0.205498 -0.135816 -0.088354
0.208238 -0.134156 -0.088529
0.210155 -0.134156 -0.087503
0.212072 -0.134156 -0.086477
0.213988 -0.134156 -0.085451
0.215905 -0.134156 -0.084426
0.217822 -0.134156 -0.083400
0.219738 -0.134156 -0.082374
0.221655 -0.134156 -0.081348
0.224417 -0.132492 -0.081515
0.226335 -0.132492 -0.080488
0.229105 -0.130824 -0.080655
0.231026 -0.130824 -0.079626
0.233805 -0.129152 -0.079792
0.235728 -0.129152 -0.078763
0.237651 -0.129152 -0.077733
0.240441 -0.127477 -0.077897
0.243236 -0.125797 -0.078061
0.245164 -0.125797 -0.077029
0.247092 -0.125797 -0.075998
0.249898 -0.124114 -0.076160
0.251828 -0.124114 -0.075127
0.254643 -0.122427 -0.075288
0.256575 -0.122427 -0.074254
0.259399 -0.120736 -0.074414
0.261333 -0.120736 -0.073379
0.264165 -0.119041 -0.073539
0.266102 -0.119041 -0.072502
0.268943 -0.117343 -0.072661
0.270882 -0.117343 -0.071624
0.272820 -0.117343 -0.070586
0.275673 -0.115640 -0.070743
0.277614 -0.115640 -0.069704
0.280475 -0.113933 -0.069860
0.282418 -0.113933 -0.068820
0.285287 -0.112223 -0.068975
0.288164 -0.110509 -0.069130
0.290112 -0.110509 -0.068088
0.292997 -0.108790 -0.068243
0.294947 -0.108790 -0.067199
0.297841 -0.107068 -0.067353
0.299793 -0.107068 -0.066308
0.302697 -0.105341 -0.066461
0.305607 -0.103611 -0.066614
0.307563 -0.103611 -0.065567
0.310482 -0.101877 -0.065719
0.312441 -0.101877 -0.064671
0.315369 -0.100138 -0.064822
0.317331 -0.100138 -0.063773
0.320268 -0.098396 -0.063923
0.323212 -0.096649 -0.064074
0.326163 -0.094899 -0.064226
0.329120 -0.093144 -0.064377
0.332085 -0.091385 -0.064530
0.335057 -0.089622 -0.064682
0.338035 -0.087855 -0.064835
0.340013 -0.087855 -0.063777
0.343001 -0.086084 -0.063929
0.345996 -0.084309 -0.064081
0.348998 -0.082529 -0.064233
0.352007 -0.080745 -0.064386
0.356055 -0.077165 -0.065759
0.358046 -0.077165 -0.064694
0.361077 -0.075369 -0.064848
0.364114 -0.073568 -0.065002
0.367159 -0.071763 -0.065157
0.370211 -0.069954 -0.065312
0.372212 -0.069954 -0.064241
0.375274 -0.068141 -0.064396
0.378343 -0.066323 -0.064550
0.381419 -0.064501 -0.064705
0.385580 -0.060844 -0.066094
0.389762 -0.057169 -0.067489
0.393964 -0.053476 -0.068891
0.398186 -0.049766 -0.070299
0.402428 -0.046038 -0.071715
0.407810 -0.040412 -0.074396
0.413231 -0.034745 -0.077098
0.417552 -0.030944 -0.078543
0.424193 -0.023287 -0.082560
-0.306682 -0.067613 -0.433324
-0.305691 -0.074852 -0.425620
-0.304204 -0.078446 -0.421262
-0.302978 -0.083806 -0.415295
-0.301505 -0.087357 -0.410987
-0.300039 -0.090893 -0.406699
-0.298580 -0.094411 -0.402432
-0.297128 -0.097914 -0.398184
-0.295683 -0.101400 -0.393956
-0.294245 -0.104870 -0.389748
-0.292551 -0.106599 -0.387128
-0.291124 -0.110044 -0.382950
-0.289705 -0.113474 -0.378791
-0.288291 -0.116889 -0.374651
-0.286885 -0.120287 -0.370531
-0.286018 -0.127037 -0.363378
-0.284626 -0.130389 -0.359311
-0.283241 -0.133726 -0.355263
-0.281592 -0.135389 -0.352733
-0.279947 -0.137048 -0.350209
-0.278305 -0.138703 -0.347690
-0.276393 -0.138703 -0.346667
-0.274758 -0.140354 -0.344155
-0.273126 -0.142002 -0.341649
-0.271498 -0.143646 -0.339148
-0.269873 -0.145286 -0.336653
-0.268253 -0.146923 -0.334164
-0.266636 -0.148556 -0.331681
-0.265022 -0.150185 -0.329203
-0.263413 -0.151810 -0.326730
-0.261806 -0.153432 -0.324264
-0.260204 -0.155051 -0.321802
-0.258313 -0.155051 -0.320790
-0.256716 -0.156665 -0.318335
-0.255123 -0.158276 -0.315886
-0.253533 -0.159884 -0.313443
-0.251648 -0.159884 -0.312434
-0.250064 -0.161487 -0.309997
-0.248484 -0.163088 -0.307565
-0.246907 -0.164684 -0.305139
-0.245333 -0.166277 -0.302718
-0.243763 -0.167867 -0.300302
-0.241889 -0.167867 -0.299299
-0.240325 -0.169453 -0.296890
-0.238764 -0.171036 -0.294487
-0.236894 -0.171036 -0.293486
-0.235338 -0.172615 -0.291088
-0.233470 -0.172615 -0.290089
-0.231920 -0.174190 -0.287698
-0.230055 -0.174190 -0.286699
-0.228189 -0.174190 -0.285701
-0.226646 -0.175762 -0.283317
-0.224783 -0.175762 -0.282320
-0.223246 -0.177331 -0.279943
-0.221384 -0.177331 -0.278946
-0.219853 -0.178896 -0.276576
-0.217993 -0.178896 -0.275580
-0.216467 -0.180458 -0.273216
-0.214609 -0.180458 -0.272222
-0.213089 -0.182016 -0.269864
-0.211571 -0.183571 -0.267511
-0.209718 -0.183571 -0.266519
-0.208206 -0.185122 -0.264172
-0.206354 -0.185122 -0.263181
-0.204848 -0.186670 -0.260841
-0.202998 -0.186670 -0.259851
-0.201149 -0.186670 -0.258861
-0.199649 -0.188215 -0.256528
-0.198153 -0.189756 -0.254200
-0.196308 -0.189756 -0.253212
-0.194817 -0.191294 -0.250890
-0.192974 -0.191294 -0.249904
-0.191131 -0.191294 -0.248917
-0.190006 -0.194360 -0.245278
-0.188167 -0.194360 -0.244293
-0.186328 -0.194360 -0.243309
-0.184853 -0.195888 -0.241005
-0.183015 -0.195888 -0.240022
-0.181178 -0.195888 -0.239038
-0.179710 -0.197412 -0.236742
-0.177875 -0.197412 -0.235760
-0.176039 -0.197412 -0.234777
-0.174579 -0.198933 -0.232488
-0.173121 -0.200451 -0.230204
-0.171667 -0.201966 -0.227925
-0.169838 -0.201966 -0.226946
-0.168389 -0.203477 -0.224672
-0.166943 -0.204985 -0.222404
-0.165500 -0.206490 -0.220141
-0.163676 -0.206490 -0.219165
-0.162239 -0.207991 -0.216907
-0.160417 -0.207991 -0.215932
-0.158985 -0.209490 -0.213681
-0.157165 -0.209490 -0.212707
-0.155737 -0.210985 -0.210461
-0.153920 -0.210985 -0.209489
-0.152102 -0.210985 -0.208516
-0.150682 -0.212477 -0.206277
-0.148866 -0.212477 -0.205305
-0.147050 -0.212477 -0.204333
-0.145637 -0.213965 -0.202102
-0.143823 -0.213965 -0.201131
-0.142009 -0.213965 -0.200160
-0.140196 -0.213965 -0.199189
-0.138791 -0.215451 -0.196966
-0.136979 -0.215451 -0.195996
-0.135168 -0.215451 -0.195026
-0.133770 -0.216933 -0.192809
-0.131960 -0.216933 -0.191841
-0.130567 -0.218412 -0.189629
-0.128759 -0.218412 -0.188662
-0.126951 -0.218412 -0.187694
-0.125565 -0.219888 -0.185490
-0.123759 -0.219888 -0.184523
-0.122378 -0.221361 -0.182324
-0.120574 -0.221361 -0.181359
-0.118770 -0.221361 -0.180393
-0.117396 -0.222830 -0.178202
-0.115594 -0.222830 -0.177237
-0.113792 -0.222830 -0.176273
-0.112424 -0.224297 -0.174087
-0.110624 -0.224297 -0.173124
-0.108824 -0.224297 -0.172160
-0.107463 -0.225760 -0.169982
-0.105665 -0.225760 -0.169019
-0.104309 -0.227220 -0.166847
-0.102512 -0.227220 -0.165885
-0.100716 -0.227220 -0.164924
-0.098920 -0.227220 -0.163962
-0.097572 -0.228678 -0.161797
-0.095778 -0.228678 -0.160837
-0.093984 -0.228678 -0.159876
-0.092189 -0.228678 -0.158916
-0.090395 -0.228678 -0.157956
-0.088601 -0.228678 -0.156995
-0.086806 -0.228678 -0.156035
-0.085012 -0.228678 -0.155074
-0.083218 -0.228678 -0.154114
-0.081423 -0.228678 -0.153154
-0.079629 -0.228678 -0.152193
-0.077834 -0.228678 -0.151233
-0.076040 -0.228678 -0.150272
-0.074246 -0.228678 -0.149312
-0.072451 -0.228678 -0.148352
-0.070657 -0.228678 -0.147391
-0.068863 -0.228678 -0.146431
-0.067068 -0.228678 -0.145470
-0.065274 -0.228678 -0.144510
-0.063480 -0.228678 -0.143550
-0.061685 -0.228678 -0.142589
-0.059891 -0.228678 -0.141629
-0.058097 -0.228678 -0.140668
-0.056302 -0.228678 -0.139708
-0.054508 -0.228678 -0.138748
-0.052714 -0.228678 -0.137787
-0.050919 -0.228678 -0.136827
-0.049125 -0.228678 -0.135866
-0.047330 -0.228678 -0.134906
-0.045536 -0.228678 -0.133946
-0.043742 -0.228678 -0.132985
-0.042454 -0.230132 -0.130855
-0.040153 -0.228678 -0.131065
-0.038359 -0.228678 -0.130104
-0.036564 -0.228678 -0.129144
-0.034770 -0.228678 -0.128183
-0.032976 -0.228678 -0.127223
-0.031181 -0.228678 -0.126263
-0.029387 -0.228678 -0.125302
-0.027069 -0.227220 -0.125506
-0.025273 -0.227220 -0.124544
-0.023477 -0.227220 -0.123583
-0.021680 -0.227220 -0.122621
-0.019884 -0.227220 -0.121660
-0.018088 -0.227220 -0.120698
-0.016292 -0.227220 -0.119737
-0.013957 -0.225760 -0.119935
-0.012159 -0.225760 -0.118972
-0.010361 -0.225760 -0.118010
-0.008018 -0.224297 -0.118206
-0.006218 -0.224297 -0.117242
-0.004418 -0.224297 -0.116279
-0.002066 -0.222830 -0.116473
-0.000264 -0.222830 -0.115509
0.002095 -0.221361 -0.115703
0.003899 -0.221361 -0.114737
0.006264 -0.219888 -0.114930
0.008070 -0.219888 -0.113964
0.009876 -0.219888 -0.112997
0.012251 -0.218412 -0.113189
0.014059 -0.218412 -0.112221
0.016440 -0.216933 -0.112412
0.018250 -0.216933 -0.111443
0.020639 -0.215451 -0.111633
0.021870 -0.216933 -0.109506
0.024262 -0.215451 -0.109694
0.026660 -0.213965 -0.109883
0.028474 -0.213965 -0.108912
0.030879 -0.212477 -0.109100
0.033289 -0.210985 -0.109288
0.035106 -0.210985 -0.108315
0.037524 -0.209490 -0.108503
0.039343 -0.209490 -0.107529
0.041768 -0.207991 -0.107716
0.044197 -0.206490 -0.107904
0.046021 -0.206490 -0.106928
0.048458 -0.204985 -0.107115
0.050283 -0.204985 -0.106138
0.052727 -0.203477 -0.106324
0.055177 -0.201966 -0.106510
0.057006 -0.201966 -0.105531
0.058836 -0.201966 -0.104552
0.061925 -0.198933 -0.105903
0.063758 -0.198933 -0.104922
0.066228 -0.197412 -0.105108
0.068703 -0.195888 -0.105294
0.071183 -0.194360 -0.105480
0.073022 -0.194360 -0.104496
0.076160 -0.191294 -0.105854
0.078656 -0.189756 -0.106042
0.081158 -0.188215 -0.106230
0.084328 -0.185122 -0.107599
0.086844 -0.183571 -0.107789
0.089366 -0.182016 -0.107980
0.092567 -0.178896 -0.109358
0.095104 -0.177331 -0.109551
0.099012 -0.172615 -0.112133
0.102256 -0.169453 -0.113530
0.105514 -0.166277 -0.114933
0.108787 -0.163088 -0.116342
0.112780 -0.158276 -0.118972
0.115377 -0.156665 -0.119179
0.119410 -0.151810 -0.121831
0.122748 -0.148556 -0.123270
0.126829 -0.143646 -0.125951
0.128735 -0.143646 -0.124930
0.130641 -0.143646 -0.123910
0.132546 -0.143646 -0.122890
0.134452 -0.143646 -0.121870
0.137100 -0.142002 -0.122082
0.139008 -0.142002 -0.121061
0.140916 -0.142002 -0.120040
0.142824 -0.142002 -0.119019
0.144732 -0.142002 -0.117997
0.146640 -0.142002 -0.116976
0.149304 -0.140354 -0.117183
0.151214 -0.140354 -0.116161
0.153124 -0.140354 -0.115138
0.155034 -0.140354 -0.114116
0.156945 -0.140354 -0.113093
0.158855 -0.140354 -0.112071
0.160765 -0.140354 -0.111049
0.162675 -0.140354 -0.110026
0.165360 -0.138703 -0.110226
0.167273 -0.138703 -0.109202
0.169185 -0.138703 -0.108178
0.171097 -0.138703 -0.107155
0.173010 -0.138703 -0.106131
0.174922 -0.138703 -0.105108
0.176834 -0.138703 -0.104084
0.178747 -0.138703 -0.103061
0.181453 -0.137048 -0.103252
0.183368 -0.137048 -0.102227
0.185282 -0.137048 -0.101203
0.187197 -0.137048 -0.100178
0.189111 -0.137048 -0.099153
0.191026 -0.137048 -0.098129
0.192940 -0.137048 -0.097104
0.194855 -0.137048 -0.096079
0.197583 -0.135389 -0.096263
0.199500 -0.135389 -0.095237
0.201416 -0.135389 -0.094211
0.203333 -0.135389 -0.093185
0.205250 -0.135389 -0.092159
0.207166 -0.135389 -0.091134
0.209083 -0.135389 -0.090108
0.211000 -0.135389 -0.089082
0.213749 -0.133726 -0.089258
0.215668 -0.133726 -0.088231
0.217587 -0.133726 -0.087204
0.219506 -0.133726 -0.086177
0.221425 -0.133726 -0.085150
0.223344 -0.133726 -0.084123
0.226110 -0.132060 -0.084293
0.228031 -0.132060 -0.083265
0.230806 -0.130389 -0.083435
0.232730 -0.130389 -0.082406
0.235513 -0.128715 -0.082575
0.237439 -0.128715 -0.081544
0.239364 -0.128715 -0.080513
0.242158 -0.127037 -0.080681
0.244086 -0.127037 -0.079649
0.246889 -0.125355 -0.079815
0.248819 -0.125355 -0.078782
0.251630 -0.123670 -0.078948
0.253563 -0.123670 -0.077914
0.255495 -0.123670 -0.076879
0.258317 -0.121980 -0.077043
0.260251 -0.121980 -0.076008
0.263083 -0.120287 -0.076170
0.265019 -0.120287 -0.075134
0.267859 -0.118590 -0.075296
0.269798 -0.118590 -0.074258
0.272646 -0.116889 -0.074419
0.274587 -0.116889 -0.073380
0.277445 -0.115183 -0.073540
0.279388 -0.115183 -0.072500
0.282254 -0.113474 -0.072660
0.284200 -0.113474 -0.071618
0.287075 -0.111761 -0.071777
0.289957 -0.110044 -0.071936
0.291907 -0.110044 -0.070892
0.294797 -0.108324 -0.071050
0.296750 -0.108324 -0.070005
0.299649 -0.106599 -0.070163
0.301604 -0.106599 -0.069117
0.304512 -0.104870 -0.069273
0.307428 -0.103137 -0.069430
0.309387 -0.103137 -0.068381
0.312311 -0.101400 -0.068537
0.314273 -0.101400 -0.067487
0.317206 -0.099659 -0.067642
0.319170 -0.099659 -0.066591
0.322113 -0.097914 -0.066746
0.325062 -0.096165 -0.066900
0.327030 -0.096165 -0.065847
0.329989 -0.094411 -0.066000
0.332955 -0.092654 -0.066154
0.335928 -0.090893 -0.066309
0.338907 -0.089127 -0.066464
0.341894 -0.087357 -0.066619
0.344887 -0.085584 -0.066774
0.347888 -0.083806 -0.066930
0.350896 -0.082023 -0.067086
0.353911 -0.080237 -0.067243
0.356933 -0.078446 -0.067400
0.359962 -0.076651 -0.067557
0.362998 -0.074852 -0.067715
0.366042 -0.073049 -0.067873
0.368040 -0.073049 -0.066803
0.371093 -0.071241 -0.066960
0.374154 -0.069429 -0.067118
0.376157 -0.069429 -0.066046
0.380296 -0.065792 -0.067434
0.383378 -0.063968 -0.067593
0.388634 -0.058466 -0.070231
0.392833 -0.054777 -0.071639
0.397052 -0.051070 -0.073054
0.401292 -0.047345 -0.074476
0.405552 -0.043602 -0.075905
0.409832 -0.039841 -0.077341
0.415268 -0.034165 -0.080056
0.421890 -0.026533 -0.084075
0.427416 -0.020760 -0.086838
-0.304048 -0.070718 -0.432236
-0.303071 -0.077934 -0.424547
-0.301591 -0.081516 -0.420197
-0.300118 -0.085082 -0.415867
-0.298911 -0.090399 -0.409940
-0.297453 -0.093923 -0.405660
-0.295741 -0.095679 -0.403000
-0.294296 -0.099178 -0.398751
-0.292857 -0.102661 -0.394522
-0.291425 -0.106128 -0.390312
-0.290000 -0.109579 -0.386122
-0.288581 -0.113014 -0.381951
-0.287169 -0.116433 -0.377799
-0.285495 -0.118137 -0.375211
-0.284364 -0.123224 -0.369553
-0.283241 -0.128277 -0.363934
-0.282125 -0.133295 -0.358353
-0.280476 -0.134960 -0.355817
-0.278830 -0.136622 -0.353286
-0.277188 -0.138279 -0.350761
-0.275550 -0.139933 -0.348242
-0.273916 -0.141583 -0.345728
-0.272285 -0.143229 -0.343220
-0.270658 -0.144872 -0.340718
-0.269034 -0.146511 -0.338221
-0.267415 -0.148146 -0.335730
-0.265513 -0.148146 -0.334713
-0.263899 -0.149777 -0.332229
-0.262289 -0.151405 -0.329750
-0.260682 -0.153030 -0.327277
-0.259079 -0.154650 -0.324809
-0.257479 -0.156267 -0.322348
-0.255588 -0.156267 -0.321335
-0.253995 -0.157880 -0.318880
-0.252404 -0.159490 -0.316430
-0.250818 -0.161096 -0.313986
-0.249234 -0.162698 -0.311547
-0.247655 -0.164297 -0.309114
-0.246079 -0.165893 -0.306686
-0.244200 -0.165893 -0.305680
-0.242630 -0.167484 -0.303259
-0.241063 -0.169073 -0.300843
-0.239189 -0.169073 -0.299840
-0.237627 -0.170657 -0.297430
-0.235755 -0.170657 -0.296428
-0.234199 -0.172239 -0.294025
-0.232329 -0.172239 -0.293024
-0.230779 -0.173816 -0.290627
-0.228911 -0.173816 -0.289628
-0.227366 -0.175390 -0.287237
-0.225500 -0.175390 -0.286239
-0.223961 -0.176961 -0.283855
-0.222097 -0.176961 -0.282857
-0.220563 -0.178529 -0.280480
-0.218702 -0.178529 -0.279483
-0.217173 -0.180092 -0.277112
-0.215313 -0.180092 -0.276117
-0.213790 -0.181653 -0.273752
-0.211933 -0.181653 -0.272757
-0.210415 -0.183210 -0.270399
-0.208559 -0.183210 -0.269406
-0.207047 -0.184763 -0.267053
-0.205194 -0.184763 -0.266061
-0.203687 -0.186313 -0.263715
-0.201835 -0.186313 -0.262724
-0.200333 -0.187860 -0.260384
-0.198484 -0.187860 -0.259394
-0.196988 -0.189403 -0.257061
-0.195140 -0.189403 -0.256072
-0.193649 -0.190943 -0.253744
-0.191804 -0.190943 -0.252757
-0.190318 -0.192480 -0.250435
-0.188475 -0.192480 -0.249449
-0.186631 -0.192480 -0.248462
-0.185517 -0.195543 -0.244824
-0.183677 -0.195543 -0.243839
-0.182205 -0.197069 -0.241535
-0.180368 -0.197069 -0.240552
-0.178531 -0.197069 -0.239568
-0.177066 -0.198593 -0.237271
-0.174856 -0.197069 -0.237601
-0.173395 -0.198593 -0.235307
-0.171937 -0.200113 -0.233017
-0.170483 -0.201629 -0.230732
-0.169031 -0.203143 -0.228452
-0.167202 -0.203143 -0.227473
-0.165756 -0.204653 -0.225199
-0.163928 -0.204653 -0.224221
-0.162487 -0.206159 -0.221954
-0.161049 -0.207663 -0.219691
-0.159614 -0.209163 -0.217433
-0.157793 -0.209163 -0.216458
-0.156363 -0.210660 -0.214206
-0.154543 -0.210660 -0.213232
-0.152724 -0.210660 -0.212258
-0.151301 -0.212154 -0.210013
-0.149483 -0.212154 -0.209040
-0.147666 -0.212154 -0.208067
-0.146250 -0.213645 -0.205829
-0.144434 -0.213645 -0.204857
-0.143024 -0.215132 -0.202625
-0.141210 -0.215132 -0.201654
-0.139396 -0.215132 -0.200683
-0.137992 -0.216616 -0.198458
-0.136181 -0.216616 -0.197488
-0.134369 -0.216616 -0.196518
-0.132972 -0.218097 -0.194300
-0.131162 -0.218097 -0.193331
-0.129770 -0.219575 -0.191118
-0.127962 -0.219575 -0.190151
-0.126154 -0.219575 -0.189183
-0.124769 -0.221050 -0.186977
-0.122963 -0.221050 -0.186011
-0.121157 -0.221050 -0.185044
-0.119779 -0.222521 -0.182845
-0.117975 -0.222521 -0.181879
-0.116171 -0.222521 -0.180914
-0.114799 -0.223990 -0.178721
-0.112997 -0.223990 -0.177757
-0.111195 -0.223990 -0.176792
-0.109830 -0.225455 -0.174606
-0.108030 -0.225455 -0.173643
-0.106230 -0.225455 -0.172679
-0.104872 -0.226917 -0.170501
-0.103074 -0.226917 -0.169538
-0.101721 -0.228376 -0.167365
-0.099924 -0.228376 -0.166403
-0.098128 -0.228376 -0.165442
-0.096781 -0.229832 -0.163275
-0.094535 -0.228376 -0.163519
-0.093193 -0.229832 -0.161354
-0.091398 -0.229832 -0.160394
-0.089604 -0.229832 -0.159434
-0.087810 -0.229832 -0.158473
-0.086015 -0.229832 -0.157513
-0.084221 -0.229832 -0.156552
-0.082427 -0.229832 -0.155592
-0.080632 -0.229832 -0.154632
-0.078838 -0.229832 -0.153671
-0.077043 -0.229832 -0.152711
-0.075249 -0.229832 -0.151750
-0.073455 -0.229832 -0.150790
-0.071660 -0.229832 -0.149830
-0.069866 -0.229832 -0.148869
-0.068072 -0.229832 -0.147909
-0.066277 -0.229832 -0.146948
-0.064483 -0.229832 -0.145988
-0.062689 -0.229832 -0.145028
-0.060894 -0.229832 -0.144067
-0.059100 -0.229832 -0.143107
-0.057306 -0.229832 -0.142146
-0.055511 -0.229832 -0.141186
-0.053717 -0.229832 -0.140226
-0.051922 -0.229832 -0.139265
-0.050128 -0.229832 -0.138305
-0.048334 -0.229832 -0.137344
-0.046539 -0.229832 -0.136384
-0.044745 -0.229832 -0.135424
-0.042951 -0.229832 -0.134463
-0.041156 -0.229832 -0.133503
-0.039362 -0.229832 -0.132542
-0.037568 -0.229832 -0.131582
-0.035773 -0.229832 -0.130622
-0.033979 -0.229832 -0.129661
-0.032185 -0.229832 -0.128701
-0.030390 -0.229832 -0.127740
-0.028074 -0.228376 -0.127946
-0.026277 -0.228376 -0.126985
-0.024481 -0.228376 -0.126024
-0.022685 -0.228376 -0.125062
-0.020889 -0.228376 -0.124101
-0.019092 -0.228376 -0.123139
-0.017296 -0.228376 -0.122178
-0.014963 -0.226917 -0.122378
-0.013165 -0.226917 -0.121416
-0.011367 -0.226917 -0.120453
-0.009025 -0.225455 -0.120652
-0.007225 -0.225455 -0.119688
-0.005424 -0.225455 -0.118725
-0.003624 -0.225455 -0.117761
-0.001272 -0.223990 -0.117958
0.000530 -0.223990 -0.116993
0.002890 -0.222521 -0.117188
0.004694 -0.222521 -0.116223
0.007060 -0.221050 -0.116418
0.008866 -0.221050 -0.115451
0.011240 -0.219575 -0.115645
0.013048 -0.219575 -0.114678
0.014856 -0.219575 -0.113710
0.017238 -0.218097 -0.113902
0.019048 -0.218097 -0.112934
0.021438 -0.216616 -0.113126
0.022667 -0.218097 -0.110997
0.025061 -0.216616 -0.111186
0.027460 -0.215132 -0.111376
0.029863 -0.213645 -0.111567
0.031679 -0.213645 -0.110595
0.034090 -0.212154 -0.110785
0.035908 -0.212154 -0.109812
0.038326 -0.210660 -0.110002
0.040749 -0.209163 -0.110192
0.042571 -0.209163 -0.109217
0.045001 -0.207663 -0.109406
0.046825 -0.207663 -0.108430
0.049262 -0.206159 -0.108618
0.051705 -0.204653 -0.108807
0.053533 -0.204653 -0.107829
0.055983 -0.203143 -0.108017
0.057813 -0.203143 -0.107038
0.060270 -0.201629 -0.107225
0.062733 -0.200113 -0.107413
0.065202 -0.198593 -0.107602
0.067675 -0.197069 -0.107791
0.069513 -0.197069 -0.106807
0.071994 -0.195543 -0.106995
0.075129 -0.192480 -0.108359
0.076972 -0.192480 -0.107373
0.080125 -0.189403 -0.108741
0.082632 -0.187860 -0.108932
0.085808 -0.184763 -0.110308
0.088329 -0.183210 -0.110501
0.090855 -0.181653 -0.110695
0.094063 -0.178529 -0.112081
0.097285 -0.175390 -0.113473
0.100522 -0.172239 -0.114871
0.104465 -0.167484 -0.117482
0.107736 -0.164297 -0.118897
0.111021 -0.161096 -0.120318
0.114321 -0.157880 -0.121746
0.117635 -0.154650 -0.123180
0.120965 -0.151405 -0.124620
0.126493 -0.143229 -0.129781
0.128401 -0.143229 -0.128760
0.131044 -0.141583 -0.128980
0.132217 -0.143229 -0.126718
0.134125 -0.143229 -0.125696
0.136775 -0.141583 -0.125913
0.138685 -0.141583 -0.124891
0.140595 -0.141583 -0.123868
0.142505 -0.141583 -0.122846
0.144415 -0.141583 -0.121824
0.146325 -0.141583 -0.120801
0.148236 -0.141583 -0.119779
0.150146 -0.141583 -0.118756
0.152817 -0.139933 -0.118965
0.154729 -0.139933 -0.117942
0.156642 -0.139933 -0.116918
0.158554 -0.139933 -0.115895
0.160466 -0.139933 -0.114871
0.162379 -0.139933 -0.113848
0.164291 -0.139933 -0.112824
0.166203 -0.139933 -0.111801
0.168896 -0.138279 -0.112002
0.170810 -0.138279 -0.110977
0.172725 -0.138279 -0.109953
0.174639 -0.138279 -0.108928
0.176554 -0.138279 -0.107903
0.178468 -0.138279 -0.106878
0.180383 -0.138279 -0.105854
0.182297 -0.138279 -0.104829
0.185011 -0.136622 -0.105023
0.186928 -0.136622 -0.103997
0.188844 -0.136622 -0.102971
0.190761 -0.136622 -0.101945
0.192678 -0.136622 -0.100919
0.194594 -0.136622 -0.099893
0.196511 -0.136622 -0.098868
0.198428 -0.136622 -0.097842
0.201163 -0.134960 -0.098028
0.203082 -0.134960 -0.097001
0.205001 -0.134960 -0.095974
0.206920 -0.134960 -0.094947
0.208838 -0.134960 -0.093920
0.210757 -0.134960 -0.092892
0.212676 -0.134960 -0.091865
0.214595 -0.134960 -0.090838
0.217352 -0.133295 -0.091017
0.219273 -0.133295 -0.089988
0.221194 -0.133295 -0.088960
0.223115 -0.133295 -0.087932
0.225036 -0.133295 -0.086904
0.226957 -0.133295 -0.085876
0.229731 -0.131626 -0.086048
0.231654 -0.131626 -0.085019
0.234436 -0.129954 -0.085191
0.236362 -0.129954 -0.084160
0.238287 -0.129954 -0.083130
0.241081 -0.128277 -0.083300
0.243880 -0.126597 -0.083470
0.245810 -0.126597 -0.082437
0.248618 -0.124913 -0.082607
0.250550 -0.124913 -0.081573
0.252482 -0.124913 -0.080539
0.255301 -0.123224 -0.080707
0.257235 -0.123224 -0.079671
0.260063 -0.121533 -0.079838
0.262000 -0.121533 -0.078802
0.264836 -0.119837 -0.078968
0.266775 -0.119837 -0.077930
0.269620 -0.118137 -0.078095
0.271561 -0.118137 -0.077057
0.274415 -0.116433 -0.077221
0.276358 -0.116433 -0.076181
0.279221 -0.114726 -0.076345
0.281166 -0.114726 -0.075303
0.284038 -0.113014 -0.075466
0.285986 -0.113014 -0.074424
0.288866 -0.111299 -0.074586
0.291754 -0.109579 -0.074748
0.293706 -0.109579 -0.073703
0.296602 -0.107856 -0.073865
0.298556 -0.107856 -0.072819
0.301462 -0.106128 -0.072979
0.303418 -0.106128 -0.071932
0.306333 -0.104397 -0.072092
0.308292 -0.104397 -0.071043
0.311215 -0.102661 -0.071202
0.314145 -0.100922 -0.071362
0.316108 -0.100922 -0.070311
0.319048 -0.099178 -0.070469
0.321013 -0.099178 -0.069417
0.323962 -0.097431 -0.069575
0.325930 -0.097431 -0.068521
0.328887 -0.095679 -0.068678
0.331852 -0.093923 -0.068835
0.334823 -0.092163 -0.068993
0.337801 -0.090399 -0.069151
0.340787 -0.088631 -0.069309
0.343779 -0.086859 -0.069467
0.346779 -0.085082 -0.069626
0.349785 -0.083301 -0.069786
0.352799 -0.081516 -0.069946
0.355819 -0.079727 -0.070106
0.358847 -0.077934 -0.070266
0.360841 -0.077934 -0.069199
0.363878 -0.076136 -0.069359
0.366923 -0.074334 -0.069519
0.369974 -0.072528 -0.069679
0.373033 -0.070718 -0.069840
0.376100 -0.068903 -0.070001
0.378105 -0.068903 -0.068928
0.382254 -0.065261 -0.070324
0.386423 -0.061601 -0.071728
0.390612 -0.057923 -0.073138
0.394820 -0.054228 -0.074555
0.399049 -0.050515 -0.075979
0.403299 -0.046785 -0.077410
0.408691 -0.041155 -0.080116
0.414122 -0.035484 -0.082841
0.419593 -0.029771 -0.085586
0.426261 -0.022089 -0.089647
-0.301420 -0.073815 -0.431152
-0.300198 -0.079216 -0.425122
-0.298985 -0.084579 -0.419134
-0.297520 -0.088133 -0.414812
-0.296062 -0.091671 -0.410510
-0.294611 -0.095192 -0.406229
-0.293166 -0.098697 -0.401967
-0.291728 -0.102185 -0.397726
-0.290297 -0.105657 -0.393504
-0.288873 -0.109113 -0.389301
-0.287187 -0.110835 -0.386685
-0.285775 -0.114267 -0.382513
-0.284369 -0.117683 -0.378360
-0.282970 -0.121084 -0.374226
-0.281577 -0.124469 -0.370111
-0.280735 -0.131192 -0.362968
-0.279357 -0.134531 -0.358907
-0.277985 -0.137855 -0.354865
-0.276344 -0.139511 -0.352338
-0.274707 -0.141163 -0.349817
-0.273073 -0.142812 -0.347301
-0.271163 -0.142812 -0.346279
-0.269536 -0.144457 -0.343771
-0.267912 -0.146098 -0.341268
-0.266291 -0.147735 -0.338770
-0.264675 -0.149369 -0.336279
-0.263062 -0.150999 -0.333793
-0.261452 -0.152626 -0.331313
-0.259846 -0.154249 -0.328838
-0.258244 -0.155868 -0.326369
-0.256646 -0.157483 -0.323905
-0.254755 -0.157483 -0.322893
-0.253162 -0.159095 -0.320436
-0.251573 -0.160703 -0.317984
-0.249987 -0.162308 -0.315538
-0.248102 -0.162308 -0.314530
-0.246522 -0.163909 -0.312090
-0.244946 -0.165507 -0.309656
-0.243372 -0.167101 -0.307227
-0.241803 -0.168691 -0.304804
-0.239927 -0.168691 -0.303800
-0.238363 -0.170278 -0.301383
-0.236489 -0.170278 -0.300380
-0.234930 -0.171862 -0.297970
-0.233058 -0.171862 -0.296968
-0.231505 -0.173441 -0.294564
-0.229635 -0.173441 -0.293563
-0.228088 -0.175018 -0.291166
-0.226220 -0.175018 -0.290166
-0.224678 -0.176591 -0.287775
-0.222812 -0.176591 -0.286777
-0.221276 -0.178160 -0.284392
-0.219412 -0.178160 -0.283395
-0.217881 -0.179726 -0.281016
-0.216019 -0.179726 -0.280020
-0.214494 -0.181289 -0.277648
-0.212634 -0.181289 -0.276653
-0.211114 -0.182848 -0.274287
-0.209256 -0.182848 -0.273293
-0.207741 -0.184403 -0.270934
-0.205886 -0.184403 -0.269941
-0.204376 -0.185955 -0.267588
-0.202523 -0.185955 -0.266596
-0.201019 -0.187504 -0.264249
-0.199167 -0.187504 -0.263258
-0.197669 -0.189050 -0.260918
-0.195819 -0.189050 -0.259928
-0.194326 -0.190592 -0.257594
-0.192478 -0.190592 -0.256605
-0.190990 -0.192130 -0.254277
-0.189145 -0.192130 -0.253289
-0.187299 -0.192130 -0.252301
-0.185819 -0.193666 -0.249980
-0.184706 -0.196726 -0.246338
-0.182867 -0.196726 -0.245354
-0.181027 -0.196726 -0.244369
-0.179558 -0.198251 -0.242065
-0.177721 -0.198251 -0.241082
-0.175883 -0.198251 -0.240098
-0.174046 -0.198251 -0.239115
-0.172586 -0.199773 -0.236818
-0.170751 -0.199773 -0.235836
-0.169296 -0.201292 -0.233546
-0.167462 -0.201292 -0.232564
-0.166013 -0.202807 -0.230280
-0.164566 -0.204319 -0.228001
-0.163123 -0.205828 -0.225726
-0.161295 -0.205828 -0.224748
-0.159857 -0.207334 -0.222480
-0.158422 -0.208836 -0.220217
-0.156990 -0.210335 -0.217958
-0.155168 -0.210335 -0.216983
-0.153347 -0.210335 -0.216008
-0.151922 -0.211831 -0.213756
-0.150102 -0.211831 -0.212783
-0.148283 -0.211831 -0.211809
-0.146865 -0.213323 -0.209564
-0.145047 -0.213323 -0.208591
-0.143230 -0.213323 -0.207618
-0.141818 -0.214812 -0.205381
-0.140003 -0.214812 -0.204409
-0.138597 -0.216299 -0.202177
-0.136783 -0.216299 -0.201206
-0.134969 -0.216299 -0.200236
-0.133570 -0.217782 -0.198011
-0.131758 -0.217782 -0.197041
-0.130364 -0.219261 -0.194822
-0.128554 -0.219261 -0.193853
-0.126745 -0.219261 -0.192884
-0.125357 -0.220738 -0.190672
-0.123550 -0.220738 -0.189705
-0.121742 -0.220738 -0.188737
-0.120361 -0.222211 -0.186531
-0.118555 -0.222211 -0.185565
-0.116749 -0.222211 -0.184598
-0.115376 -0.223682 -0.182399
-0.113572 -0.223682 -0.181434
-0.112203 -0.225149 -0.179241
-0.110401 -0.225149 -0.178276
-0.108599 -0.225149 -0.177312
-0.107237 -0.226613 -0.175126
-0.105437 -0.226613 -0.174162
-0.103637 -0.226613 -0.173199
-0.102281 -0.228074 -0.171019
-0.100483 -0.228074 -0.170057
-0.099132 -0.229531 -0.167883
-0.097336 -0.229531 -0.166921
-0.095540 -0.229531 -0.165960
-0.093744 -0.229531 -0.164999
-0.091947 -0.229531 -0.164037
-0.090607 -0.230986 -0.161872
-0.088813 -0.230986 -0.160911
-0.087019 -0.230986 -0.159951
-0.085224 -0.230986 -0.158991
-0.083430 -0.230986 -0.158030
-0.081636 -0.230986 -0.157070
-0.079841 -0.230986 -0.156109
-0.078047 -0.230986 -0.155149
-0.076252 -0.230986 -0.154189
-0.074458 -0.230986 -0.153228
-0.072664 -0.230986 -0.152268
-0.070869 -0.230986 -0.151307
-0.069075 -0.230986 -0.150347
-0.066800 -0.229531 -0.150577
-0.065003 -0.229531 -0.149616
-0.063207 -0.229531 -0.148654
-0.061898 -0.230986 -0.146505
-0.060103 -0.230986 -0.145545
-0.058309 -0.230986 -0.144585
-0.056515 -0.230986 -0.143624
-0.054720 -0.230986 -0.142664
-0.052926 -0.230986 -0.141704
-0.051131 -0.230986 -0.140743
-0.049337 -0.230986 -0.139783
-0.047543 -0.230986 -0.138822
-0.045748 -0.230986 -0.137862
-0.043954 -0.230986 -0.136902
