ply
format ascii 1.0
element vertex 1673
property float x
property float y
property float z
end_header
0.211144 0.094169 -0.493913
0.209465 0.094169 -0.493418
0.207106 0.093726 -0.494139
0.205428 0.093726 -0.493645
0.203075 0.093284 -0.494364
0.202073 0.093726 -0.492657
0.199723 0.093284 -0.493377
0.198047 0.093284 -0.492884
0.195034 0.092403 -0.494814
0.192697 0.091963 -0.495531
0.191025 0.091963 -0.495039
0.189354 0.091963 -0.494547
0.187023 0.091524 -0.495263
0.185354 0.091524 -0.494771
0.183029 0.091086 -0.495486
0.181361 0.091086 -0.494995
0.179692 0.091086 -0.494504
0.177375 0.090649 -0.495218
0.175708 0.090649 -0.494728
0.173396 0.090213 -0.495442
0.171731 0.090213 -0.494951
0.170066 0.090213 -0.494461
0.168400 0.090213 -0.493971
0.166097 0.089777 -0.494685
0.164433 0.089777 -0.494195
0.162136 0.089343 -0.494908
0.160474 0.089343 -0.494418
0.158811 0.089343 -0.493929
0.156521 0.088909 -0.494642
0.154860 0.088909 -0.494153
0.152576 0.088476 -0.494864
0.150917 0.088476 -0.494376
0.149257 0.088476 -0.493887
0.146980 0.088043 -0.494599
0.145322 0.088043 -0.494111
0.143050 0.087612 -0.494821
0.141394 0.087612 -0.494334
0.139738 0.087612 -0.493846
0.138081 0.087612 -0.493358
0.135818 0.087181 -0.494069
0.134163 0.087181 -0.493582
0.131906 0.086751 -0.494291
0.130253 0.086751 -0.493805
0.128599 0.086751 -0.493318
0.126349 0.086321 -0.494027
0.124697 0.086321 -0.493541
0.122452 0.085893 -0.494249
0.120801 0.085893 -0.493764
0.119151 0.085893 -0.493278
0.116913 0.085465 -0.493986
0.115264 0.085465 -0.493500
0.113032 0.085038 -0.494208
0.110803 0.084612 -0.494914
0.109157 0.084612 -0.494429
0.107511 0.084612 -0.493945
0.105290 0.084186 -0.494650
0.103645 0.084186 -0.494166
0.101429 0.083762 -0.494871
0.099786 0.083762 -0.494387
0.098143 0.083762 -0.493903
0.095934 0.083338 -0.494608
0.094292 0.083338 -0.494125
0.092088 0.082915 -0.494828
0.090448 0.082915 -0.494345
0.088808 0.082915 -0.493862
0.086611 0.082492 -0.494566
0.084973 0.082492 -0.494083
0.082781 0.082071 -0.494786
0.081144 0.082071 -0.494304
0.079507 0.082071 -0.493821
0.077870 0.082071 -0.493339
0.075687 0.081650 -0.494042
0.074051 0.081650 -0.493560
0.071873 0.081230 -0.494262
0.070239 0.081230 -0.493781
0.068605 0.081230 -0.493300
0.066434 0.080810 -0.494001
0.064801 0.080810 -0.493520
0.062635 0.080391 -0.494221
0.061004 0.080391 -0.493740
0.059372 0.080391 -0.493260
0.057213 0.079973 -0.493960
0.055583 0.079973 -0.493480
0.053430 0.079556 -0.494179
0.051801 0.079556 -0.493700
0.050173 0.079556 -0.493220
0.048544 0.079556 -0.492741
0.046399 0.079140 -0.493440
0.044772 0.079140 -0.492961
0.042631 0.078724 -0.493659
0.041006 0.078724 -0.493181
0.039380 0.078724 -0.492702
0.037247 0.078309 -0.493400
0.035622 0.078309 -0.492922
0.033494 0.077895 -0.493619
0.031871 0.077895 -0.493142
0.030249 0.077895 -0.492664
0.028127 0.077481 -0.493361
0.026505 0.077481 -0.492883
0.024389 0.077069 -0.493579
0.022769 0.077069 -0.493102
0.021149 0.077069 -0.492625
0.019529 0.077069 -0.492148
0.017421 0.076657 -0.492845
0.015802 0.076657 -0.492368
0.013699 0.076245 -0.493063
0.012082 0.076245 -0.492587
0.010465 0.076245 -0.492111
0.008368 0.075835 -0.492806
0.006752 0.075835 -0.492330
0.004660 0.075425 -0.493024
0.003046 0.075425 -0.492549
0.001432 0.075425 -0.492074
-0.000653 0.075016 -0.492768
-0.002266 0.075016 -0.492293
-0.004346 0.074607 -0.492986
-0.005957 0.074607 -0.492511
-0.007569 0.074607 -0.492037
-0.009180 0.074607 -0.491562
-0.011252 0.074200 -0.492255
-0.012862 0.074200 -0.491781
-0.014930 0.073793 -0.492473
-0.016538 0.073793 -0.492000
-0.018146 0.073793 -0.491526
-0.020207 0.073386 -0.492218
-0.021814 0.073386 -0.491745
-0.023870 0.072981 -0.492436
-0.025476 0.072981 -0.491963
-0.027082 0.072981 -0.491490
-0.029131 0.072576 -0.492181
-0.030735 0.072576 -0.491709
-0.032780 0.072172 -0.492398
-0.034821 0.071768 -0.493087
-0.036422 0.071768 -0.492615
-0.038024 0.071768 -0.492144
-0.040058 0.071365 -0.492832
-0.041658 0.071365 -0.492361
-0.043688 0.070963 -0.493048
-0.045287 0.070963 -0.492578
-0.046885 0.070963 -0.492107
-0.048909 0.070562 -0.492794
-0.050506 0.070562 -0.492324
-0.052525 0.070161 -0.493010
-0.054120 0.070161 -0.492540
-0.055716 0.070161 -0.492070
-0.057728 0.069761 -0.492756
-0.059323 0.069761 -0.492287
-0.061330 0.069362 -0.492972
-0.062923 0.069362 -0.492503
-0.064516 0.069362 -0.492033
-0.066109 0.069362 -0.491564
-0.068109 0.068964 -0.492250
-0.069701 0.068964 -0.491781
-0.071696 0.068566 -0.492465
-0.073286 0.068566 -0.491997
-0.074876 0.068566 -0.491529
-0.076865 0.068168 -0.492213
-0.078454 0.068168 -0.491745
-0.080438 0.067772 -0.492428
-0.082025 0.067772 -0.491961
-0.083613 0.067772 -0.491493
-0.085590 0.067376 -0.492176
-0.087177 0.067376 -0.491709
-0.089150 0.066981 -0.492391
-0.090734 0.066981 -0.491924
-0.092319 0.066981 -0.491458
-0.093904 0.066981 -0.490991
-0.095869 0.066587 -0.491673
-0.097453 0.066587 -0.491207
-0.099413 0.066193 -0.491888
-0.100995 0.066193 -0.491422
-0.102578 0.066193 -0.490956
-0.104532 0.065800 -0.491637
-0.106113 0.065800 -0.491172
-0.108063 0.065407 -0.491852
-0.109642 0.065407 -0.491387
-0.111221 0.065407 -0.490922
-0.113165 0.065016 -0.491602
-0.114743 0.065016 -0.491137
-0.116682 0.064624 -0.491816
-0.118259 0.064624 -0.491352
-0.119835 0.064624 -0.490888
-0.121412 0.064624 -0.490423
-0.123344 0.064234 -0.491103
-0.124919 0.064234 -0.490639
-0.126846 0.063844 -0.491317
-0.128420 0.063844 -0.490854
-0.129994 0.063844 -0.490390
-0.131915 0.063455 -0.491068
-0.133487 0.063455 -0.490605
-0.135404 0.063067 -0.491282
-0.137317 0.062679 -0.491958
-0.138887 0.062679 -0.491496
-0.140456 0.062679 -0.491034
-0.142364 0.062292 -0.491709
-0.143932 0.062292 -0.491247
-0.145501 0.062292 -0.490786
-0.147069 0.062292 -0.490324
-0.148638 0.062292 -0.489862
-0.150536 0.061906 -0.490538
-0.152103 0.061906 -0.490076
-0.153997 0.061520 -0.490752
-0.155563 0.061520 -0.490291
-0.157129 0.061520 -0.489829
-0.158695 0.061520 -0.489368
-0.160582 0.061135 -0.490044
-0.162146 0.061135 -0.489583
-0.163711 0.061135 -0.489122
-0.165592 0.060750 -0.489797
-0.167155 0.060750 -0.489337
-0.168718 0.060750 -0.488877
-0.170593 0.060367 -0.489551
-0.172465 0.059983 -0.490225
-0.174025 0.059983 -0.489765
-0.175586 0.059983 -0.489306
-0.177452 0.059601 -0.489979
-0.179011 0.059601 -0.489520
-0.180570 0.059601 -0.489061
-0.182430 0.059219 -0.489733
-0.183988 0.059219 -0.489275
-0.185546 0.059219 -0.488816
-0.187400 0.058838 -0.489488
-0.188957 0.058838 -0.489030
-0.190514 0.058838 -0.488572
-0.192362 0.058457 -0.489244
-0.193917 0.058457 -0.488786
-0.195473 0.058457 -0.488328
-0.197315 0.058078 -0.488999
-0.198869 0.058078 -0.488542
-0.200423 0.058078 -0.488084
-0.201977 0.058078 -0.487627
-0.203813 0.057698 -0.488298
-0.205365 0.057698 -0.487841
-0.206918 0.057698 -0.487384
-0.208748 0.057320 -0.488055
-0.210299 0.057320 -0.487598
-0.211851 0.057320 -0.487142
-0.213675 0.056942 -0.487813
-0.215225 0.056942 -0.487356
-0.216775 0.056942 -0.486900
-0.218594 0.056564 -0.487570
-0.220142 0.056564 -0.487114
-0.221691 0.056564 -0.486658
-0.223768 0.055812 -0.488453
-0.225314 0.055812 -0.487998
-0.226860 0.055812 -0.487542
-0.228406 0.055812 -0.487087
-0.230210 0.055436 -0.487756
-0.231755 0.055436 -0.487301
-0.233300 0.055436 -0.486846
-0.235098 0.055061 -0.487514
-0.236642 0.055061 -0.487060
-0.238185 0.055061 -0.486605
-0.239978 0.054687 -0.487273
-0.241520 0.054687 -0.486819
-0.243062 0.054687 -0.486365
-0.244850 0.054314 -0.487033
-0.246391 0.054314 -0.486579
-0.247932 0.054314 -0.486125
-0.249713 0.053941 -0.486793
-0.251492 0.053569 -0.487459
-0.253030 0.053569 -0.487006
-0.254569 0.053569 -0.486553
-0.256342 0.053197 -0.487219
-0.257879 0.053197 -0.486766
-0.259416 0.053197 -0.486314
-0.261184 0.052826 -0.486979
-0.262719 0.052826 -0.486527
-0.264255 0.052826 -0.486075
-0.265791 0.052826 -0.485623
-0.267552 0.052455 -0.486288
-0.269086 0.052455 -0.485836
-0.270621 0.052455 -0.485384
-0.272376 0.052086 -0.486050
-0.273909 0.052086 -0.485598
-0.275442 0.052086 -0.485147
-0.277192 0.051716 -0.485811
-0.278724 0.051716 -0.485360
-0.280256 0.051716 -0.484909
-0.282000 0.051348 -0.485574
-0.283531 0.051348 -0.485123
-0.285062 0.051348 -0.484672
-0.286800 0.050980 -0.485336
-0.288330 0.050980 -0.484886
-0.289859 0.050980 -0.484436
-0.291388 0.050980 -0.483985
-0.293121 0.050613 -0.484649
-0.294649 0.050613 -0.484199
-0.296177 0.050613 -0.483749
-0.297705 0.050613 -0.483299
-0.299233 0.050613 -0.482850
-0.300564 0.050980 -0.481283
-0.302094 0.050980 -0.480833
-0.303623 0.050980 -0.480383
-0.305152 0.050980 -0.479932
-0.306682 0.050980 -0.479482
-0.308211 0.050980 -0.479032
-0.309740 0.050980 -0.478581
-0.311270 0.050980 -0.478131
-0.312799 0.050980 -0.477681
-0.314328 0.050980 -0.477230
-0.315858 0.050980 -0.476780
-0.317387 0.050980 -0.476330
-0.318916 0.050980 -0.475879
-0.320446 0.050980 -0.475429
-0.321975 0.050980 -0.474979
-0.323504 0.050980 -0.474528
-0.325034 0.050980 -0.474078
-0.326563 0.050980 -0.473628
-0.328092 0.050980 -0.473177
-0.329622 0.050980 -0.472727
-0.331151 0.050980 -0.472277
-0.332680 0.050980 -0.471827
-0.334210 0.050980 -0.471376
-0.335739 0.050980 -0.470926
-0.337268 0.050980 -0.470476
-0.338798 0.050980 -0.470025
-0.340327 0.050980 -0.469575
-0.341856 0.050980 -0.469125
-0.343385 0.050980 -0.468674
-0.344915 0.050980 -0.468224
-0.346444 0.050980 -0.467774
-0.347816 0.051348 -0.466194
-0.349347 0.051348 -0.465743
-0.350722 0.051716 -0.464160
-0.352254 0.051716 -0.463709
-0.353786 0.051716 -0.463258
-0.355166 0.052086 -0.461671
-0.356700 0.052086 -0.461220
-0.358233 0.052086 -0.460768
-0.359766 0.052086 -0.460317
-0.361299 0.052086 -0.459865
-0.362687 0.052455 -0.458275
-0.364221 0.052455 -0.457823
-0.365756 0.052455 -0.457371
-0.367290 0.052455 -0.456919
-0.368825 0.052455 -0.456467
-0.370359 0.052455 -0.456015
-0.371894 0.052455 -0.455564
-0.373291 0.052826 -0.453968
-0.374827 0.052826 -0.453516
-0.376363 0.052826 -0.453064
-0.377899 0.052826 -0.452611
-0.379303 0.053197 -0.451012
-0.380840 0.053197 -0.450559
-0.382377 0.053197 -0.450107
-0.383786 0.053569 -0.448504
-0.385324 0.053569 -0.448051
-0.386862 0.053569 -0.447598
-0.388276 0.053941 -0.445992
-0.389816 0.053941 -0.445538
-0.391356 0.053941 -0.445085
-0.392774 0.054314 -0.443475
-0.394315 0.054314 -0.443022
-0.395856 0.054314 -0.442568
-0.397280 0.054687 -0.440955
-0.398822 0.054687 -0.440500
-0.400364 0.054687 -0.440046
-0.401907 0.054687 -0.439592
-0.403337 0.055061 -0.437975
-0.404880 0.055061 -0.437521
-0.406424 0.055061 -0.437066
-0.407859 0.055436 -0.435446
-0.409404 0.055436 -0.434991
-0.410948 0.055436 -0.434536
-0.412389 0.055812 -0.432912
-0.413935 0.055812 -0.432457
-0.415481 0.055812 -0.432001
-0.416825 0.056564 -0.429200
-0.418374 0.056564 -0.428743
-0.419922 0.056564 -0.428287
-0.421374 0.056942 -0.426654
-0.422828 0.057320 -0.425018
-0.424379 0.057320 -0.424561
-0.425930 0.057320 -0.424104
-0.427389 0.057698 -0.422464
-0.428851 0.058078 -0.420822
-0.430315 0.058457 -0.419176
-0.431870 0.058457 -0.418719
-0.433338 0.058838 -0.417070
-0.434808 0.059219 -0.415419
-0.436366 0.059219 -0.414960
-0.437840 0.059601 -0.413305
-0.439316 0.059983 -0.411648
-0.440795 0.060367 -0.409988
-0.442357 0.060367 -0.409528
-0.443840 0.060750 -0.407865
-0.445326 0.061135 -0.406199
-0.446890 0.061135 -0.405738
-0.448379 0.061520 -0.404068
-0.449871 0.061906 -0.402396
-0.451439 0.061906 -0.401935
-0.452934 0.062292 -0.400259
-0.454433 0.062679 -0.398581
-0.456002 0.062679 -0.398118
-0.457505 0.063067 -0.396437
-0.459009 0.063455 -0.394752
-0.460582 0.063455 -0.394289
-0.462091 0.063844 -0.392601
-0.463602 0.064234 -0.390911
-0.465116 0.064624 -0.389217
-0.466693 0.064624 -0.388753
-0.468210 0.065016 -0.387056
-0.469731 0.065407 -0.385356
-0.471254 0.065800 -0.383653
-0.472725 0.066587 -0.380705
-0.474200 0.067376 -0.377747
-0.475681 0.068168 -0.374778
-0.477219 0.068566 -0.373056
-0.478709 0.069362 -0.370071
-0.480204 0.070161 -0.367076
-0.481704 0.070963 -0.364071
-0.483210 0.071768 -0.361055
-0.484675 0.072981 -0.356748
-0.486192 0.073793 -0.353706
-0.487715 0.074607 -0.350654
-0.489243 0.075425 -0.347591
-0.490736 0.076657 -0.343214
-0.492276 0.077481 -0.340124
-0.493784 0.078724 -0.335708
-0.495336 0.079556 -0.332591
-0.496824 0.081230 -0.326805
-0.498287 0.083338 -0.319635
-0.499664 0.086751 -0.308321
0.342697 0.107950 -0.482565
0.338485 0.106543 -0.485840
0.334297 0.105144 -0.489096
0.332573 0.105144 -0.488588
0.330037 0.104679 -0.489332
0.327504 0.104215 -0.490075
0.325784 0.104215 -0.489568
0.323259 0.103752 -0.490310
0.321540 0.103752 -0.489804
0.319021 0.103290 -0.490545
0.316506 0.102829 -0.491284
0.314791 0.102829 -0.490779
0.312282 0.102369 -0.491517
0.310569 0.102369 -0.491012
0.308067 0.101909 -0.491750
0.306355 0.101909 -0.491246
0.303859 0.101450 -0.491982
0.302148 0.101450 -0.491479
0.299659 0.100993 -0.492214
0.297950 0.100993 -0.491711
0.295466 0.100536 -0.492446
0.293759 0.100536 -0.491943
0.291282 0.100080 -0.492677
0.289576 0.100080 -0.492175
0.287105 0.099624 -0.492908
0.285401 0.099624 -0.492406
0.282936 0.099170 -0.493138
0.281234 0.099170 -0.492637
0.278775 0.098717 -0.493368
0.277074 0.098717 -0.492867
0.274622 0.098264 -0.493597
0.272922 0.098264 -0.493097
0.270476 0.097812 -0.493826
0.268778 0.097812 -0.493326
0.266338 0.097361 -0.494055
0.264642 0.097361 -0.493556
0.262207 0.096911 -0.494283
0.260513 0.096911 -0.493784
0.258084 0.096461 -0.494511
0.256391 0.096461 -0.494012
0.254698 0.096461 -0.493514
0.252278 0.096013 -0.494240
0.250586 0.096013 -0.493742
0.248172 0.095565 -0.494467
0.246482 0.095565 -0.493970
0.244073 0.095118 -0.494694
0.242385 0.095118 -0.494197
0.240696 0.095118 -0.493700
0.238295 0.094672 -0.494424
0.236608 0.094672 -0.493928
0.234922 0.094672 -0.493431
0.233235 0.094672 -0.492934
0.230843 0.094227 -0.493658
0.229158 0.094227 -0.493162
0.226771 0.093783 -0.493885
0.225088 0.093783 -0.493390
0.223404 0.093783 -0.492894
0.221025 0.093339 -0.493617
0.219343 0.093339 -0.493121
0.216970 0.092896 -0.493843
0.215290 0.092896 -0.493349
0.213609 0.092896 -0.492854
0.211244 0.092454 -0.493575
0.209565 0.092454 -0.493081
0.207205 0.092013 -0.493802
0.204850 0.091573 -0.494521
0.203174 0.091573 -0.494027
0.202173 0.092013 -0.492320
0.199822 0.091573 -0.493040
0.198146 0.091573 -0.492547
0.195133 0.090694 -0.494478
0.192796 0.090256 -0.495195
0.191124 0.090256 -0.494703
0.188792 0.089819 -0.495419
0.187122 0.089819 -0.494927
0.185452 0.089819 -0.494435
0.183128 0.089383 -0.495151
0.181459 0.089383 -0.494659
0.179140 0.088947 -0.495374
0.177473 0.088947 -0.494883
0.175807 0.088947 -0.494393
0.173495 0.088512 -0.495107
0.171829 0.088512 -0.494616
0.170164 0.088512 -0.494126
0.167859 0.088078 -0.494840
0.166196 0.088078 -0.494350
0.164532 0.088078 -0.493860
0.162234 0.087645 -0.494574
0.160572 0.087645 -0.494084
0.158280 0.087213 -0.494797
0.156620 0.087213 -0.494308
0.154959 0.087213 -0.493819
0.152674 0.086781 -0.494531
0.151015 0.086781 -0.494042
0.148736 0.086350 -0.494754
0.147078 0.086350 -0.494266
0.145420 0.086350 -0.493777
0.143148 0.085920 -0.494488
0.141492 0.085920 -0.494001
0.139836 0.085920 -0.493513
0.137571 0.085491 -0.494224
0.135916 0.085491 -0.493736
0.134261 0.085491 -0.493249
0.132004 0.085062 -0.493959
0.130350 0.085062 -0.493472
0.128098 0.084635 -0.494182
0.126446 0.084635 -0.493695
0.124795 0.084635 -0.493209
0.122549 0.084208 -0.493918
0.120899 0.084208 -0.493432
0.118659 0.083781 -0.494140
0.117011 0.083781 -0.493654
0.115362 0.083781 -0.493169
0.113129 0.083356 -0.493876
0.110900 0.082931 -0.494583
0.109255 0.082931 -0.494098
0.107031 0.082507 -0.494804
0.105387 0.082507 -0.494320
0.103742 0.082507 -0.493835
0.101526 0.082084 -0.494541
0.099883 0.082084 -0.494057
0.097672 0.081662 -0.494761
0.096031 0.081662 -0.494278
0.094389 0.081662 -0.493795
0.092186 0.081240 -0.494498
0.090546 0.081240 -0.494016
0.088347 0.080819 -0.494719
0.086708 0.080819 -0.494236
0.085070 0.080819 -0.493754
0.082878 0.080399 -0.494456
0.081241 0.080399 -0.493974
0.079604 0.080399 -0.493492
0.077419 0.079979 -0.494195
0.075783 0.079979 -0.493713
0.074148 0.079979 -0.493231
0.071970 0.079561 -0.493933
0.070336 0.079561 -0.493452
0.068163 0.079143 -0.494153
0.066530 0.079143 -0.493673
0.064897 0.079143 -0.493192
0.062731 0.078726 -0.493893
0.061100 0.078726 -0.493412
0.058940 0.078309 -0.494112
0.057310 0.078309 -0.493632
0.055680 0.078309 -0.493152
0.053526 0.077893 -0.493852
0.051898 0.077893 -0.493372
0.050269 0.077893 -0.492893
0.048122 0.077478 -0.493592
0.046495 0.077478 -0.493113
0.044868 0.077478 -0.492634
0.042728 0.077064 -0.493333
0.041102 0.077064 -0.492854
0.038967 0.076651 -0.493552
0.037343 0.076651 -0.493074
0.035719 0.076651 -0.492596
0.033590 0.076238 -0.493293
0.031967 0.076238 -0.492815
0.029844 0.075826 -0.493512
0.028223 0.075826 -0.493035
0.026601 0.075826 -0.492557
0.024485 0.075415 -0.493254
0.022865 0.075415 -0.492777
0.021245 0.075415 -0.492300
0.019135 0.075004 -0.492996
0.017516 0.075004 -0.492519
0.015898 0.075004 -0.492043
0.013794 0.074594 -0.492738
0.012177 0.074594 -0.492262
0.010079 0.074185 -0.492957
0.008463 0.074185 -0.492481
0.006848 0.074185 -0.492006
0.004756 0.073777 -0.492700
0.003142 0.073777 -0.492225
0.001055 0.073369 -0.492918
-0.000558 0.073369 -0.492443
-0.002170 0.073369 -0.491969
-0.004251 0.072962 -0.492662
-0.005862 0.072962 -0.492187
-0.007473 0.072962 -0.491713
-0.009547 0.072556 -0.492406
-0.011157 0.072556 -0.491932
-0.012767 0.072556 -0.491458
-0.014834 0.072150 -0.492150
-0.016443 0.072150 -0.491677
-0.018505 0.071745 -0.492368
-0.020112 0.071745 -0.491895
-0.021719 0.071745 -0.491422
-0.023775 0.071341 -0.492113
-0.025381 0.071341 -0.491640
-0.027432 0.070938 -0.492331
-0.029036 0.070938 -0.491858
-0.030640 0.070938 -0.491386
-0.032685 0.070535 -0.492076
-0.034726 0.070133 -0.492765
-0.036328 0.070133 -0.492293
-0.038364 0.069732 -0.492982
-0.039964 0.069732 -0.492510
-0.041564 0.069732 -0.492039
-0.043594 0.069331 -0.492727
-0.045192 0.069331 -0.492256
-0.047217 0.068931 -0.492943
-0.048814 0.068931 -0.492473
-0.050411 0.068931 -0.492003
-0.052430 0.068532 -0.492689
-0.054026 0.068532 -0.492219
-0.056040 0.068133 -0.492905
-0.057634 0.068133 -0.492436
-0.059228 0.068133 -0.491966
-0.061236 0.067735 -0.492651
-0.062829 0.067735 -0.492182
-0.064422 0.067735 -0.491713
-0.066423 0.067338 -0.492398
-0.068015 0.067338 -0.491930
-0.069607 0.067338 -0.491461
-0.071602 0.066942 -0.492146
-0.073192 0.066942 -0.491677
-0.075182 0.066546 -0.492361
-0.076771 0.066546 -0.491893
-0.078360 0.066546 -0.491425
-0.080344 0.066151 -0.492109
-0.081931 0.066151 -0.491641
-0.083910 0.065756 -0.492324
-0.085497 0.065756 -0.491857
-0.087083 0.065756 -0.491390
-0.089056 0.065363 -0.492072
-0.090640 0.065363 -0.491606
-0.092225 0.065363 -0.491139
-0.094192 0.064970 -0.491821
-0.095776 0.064970 -0.491355
-0.097359 0.064970 -0.490888
-0.099320 0.064577 -0.491570
-0.100902 0.064577 -0.491104
-0.102858 0.064186 -0.491785
-0.104438 0.064186 -0.491320
-0.106019 0.064186 -0.490854
-0.107969 0.063794 -0.491535
-0.109548 0.063794 -0.491070
-0.111494 0.063404 -0.491749
-0.113072 0.063404 -0.491285
-0.114650 0.063404 -0.490820
-0.116589 0.063014 -0.491499
-0.118165 0.063014 -0.491035
-0.119742 0.063014 -0.490571
-0.121675 0.062625 -0.491250
-0.123250 0.062625 -0.490786
-0.124826 0.062625 -0.490322
-0.126753 0.062237 -0.491001
-0.128327 0.062237 -0.490537
-0.130249 0.061849 -0.491215
-0.131822 0.061849 -0.490752
-0.133739 0.061462 -0.491429
-0.135654 0.061076 -0.492105
-0.137224 0.061076 -0.491642
-0.138794 0.061076 -0.491180
-0.140702 0.060690 -0.491856
-0.142271 0.060690 -0.491394
-0.143839 0.060690 -0.490932
-0.145408 0.060690 -0.490470
-0.146976 0.060690 -0.490008
-0.148876 0.060305 -0.490684
-0.150443 0.060305 -0.490223
-0.152011 0.060305 -0.489761
-0.153905 0.059921 -0.490437
-0.155471 0.059921 -0.489976
-0.157036 0.059921 -0.489515
-0.158925 0.059537 -0.490190
-0.160489 0.059537 -0.489729
-0.162054 0.059537 -0.489269
-0.163936 0.059154 -0.489943
-0.165499 0.059154 -0.489483
-0.167062 0.059154 -0.489023
-0.168939 0.058772 -0.489697
-0.170500 0.058772 -0.489237
-0.172372 0.058390 -0.489911
-0.173933 0.058390 -0.489452
-0.175800 0.058009 -0.490125
-0.177359 0.058009 -0.489665
-0.178919 0.058009 -0.489206
-0.180780 0.057628 -0.489879
-0.182338 0.057628 -0.489420
-0.183896 0.057628 -0.488961
-0.185752 0.057248 -0.489634
-0.187308 0.057248 -0.489175
-0.188865 0.057248 -0.488717
-0.190715 0.056869 -0.489389
-0.192270 0.056869 -0.488931
-0.193825 0.056869 -0.488473
-0.195669 0.056491 -0.489145
-0.197223 0.056491 -0.488687
-0.198777 0.056491 -0.488229
-0.200331 0.056491 -0.487772
-0.202168 0.056113 -0.488443
-0.203721 0.056113 -0.487986
-0.205274 0.056113 -0.487529
-0.207105 0.055736 -0.488200
-0.208656 0.055736 -0.487743
-0.210208 0.055736 -0.487287
-0.212033 0.055359 -0.487957
-0.213583 0.055359 -0.487501
-0.215133 0.055359 -0.487045
-0.216953 0.054983 -0.487715
-0.218502 0.054983 -0.487259
-0.220051 0.054983 -0.486803
-0.222130 0.054233 -0.488597
-0.223676 0.054233 -0.488142
-0.225222 0.054233 -0.487687
-0.226768 0.054233 -0.487231
-0.228574 0.053859 -0.487900
-0.230119 0.053859 -0.487445
-0.231663 0.053859 -0.486990
-0.233463 0.053485 -0.487659
-0.235007 0.053485 -0.487204
-0.236550 0.053485 -0.486750
-0.238345 0.053112 -0.487418
-0.239887 0.053112 -0.486963
-0.241429 0.053112 -0.486509
-0.243218 0.052740 -0.487177
-0.244759 0.052740 -0.486723
-0.246299 0.052740 -0.486269
-0.248083 0.052369 -0.486937
-0.249622 0.052369 -0.486483
-0.251401 0.051998 -0.487150
-0.252939 0.051998 -0.486697
-0.254714 0.051627 -0.487362
-0.256251 0.051627 -0.486910
-0.257788 0.051627 -0.486457
-0.259325 0.051627 -0.486005
-0.261093 0.051258 -0.486670
-0.262628 0.051258 -0.486218
-0.264164 0.051258 -0.485766
-0.265926 0.050889 -0.486431
-0.267461 0.050889 -0.485979
-0.268995 0.050889 -0.485528
-0.270752 0.050520 -0.486193
-0.272285 0.050520 -0.485741
-0.273818 0.050520 -0.485290
-0.275351 0.050520 -0.484838
-0.277101 0.050152 -0.485503
-0.278633 0.050152 -0.485052
-0.280379 0.049785 -0.485717
-0.281910 0.049785 -0.485266
-0.283440 0.049785 -0.484815
-0.284971 0.049785 -0.484364
-0.286710 0.049418 -0.485029
-0.288239 0.049418 -0.484578
-0.289769 0.049418 -0.484128
-0.291502 0.049052 -0.484792
-0.293030 0.049052 -0.484342
-0.294558 0.049052 -0.483892
-0.296086 0.049052 -0.483442
-0.297614 0.049052 -0.482992
-0.299142 0.049052 -0.482542
-0.300474 0.049418 -0.480976
-0.302003 0.049418 -0.480526
-0.303532 0.049418 -0.480075
-0.305062 0.049418 -0.479625
-0.306591 0.049418 -0.479175
-0.308120 0.049418 -0.478724
-0.309650 0.049418 -0.478274
-0.311179 0.049418 -0.477824
-0.312708 0.049418 -0.477373
-0.314238 0.049418 -0.476923
-0.315767 0.049418 -0.476473
-0.317296 0.049418 -0.476022
-0.318826 0.049418 -0.475572
-0.320355 0.049418 -0.475122
-0.321884 0.049418 -0.474671
-0.323414 0.049418 -0.474221
-0.324943 0.049418 -0.473771
-0.326472 0.049418 -0.473320
-0.328002 0.049418 -0.472870
-0.329531 0.049418 -0.472420
-0.331060 0.049418 -0.471969
-0.332590 0.049418 -0.471519
-0.334119 0.049418 -0.471069
-0.335648 0.049418 -0.470618
-0.337178 0.049418 -0.470168
-0.338707 0.049418 -0.469718
-0.340236 0.049418 -0.469267
-0.341766 0.049418 -0.468817
-0.343295 0.049418 -0.468367
-0.344824 0.049418 -0.467916
-0.346354 0.049418 -0.467466
-0.347726 0.049785 -0.465886
-0.349256 0.049785 -0.465435
-0.350632 0.050152 -0.463852
-0.352163 0.050152 -0.463401
-0.353695 0.050152 -0.462950
-0.355076 0.050520 -0.461363
-0.356609 0.050520 -0.460911
-0.358142 0.050520 -0.460460
-0.359675 0.050520 -0.460009
-0.361208 0.050520 -0.459557
-0.362742 0.050520 -0.459106
-0.364131 0.050889 -0.457514
-0.365665 0.050889 -0.457062
-0.367341 0.050520 -0.457751
-0.368874 0.050520 -0.457300
-0.370268 0.050889 -0.455707
-0.371803 0.050889 -0.455255
-0.373201 0.051258 -0.453659
-0.374736 0.051258 -0.453207
-0.376272 0.051258 -0.452755
-0.377808 0.051258 -0.452303
-0.379212 0.051627 -0.450703
-0.380749 0.051627 -0.450250
-0.382286 0.051627 -0.449798
-0.383695 0.051998 -0.448195
-0.385233 0.051998 -0.447742
-0.386771 0.051998 -0.447289
-0.388185 0.052369 -0.445682
-0.389725 0.052369 -0.445229
-0.391264 0.052369 -0.444775
-0.392683 0.052740 -0.443166
-0.394224 0.052740 -0.442712
-0.395765 0.052740 -0.442258
-0.397189 0.053112 -0.440645
-0.398731 0.053112 -0.440190
-0.400273 0.053112 -0.439736
-0.401815 0.053112 -0.439282
-0.403245 0.053485 -0.437665
-0.404789 0.053485 -0.437210
-0.406332 0.053485 -0.436756
-0.407768 0.053859 -0.435135
-0.409312 0.053859 -0.434680
-0.410857 0.053859 -0.434225
-0.412297 0.054233 -0.432601
-0.413843 0.054233 -0.432146
-0.415389 0.054233 -0.431690
-0.416733 0.054983 -0.428888
-0.418282 0.054983 -0.428432
-0.419732 0.055359 -0.426799
-0.421282 0.055359 -0.426342
-0.422736 0.055736 -0.424706
-0.424287 0.055736 -0.424249
-0.425839 0.055736 -0.423792
-0.427297 0.056113 -0.422152
-0.428759 0.056491 -0.420509
-0.430313 0.056491 -0.420052
-0.431778 0.056869 -0.418406
-0.433246 0.057248 -0.416757
-0.434716 0.057628 -0.415105
-0.436274 0.057628 -0.414647
-0.437748 0.058009 -0.412992
-0.439224 0.058390 -0.411334
-0.440785 0.058390 -0.410875
-0.442265 0.058772 -0.409214
-0.443748 0.059154 -0.407551
-0.445311 0.059154 -0.407090
-0.446798 0.059537 -0.405423
-0.448287 0.059921 -0.403754
-0.449779 0.060305 -0.402081
-0.451346 0.060305 -0.401620
-0.452841 0.060690 -0.399944
-0.454340 0.061076 -0.398265
-0.455910 0.061076 -0.397803
-0.457412 0.061462 -0.396121
-0.458916 0.061849 -0.394436
-0.460489 0.061849 -0.393973
-0.461998 0.062237 -0.392285
-0.463509 0.062625 -0.390594
-0.465084 0.062625 -0.390130
-0.466599 0.063014 -0.388436
-0.468117 0.063404 -0.386739
-0.469637 0.063794 -0.385038
-0.471160 0.064186 -0.383335
-0.472631 0.064970 -0.380387
-0.474106 0.065756 -0.377428
-0.475587 0.066546 -0.374459
-0.477125 0.066942 -0.372736
-0.478614 0.067735 -0.369751
-0.480109 0.068532 -0.366756
-0.481609 0.069331 -0.363750
-0.483068 0.070535 -0.359457
-0.484580 0.071341 -0.356425
-0.486097 0.072150 -0.353383
-0.487620 0.072962 -0.350330
-0.489148 0.073777 -0.347266
-0.490640 0.075004 -0.342888
-0.492141 0.076238 -0.338487
-0.493688 0.077064 -0.335381
-0.495240 0.077893 -0.332263
-0.496727 0.079561 -0.326476
-0.498224 0.081240 -0.320648
-0.499666 0.083781 -0.312069
0.341970 0.105712 -0.483480
0.338587 0.104778 -0.485492
0.333582 0.102921 -0.490000
0.331860 0.102921 -0.489493
0.330138 0.102921 -0.488986
0.327606 0.102459 -0.489729
0.325079 0.101997 -0.490470
0.323360 0.101997 -0.489964
0.320839 0.101537 -0.490705
0.318323 0.101077 -0.491444
0.316608 0.101077 -0.490939
0.314097 0.100619 -0.491677
0.312384 0.100619 -0.491173
0.309880 0.100161 -0.491910
0.308168 0.100161 -0.491406
0.305670 0.099704 -0.492142
0.303960 0.099704 -0.491639
0.301469 0.099248 -0.492374
0.299760 0.099248 -0.491871
0.297275 0.098792 -0.492605
0.295567 0.098792 -0.492103
0.293088 0.098338 -0.492836
0.291383 0.098338 -0.492334
0.288910 0.097884 -0.493067
0.287206 0.097884 -0.492565
0.284740 0.097432 -0.493297
0.283037 0.097432 -0.492796
0.280577 0.096980 -0.493527
0.278876 0.096980 -0.493026
0.276422 0.096529 -0.493756
0.274722 0.096529 -0.493256
0.272274 0.096078 -0.493985
0.270576 0.096078 -0.493485
0.268134 0.095629 -0.494213
0.266438 0.095629 -0.493714
0.264002 0.095180 -0.494441
0.262308 0.095180 -0.493942
0.259878 0.094733 -0.494669
0.258185 0.094733 -0.494170
0.256492 0.094733 -0.493672
0.254069 0.094286 -0.494398
0.252378 0.094286 -0.493900
0.249961 0.093840 -0.494625
0.248272 0.093840 -0.494128
0.246582 0.093840 -0.493630
0.244173 0.093394 -0.494355
0.242485 0.093394 -0.493858
0.240796 0.093394 -0.493361
0.238395 0.092950 -0.494085
0.236708 0.092950 -0.493588
0.235021 0.092950 -0.493092
0.232628 0.092506 -0.493816
0.230942 0.092506 -0.493320
0.229257 0.092506 -0.492823
0.226871 0.092063 -0.493547
0.225187 0.092063 -0.493051
0.222807 0.091621 -0.493774
0.221125 0.091621 -0.493279
0.219443 0.091621 -0.492783
0.217070 0.091180 -0.493506
0.215389 0.091180 -0.493011
0.213022 0.090740 -0.493732
0.211343 0.090740 -0.493238
0.209664 0.090740 -0.492743
0.207304 0.090300 -0.493464
0.204949 0.089861 -0.494184
0.203273 0.089861 -0.493691
0.200251 0.088986 -0.495619
0.199921 0.089861 -0.492704
0.196905 0.088986 -0.494634
0.195233 0.088986 -0.494142
0.193560 0.088986 -0.493649
0.190561 0.088114 -0.495575
0.188891 0.088114 -0.495083
0.187221 0.088114 -0.494591
0.184895 0.087679 -0.495307
0.183226 0.087679 -0.494815
0.180906 0.087245 -0.495530
0.179239 0.087245 -0.495039
0.177572 0.087245 -0.494548
0.175259 0.086812 -0.495262
0.173593 0.086812 -0.494772
0.171928 0.086812 -0.494282
0.169622 0.086379 -0.494995
0.167958 0.086379 -0.494506
0.166294 0.086379 -0.494016
0.163995 0.085948 -0.494729
0.162333 0.085948 -0.494239
0.160040 0.085517 -0.494952
0.158379 0.085517 -0.494463
0.156718 0.085517 -0.493974
0.154432 0.085087 -0.494686
0.152772 0.085087 -0.494197
0.150492 0.084657 -0.494909
0.148834 0.084657 -0.494420
0.147176 0.084657 -0.493932
0.144903 0.084229 -0.494643
0.143247 0.084229 -0.494155
0.141590 0.084229 -0.493668
0.139324 0.083801 -0.494378
0.137669 0.083801 -0.493891
0.136014 0.083801 -0.493404
0.133755 0.083374 -0.494114
0.132102 0.083374 -0.493627
0.129848 0.082948 -0.494336
0.128196 0.082948 -0.493850
0.126544 0.082948 -0.493363
0.124297 0.082522 -0.494072
0.122647 0.082522 -0.493586
0.120406 0.082098 -0.494294
0.118757 0.082098 -0.493808
0.117108 0.082098 -0.493323
0.114874 0.081674 -0.494030
0.113227 0.081674 -0.493545
0.110998 0.081250 -0.494252
0.108773 0.080828 -0.494957
0.107129 0.080828 -0.494473
0.105484 0.080828 -0.493989
0.103266 0.080406 -0.494694
0.101623 0.080406 -0.494210
0.099411 0.079985 -0.494915
0.097770 0.079985 -0.494431
0.096128 0.079985 -0.493948
0.093923 0.079565 -0.494652
0.092283 0.079565 -0.494169
0.090083 0.079146 -0.494872
0.088444 0.079146 -0.494389
0.086805 0.079146 -0.493907
0.084612 0.078727 -0.494609
0.082975 0.078727 -0.494127
0.081338 0.078727 -0.493645
0.079152 0.078309 -0.494348
0.077516 0.078309 -0.493866
0.075880 0.078309 -0.493384
0.073701 0.077892 -0.494086
0.072067 0.077892 -0.493605
0.069892 0.077475 -0.494306
0.068260 0.077475 -0.493825
0.066627 0.077475 -0.493344
0.064459 0.077060 -0.494045
0.062828 0.077060 -0.493565
0.060666 0.076645 -0.494264
0.059036 0.076645 -0.493785
0.057406 0.076645 -0.493305
0.055251 0.076231 -0.494004
0.053622 0.076231 -0.493525
0.051994 0.076231 -0.493045
0.049845 0.075817 -0.493744
0.048218 0.075817 -0.493265
0.046591 0.075817 -0.492786
0.044449 0.075404 -0.493485
0.042824 0.075404 -0.493006
0.040687 0.074992 -0.493704
0.039063 0.074992 -0.493225
0.037439 0.074992 -0.492747
0.035309 0.074581 -0.493445
0.033686 0.074581 -0.492967
0.031561 0.074170 -0.493664
0.029940 0.074170 -0.493186
0.028319 0.074170 -0.492709
0.026200 0.073761 -0.493405
0.024580 0.073761 -0.492928
0.022961 0.073761 -0.492451
0.020849 0.073351 -0.493147
0.019231 0.073351 -0.492670
0.017612 0.073351 -0.492194
0.015507 0.072943 -0.492889
0.013890 0.072943 -0.492413
0.011790 0.072535 -0.493108
0.010175 0.072535 -0.492632
0.008559 0.072535 -0.492156
0.006465 0.072128 -0.492851
0.004851 0.072128 -0.492376
0.002763 0.071722 -0.493069
0.001150 0.071722 -0.492594
-0.000462 0.071722 -0.492119
-0.002544 0.071317 -0.492812
-0.004155 0.071317 -0.492338
-0.005767 0.071317 -0.491863
-0.007842 0.070912 -0.492556
-0.009452 0.070912 -0.492082
-0.011062 0.070912 -0.491608
-0.013131 0.070508 -0.492300
-0.014739 0.070508 -0.491827
-0.016803 0.070104 -0.492518
-0.018410 0.070104 -0.492045
-0.020017 0.070104 -0.491572
-0.022075 0.069701 -0.492263
-0.023680 0.069701 -0.491790
-0.025733 0.069299 -0.492481
-0.027337 0.069299 -0.492008
-0.028941 0.069299 -0.491536
-0.030987 0.068898 -0.492226
-0.032590 0.068898 -0.491754
-0.034631 0.068498 -0.492443
-0.036669 0.068098 -0.493131
-0.038269 0.068098 -0.492660
-0.039869 0.068098 -0.492189
-0.041900 0.067698 -0.492876
-0.043499 0.067698 -0.492406
-0.045525 0.067300 -0.493092
-0.047123 0.067300 -0.492622
-0.048720 0.067300 -0.492152
-0.050740 0.066902 -0.492838
-0.052336 0.066902 -0.492368
-0.054351 0.066505 -0.493054
-0.055945 0.066505 -0.492584
-0.057540 0.066505 -0.492115
-0.059549 0.066109 -0.492800
-0.061142 0.066109 -0.492331
-0.062735 0.066109 -0.491862
-0.064737 0.065713 -0.492547
-0.066329 0.065713 -0.492078
-0.067921 0.065713 -0.491610
-0.069917 0.065318 -0.492294
-0.071507 0.065318 -0.491826
-0.073499 0.064923 -0.492510
-0.075088 0.064923 -0.492042
-0.076677 0.064923 -0.491574
-0.078662 0.064530 -0.492257
-0.080250 0.064530 -0.491790
-0.082230 0.064137 -0.492472
-0.083816 0.064137 -0.492005
-0.085403 0.064137 -0.491538
-0.087377 0.063744 -0.492220
-0.088962 0.063744 -0.491754
-0.090547 0.063744 -0.491287
-0.092515 0.063353 -0.491969
-0.094098 0.063353 -0.491503
-0.095682 0.063353 -0.491036
-0.097644 0.062962 -0.491718
-0.099226 0.062962 -0.491252
-0.101183 0.062571 -0.491933
-0.102764 0.062571 -0.491467
-0.104345 0.062571 -0.491002
-0.106296 0.062182 -0.491682
-0.107876 0.062182 -0.491217
-0.109822 0.061793 -0.491897
-0.111400 0.061793 -0.491432
-0.112978 0.061793 -0.490967
-0.114919 0.061404 -0.491647
-0.116495 0.061404 -0.491182
-0.118072 0.061404 -0.490718
-0.120007 0.061017 -0.491397
-0.121582 0.061017 -0.490933
-0.123157 0.061017 -0.490469
-0.125086 0.060630 -0.491148
-0.126659 0.060630 -0.490684
-0.128583 0.060244 -0.491362
-0.130156 0.060244 -0.490899
-0.131728 0.060244 -0.490436
-0.133646 0.059858 -0.491113
-0.135561 0.059473 -0.491789
-0.137131 0.059473 -0.491327
-0.138701 0.059473 -0.490865
-0.140609 0.059089 -0.491540
-0.142178 0.059089 -0.491079
-0.144082 0.058705 -0.491754
-0.145315 0.059089 -0.490155
-0.147216 0.058705 -0.490831
-0.148784 0.058705 -0.490369
-0.150351 0.058705 -0.489908
-0.152246 0.058322 -0.490583
-0.153812 0.058322 -0.490122
-0.155378 0.058322 -0.489661
-0.157267 0.057939 -0.490336
-0.158832 0.057939 -0.489875
-0.160396 0.057939 -0.489415
-0.162280 0.057558 -0.490089
-0.163843 0.057558 -0.489629
-0.165407 0.057558 -0.489169
-0.167284 0.057177 -0.489843
-0.168846 0.057177 -0.489383
-0.170408 0.057177 -0.488923
-0.172280 0.056796 -0.489597
-0.174149 0.056417 -0.490270
-0.175708 0.056417 -0.489811
-0.177267 0.056417 -0.489352
-0.179130 0.056037 -0.490024
-0.180688 0.056037 -0.489566
-0.182246 0.056037 -0.489107
-0.184103 0.055659 -0.489779
-0.185660 0.055659 -0.489321
-0.187216 0.055659 -0.488862
-0.189067 0.055281 -0.489534
-0.190623 0.055281 -0.489076
-0.192178 0.055281 -0.488618
-0.194024 0.054904 -0.489290
-0.195577 0.054904 -0.488832
-0.197131 0.054904 -0.488375
-0.198685 0.054904 -0.487917
-0.200524 0.054527 -0.488588
-0.202076 0.054527 -0.488131
-0.203629 0.054527 -0.487674
-0.205462 0.054151 -0.488345
-0.207013 0.054151 -0.487888
-0.208564 0.054151 -0.487431
-0.210391 0.053776 -0.488102
-0.211941 0.053776 -0.487646
-0.213491 0.053776 -0.487189
-0.215313 0.053401 -0.487860
-0.216862 0.053401 -0.487404
-0.218410 0.053401 -0.486948
-0.220492 0.052654 -0.488742
-0.222038 0.052654 -0.488286
-0.223585 0.052654 -0.487831
-0.225131 0.052654 -0.487376
-0.226938 0.052281 -0.488045
-0.228482 0.052281 -0.487590
-0.230027 0.052281 -0.487135
-0.231828 0.051909 -0.487803
-0.233372 0.051909 -0.487348
-0.234915 0.051909 -0.486894
-0.236711 0.051538 -0.487562
-0.238253 0.051538 -0.487107
-0.239795 0.051538 -0.486653
-0.241586 0.051167 -0.487321
-0.243126 0.051167 -0.486867
-0.244667 0.051167 -0.486413
-0.246452 0.050796 -0.487080
-0.247991 0.050796 -0.486627
-0.249531 0.050796 -0.486174
-0.251310 0.050427 -0.486840
-0.253086 0.050058 -0.487506
-0.254623 0.050058 -0.487053
-0.256160 0.050058 -0.486601
-0.257697 0.050058 -0.486148
-0.259466 0.049689 -0.486814
-0.261002 0.049689 -0.486362
-0.262538 0.049689 -0.485909
-0.264301 0.049322 -0.486575
-0.265836 0.049322 -0.486123
-0.267370 0.049322 -0.485671
-0.268904 0.049322 -0.485219
-0.270661 0.048954 -0.485885
-0.272194 0.048954 -0.485433
-0.273728 0.048954 -0.484982
-0.275479 0.048588 -0.485646
-0.277011 0.048588 -0.485195
-0.278758 0.048222 -0.485860
-0.280288 0.048222 -0.485409
-0.281819 0.048222 -0.484958
-0.283350 0.048222 -0.484507
-0.285090 0.047857 -0.485172
-0.286619 0.047857 -0.484721
-0.288149 0.047857 -0.484271
-0.289884 0.047492 -0.484935
-0.291412 0.047492 -0.484485
-0.292940 0.047492 -0.484035
-0.294468 0.047492 -0.483585
-0.295996 0.047492 -0.483135
-0.297524 0.047492 -0.482685
-0.299052 0.047492 -0.482235
-0.300383 0.047857 -0.480668
-0.301913 0.047857 -0.480218
-0.303442 0.047857 -0.479768
-0.304971 0.047857 -0.479317
-0.306501 0.047857 -0.478867
-0.308030 0.047857 -0.478417
-0.309559 0.047857 -0.477966
-0.311089 0.047857 -0.477516
-0.312618 0.047857 -0.477066
-0.314147 0.047857 -0.476615
-0.315677 0.047857 -0.476165
-0.317206 0.047857 -0.475715
-0.318735 0.047857 -0.475265
-0.320265 0.047857 -0.474814
-0.321794 0.047857 -0.474364
-0.323323 0.047857 -0.473914
-0.324853 0.047857 -0.473463
-0.326382 0.047857 -0.473013
-0.327911 0.047857 -0.472563
-0.329441 0.047857 -0.472112
-0.330970 0.047857 -0.471662
-0.332499 0.047857 -0.471212
-0.334028 0.047857 -0.470761
-0.335558 0.047857 -0.470311
-0.337087 0.047857 -0.469861
-0.338616 0.047857 -0.469410
-0.340146 0.047857 -0.468960
-0.341675 0.047857 -0.468510
-0.343204 0.047857 -0.468059
-0.344734 0.047857 -0.467609
-0.346263 0.047857 -0.467159
-0.347792 0.047857 -0.466708
-0.349166 0.048222 -0.465127
-0.350541 0.048588 -0.463544
-0.352073 0.048588 -0.463093
-0.353605 0.048588 -0.462642
-0.355137 0.048588 -0.462191
-0.356518 0.048954 -0.460603
-0.358051 0.048954 -0.460152
-0.359584 0.048954 -0.459700
-0.361118 0.048954 -0.459249
-0.362796 0.048588 -0.459935
-0.364184 0.048954 -0.458346
-0.365717 0.048954 -0.457895
-0.367250 0.048954 -0.457443
-0.368783 0.048954 -0.456992
-0.370177 0.049322 -0.455398
-0.371712 0.049322 -0.454947
-0.373110 0.049689 -0.453351
-0.374645 0.049689 -0.452898
-0.376181 0.049689 -0.452446
-0.377717 0.049689 -0.451994
-0.379121 0.050058 -0.450394
-0.380658 0.050058 -0.449941
-0.382195 0.050058 -0.449489
-0.383604 0.050427 -0.447885
-0.385142 0.050427 -0.447432
-0.386680 0.050427 -0.446980
-0.388094 0.050796 -0.445373
-0.389634 0.050796 -0.444919
-0.391173 0.050796 -0.444466
-0.392592 0.051167 -0.442856
-0.394133 0.051167 -0.442402
-0.395674 0.051167 -0.441948
-0.397097 0.051538 -0.440335
-0.398640 0.051538 -0.439880
-0.400182 0.051538 -0.439426
-0.401724 0.051538 -0.438972
-0.403154 0.051909 -0.437355
-0.404698 0.051909 -0.436900
-0.406241 0.051909 -0.436446
-0.407676 0.052281 -0.434825
-0.409221 0.052281 -0.434370
-0.410766 0.052281 -0.433915
-0.412206 0.052654 -0.432290
-0.413752 0.052654 -0.431835
-0.415298 0.052654 -0.431380
-0.416642 0.053401 -0.428577
-0.418190 0.053401 -0.428121
-0.419640 0.053776 -0.426487
-0.421190 0.053776 -0.426031
-0.422644 0.054151 -0.424394
-0.424195 0.054151 -0.423937
-0.425747 0.054151 -0.423480
-0.427206 0.054527 -0.421840
-0.428667 0.054904 -0.420197
-0.430221 0.054904 -0.419740
-0.431686 0.055281 -0.418093
-0.433153 0.055659 -0.416444
-0.434710 0.055659 -0.415986
-0.436181 0.056037 -0.414334
-0.437655 0.056417 -0.412679
-0.439132 0.056796 -0.411021
-0.440692 0.056796 -0.410561
-0.442172 0.057177 -0.408900
-0.443655 0.057558 -0.407236
-0.445218 0.057558 -0.406776
-0.446705 0.057939 -0.405109
-0.448194 0.058322 -0.403439
-0.449686 0.058705 -0.401766
-0.451253 0.058705 -0.401305
-0.452749 0.059089 -0.399629
-0.454247 0.059473 -0.397950
-0.455817 0.059473 -0.397487
-0.457319 0.059858 -0.395805
-0.458823 0.060244 -0.394120
-0.460396 0.060244 -0.393657
-0.461904 0.060630 -0.391969
-0.463416 0.061017 -0.390277
-0.464991 0.061017 -0.389813
-0.466506 0.061404 -0.388119
-0.468024 0.061793 -0.386421
-0.469544 0.062182 -0.384721
-0.471067 0.062571 -0.383018
-0.472537 0.063353 -0.380068
-0.474013 0.064137 -0.377109
-0.475493 0.064923 -0.374139
-0.477030 0.065318 -0.372416
-0.478520 0.066109 -0.369431
-0.480015 0.066902 -0.366435
-0.481515 0.067698 -0.363428
-0.482973 0.068898 -0.359135
-0.484485 0.069701 -0.356103
-0.486002 0.070508 -0.353060
-0.487524 0.071317 -0.350006
-0.489010 0.072535 -0.345643
-0.490545 0.073351 -0.342563
-0.492045 0.074581 -0.338161
-0.493592 0.075404 -0.335054
-0.495144 0.076231 -0.331936
-0.496630 0.077892 -0.326148
-0.498127 0.079565 -0.320318
-0.499602 0.081674 -0.313093
0.345468 0.104878 -0.481112
0.341244 0.103478 -0.484394
0.337866 0.102550 -0.486402
0.333683 0.101163 -0.489654
0.331962 0.101163 -0.489147
0.329428 0.100702 -0.489890
0.327708 0.100702 -0.489383
0.325180 0.100243 -0.490125
0.322657 0.099784 -0.490865
0.320941 0.099784 -0.490360
0.318424 0.099326 -0.491099
0.316709 0.099326 -0.490594
0.314199 0.098869 -0.491333
0.312485 0.098869 -0.490828
0.309981 0.098413 -0.491566
0.308269 0.098413 -0.491062
0.305771 0.097957 -0.491798
0.304061 0.097957 -0.491295
0.301570 0.097503 -0.492030
0.299861 0.097503 -0.491527
0.297376 0.097049 -0.492262
0.295669 0.097049 -0.491760
0.293189 0.096596 -0.492494
0.291484 0.096596 -0.491991
0.289011 0.096144 -0.492724
0.287307 0.096144 -0.492223
0.284840 0.095693 -0.492955
0.283138 0.095693 -0.492454
0.280677 0.095243 -0.493185
0.278977 0.095243 -0.492684
0.276522 0.094793 -0.493415
0.274823 0.094793 -0.492914
0.272375 0.094345 -0.493644
0.270677 0.094345 -0.493144
0.268235 0.093897 -0.493872
0.266539 0.093897 -0.493373
0.264102 0.093450 -0.494101
0.262408 0.093450 -0.493602
0.259978 0.093004 -0.494329
0.258285 0.093004 -0.493830
0.255861 0.092558 -0.494556
0.254169 0.092558 -0.494058
0.252478 0.092558 -0.493560
0.250061 0.092114 -0.494286
0.248372 0.092114 -0.493788
0.245961 0.091670 -0.494513
0.244273 0.091670 -0.494016
0.242584 0.091670 -0.493518
0.240182 0.091227 -0.494243
0.238495 0.091227 -0.493746
0.236098 0.090785 -0.494469
0.235121 0.091227 -0.492753
0.232727 0.090785 -0.493477
0.231042 0.090785 -0.492981
0.228654 0.090344 -0.493704
0.226971 0.090344 -0.493208
0.224589 0.089904 -0.493931
0.222907 0.089904 -0.493436
0.221224 0.089904 -0.492940
0.218850 0.089464 -0.493663
0.217169 0.089464 -0.493168
0.214801 0.089025 -0.493889
0.213122 0.089025 -0.493395
0.211442 0.089025 -0.492900
0.209081 0.088587 -0.493621
0.207404 0.088587 -0.493127
0.205048 0.088150 -0.493847
0.203372 0.088150 -0.493354
0.200350 0.087278 -0.495283
0.198677 0.087278 -0.494791
0.197004 0.087278 -0.494298
0.195332 0.087278 -0.493805
0.192993 0.086843 -0.494523
0.191322 0.086843 -0.494031
0.188990 0.086409 -0.494747
0.186662 0.085975 -0.495462
0.184994 0.085975 -0.494971
0.183325 0.085975 -0.494480
0.181004 0.085543 -0.495195
0.179338 0.085543 -0.494704
0.177023 0.085111 -0.495418
0.175357 0.085111 -0.494928
0.173692 0.085111 -0.494437
0.172027 0.085111 -0.493947
0.169720 0.084680 -0.494661
0.168056 0.084680 -0.494171
0.165756 0.084250 -0.494884
0.164094 0.084250 -0.494395
0.162431 0.084250 -0.493905
0.160138 0.083821 -0.494618
0.158477 0.083821 -0.494129
0.156189 0.083392 -0.494841
0.154530 0.083392 -0.494352
0.152871 0.083392 -0.493864
0.150590 0.082964 -0.494575
0.148932 0.082964 -0.494087
0.146657 0.082537 -0.494798
0.145001 0.082537 -0.494310
0.143345 0.082537 -0.493822
0.141688 0.082537 -0.493335
0.139422 0.082111 -0.494045
0.137767 0.082111 -0.493558
0.135506 0.081686 -0.494268
0.133853 0.081686 -0.493781
0.132199 0.081686 -0.493294
0.129946 0.081261 -0.494004
0.128294 0.081261 -0.493518
0.126046 0.080837 -0.494226
0.124395 0.080837 -0.493740
0.122745 0.080837 -0.493254
0.120504 0.080414 -0.493962
0.118855 0.080414 -0.493477
0.116619 0.079991 -0.494184
0.114972 0.079991 -0.493699
0.113324 0.079991 -0.493214
0.111095 0.079570 -0.493921
0.108870 0.079149 -0.494627
0.107226 0.079149 -0.494143
0.105007 0.078729 -0.494848
0.103364 0.078729 -0.494364
0.101721 0.078729 -0.493880
0.099508 0.078309 -0.494585
0.097867 0.078309 -0.494101
0.095660 0.077890 -0.494805
0.094020 0.077890 -0.494322
0.092380 0.077890 -0.493839
0.090180 0.077472 -0.494542
0.088541 0.077472 -0.494060
0.086346 0.077055 -0.494762
0.084709 0.077055 -0.494280
0.083072 0.077055 -0.493798
0.081435 0.077055 -0.493316
0.079248 0.076639 -0.494019
0.077613 0.076639 -0.493537
0.075432 0.076223 -0.494239
0.073797 0.076223 -0.493758
0.072163 0.076223 -0.493276
0.069989 0.075808 -0.493978
0.068356 0.075808 -0.493497
0.066187 0.075394 -0.494197
0.064556 0.075394 -0.493717
0.062925 0.075394 -0.493237
0.060762 0.074980 -0.493937
0.059132 0.074980 -0.493457
0.056975 0.074568 -0.494156
0.055347 0.074568 -0.493677
0.053719 0.074568 -0.493197
0.052090 0.074568 -0.492718
0.049941 0.074156 -0.493417
0.048315 0.074156 -0.492938
0.046171 0.073744 -0.493636
0.044545 0.073744 -0.493158
0.042920 0.073744 -0.492679
0.040783 0.073334 -0.493377
0.039159 0.073334 -0.492899
0.037027 0.072924 -0.493596
0.035405 0.072924 -0.493119
0.033782 0.072924 -0.492641
0.031657 0.072515 -0.493338
0.030036 0.072515 -0.492860
0.027916 0.072107 -0.493556
0.026296 0.072107 -0.493079
0.024676 0.072107 -0.492602
0.023057 0.072107 -0.492125
0.020945 0.071699 -0.492822
0.019326 0.071699 -0.492345
0.017220 0.071292 -0.493040
0.015603 0.071292 -0.492564
0.013986 0.071292 -0.492088
0.011886 0.070886 -0.492783
0.010270 0.070886 -0.492307
0.008175 0.070480 -0.493002
0.006561 0.070480 -0.492526
0.004947 0.070480 -0.492051
0.002858 0.070075 -0.492745
0.001246 0.070075 -0.492270
-0.000838 0.069671 -0.492963
-0.002449 0.069671 -0.492488
-0.004060 0.069671 -0.492014
-0.005671 0.069671 -0.491540
-0.007747 0.069268 -0.492233
-0.009357 0.069268 -0.491759
-0.011427 0.068865 -0.492451
-0.013036 0.068865 -0.491977
-0.014644 0.068865 -0.491503
-0.016708 0.068463 -0.492195
-0.018315 0.068463 -0.491722
-0.020374 0.068062 -0.492413
-0.021980 0.068062 -0.491940
-0.023585 0.068062 -0.491467
-0.025638 0.067661 -0.492158
-0.027242 0.067661 -0.491686
-0.029290 0.067261 -0.492376
-0.030893 0.067261 -0.491904
-0.032495 0.067261 -0.491432
-0.034537 0.066862 -0.492121
-0.036574 0.066464 -0.492809
-0.038174 0.066464 -0.492338
-0.040207 0.066066 -0.493026
-0.041806 0.066066 -0.492555
-0.043404 0.066066 -0.492084
-0.045431 0.065669 -0.492771
-0.047028 0.065669 -0.492301
-0.049050 0.065273 -0.492987
-0.050645 0.065273 -0.492517
-0.052241 0.065273 -0.492047
-0.054256 0.064877 -0.492733
-0.055851 0.064877 -0.492264
-0.057861 0.064482 -0.492949
-0.059454 0.064482 -0.492480
-0.061047 0.064482 -0.492011
-0.062640 0.064482 -0.491542
-0.064643 0.064087 -0.492227
-0.066235 0.064087 -0.491758
-0.068233 0.063694 -0.492443
-0.069823 0.063694 -0.491974
-0.071413 0.063694 -0.491506
-0.073405 0.063301 -0.492190
-0.074994 0.063301 -0.491722
-0.076981 0.062909 -0.492405
-0.078568 0.062909 -0.491938
-0.080156 0.062909 -0.491471
-0.082136 0.062517 -0.492153
-0.083723 0.062517 -0.491686
-0.085698 0.062126 -0.492368
-0.087283 0.062126 -0.491902
-0.088868 0.062126 -0.491435
-0.090453 0.062126 -0.490968
-0.092421 0.061736 -0.491651
-0.094005 0.061736 -0.491184
-0.095968 0.061346 -0.491866
-0.097550 0.061346 -0.491400
-0.099132 0.061346 -0.490934
-0.101090 0.060957 -0.491615
-0.102671 0.060957 -0.491149
-0.104623 0.060569 -0.491830
-0.106203 0.060569 -0.491365
-0.107782 0.060569 -0.490900
-0.109729 0.060181 -0.491579
-0.111307 0.060181 -0.491115
-0.113249 0.059794 -0.491794
-0.114825 0.059794 -0.491330
-0.116402 0.059794 -0.490865
-0.117979 0.059794 -0.490401
-0.119913 0.059408 -0.491080
-0.121489 0.059408 -0.490616
-0.123418 0.059023 -0.491295
-0.124992 0.059023 -0.490831
-0.126566 0.059023 -0.490368
-0.128490 0.058638 -0.491046
-0.130063 0.058638 -0.490583
-0.131982 0.058253 -0.491260
-0.133898 0.057870 -0.491936
-0.135468 0.057870 -0.491474
-0.137038 0.057870 -0.491011
-0.138948 0.057487 -0.491687
-0.140517 0.057487 -0.491225
-0.142085 0.057487 -0.490763
-0.143989 0.057105 -0.491439
-0.145222 0.057487 -0.489840
-0.147124 0.057105 -0.490516
-0.148691 0.057105 -0.490054
-0.150588 0.056723 -0.490729
-0.152153 0.056723 -0.490268
-0.153719 0.056723 -0.489807
-0.155610 0.056342 -0.490482
-0.157175 0.056342 -0.490022
-0.158739 0.056342 -0.489561
-0.160304 0.056342 -0.489100
-0.162188 0.055961 -0.489775
-0.163751 0.055961 -0.489315
-0.165314 0.055961 -0.488855
-0.167192 0.055582 -0.489529
-0.168754 0.055582 -0.489069
-0.170627 0.055203 -0.489743
-0.172188 0.055203 -0.489284
-0.174056 0.054824 -0.489957
