ply
format ascii 1.0
element vertex 1740
property float x
property float y
property float z
end_header
-0.219817 0.180637 0.103056
-0.217852 0.180637 0.103634
-0.215887 0.180637 0.104213
-0.214268 0.180027 0.106627
-0.212305 0.180027 0.107205
-0.210342 0.180027 0.107783
-0.208379 0.180027 0.108361
-0.206769 0.179418 0.110767
-0.204454 0.180027 0.109517
-0.202848 0.179418 0.111922
-0.200887 0.179418 0.112499
-0.198927 0.179418 0.113077
-0.196966 0.179418 0.113654
-0.195005 0.179418 0.114231
-0.193045 0.179418 0.114809
-0.191084 0.179418 0.115386
-0.188752 0.180027 0.114140
-0.186789 0.180027 0.114718
-0.184826 0.180027 0.115296
-0.182863 0.180027 0.115874
-0.180901 0.180027 0.116452
-0.178938 0.180027 0.117030
-0.176975 0.180027 0.117608
-0.175012 0.180027 0.118186
-0.173049 0.180027 0.118764
-0.171087 0.180027 0.119342
-0.169124 0.180027 0.119920
-0.167161 0.180027 0.120498
-0.165198 0.180027 0.121076
-0.163236 0.180027 0.121654
-0.160871 0.180637 0.120413
-0.158906 0.180637 0.120992
-0.156941 0.180637 0.121570
-0.154976 0.180637 0.122149
-0.152600 0.181249 0.120907
-0.150633 0.181249 0.121487
-0.148666 0.181249 0.122066
-0.146281 0.181862 0.120823
-0.144312 0.181862 0.121403
-0.142343 0.181862 0.121983
-0.139948 0.182477 0.120739
-0.137977 0.182477 0.121319
-0.135575 0.183092 0.120073
-0.133602 0.183092 0.120654
-0.131192 0.183710 0.119406
-0.129217 0.183710 0.119987
-0.127242 0.183710 0.120569
-0.124823 0.184328 0.119319
-0.122845 0.184328 0.119902
-0.120868 0.184328 0.120484
-0.118439 0.184948 0.119233
-0.116460 0.184948 0.119816
-0.114480 0.184948 0.120399
-0.112042 0.185569 0.119146
-0.110060 0.185569 0.119730
-0.108079 0.185569 0.120313
-0.105631 0.186191 0.119059
-0.104115 0.185569 0.121480
-0.101663 0.186191 0.120228
-0.099679 0.186191 0.120812
-0.097220 0.186815 0.119557
-0.095234 0.186815 0.120142
-0.092768 0.187440 0.118885
-0.090779 0.187440 0.119471
-0.088305 0.188067 0.118211
-0.086315 0.188067 0.118798
-0.083834 0.188695 0.117537
-0.081841 0.188695 0.118123
-0.079352 0.189324 0.116860
-0.077357 0.189324 0.117447
-0.074860 0.189954 0.116182
-0.072863 0.189954 0.116770
-0.070359 0.190586 0.115503
-0.067849 0.191220 0.114232
-0.064819 0.192491 0.111093
-0.062813 0.192491 0.111684
-0.060287 0.193128 0.110405
-0.057755 0.193767 0.109124
-0.055745 0.193767 0.109716
-0.053206 0.194407 0.108432
-0.050661 0.195049 0.107146
-0.048646 0.195049 0.107739
-0.046093 0.195692 0.106451
-0.043535 0.196337 0.105159
-0.041516 0.196337 0.105754
-0.038949 0.196983 0.104460
-0.036377 0.197630 0.103164
-0.033800 0.198279 0.101864
-0.031774 0.198279 0.102461
-0.029188 0.198929 0.101160
-0.027161 0.198929 0.101757
-0.024567 0.199581 0.100453
-0.021968 0.200234 0.099146
-0.019362 0.200888 0.097837
-0.016751 0.201544 0.096525
-0.014715 0.201544 0.097124
-0.012096 0.202202 0.095810
-0.009471 0.202861 0.094492
-0.006840 0.203521 0.093172
-0.004204 0.204183 0.091848
-0.002158 0.204183 0.092451
0.000487 0.204847 0.091125
0.003138 0.205511 0.089796
0.005794 0.206178 0.088465
0.007847 0.206178 0.089069
0.011125 0.207515 0.085792
0.013182 0.207515 0.086398
0.015859 0.208186 0.085058
0.018542 0.208858 0.083715
0.021231 0.209532 0.082369
0.023295 0.209532 0.082977
0.025992 0.210207 0.081629
0.028696 0.210884 0.080278
0.031405 0.211562 0.078923
0.034120 0.212242 0.077566
0.036842 0.212924 0.076205
0.038918 0.212924 0.076816
0.041648 0.213607 0.075454
0.044385 0.214292 0.074088
0.047127 0.214978 0.072718
0.049876 0.215665 0.071346
0.053302 0.217045 0.067977
0.056067 0.217738 0.066595
0.058160 0.217738 0.067211
0.061617 0.219127 0.063820
0.065089 0.220523 0.060415
0.068578 0.221926 0.056993
0.071383 0.222629 0.055587
0.074898 0.224041 0.052143
0.078430 0.225460 0.048682
0.081977 0.226885 0.045206
0.085542 0.228317 0.041713
0.089122 0.229755 0.038205
0.092720 0.231200 0.034680
0.096334 0.232652 0.031138
0.099965 0.234111 0.027580
0.103614 0.235576 0.024005
0.106523 0.236312 0.022529
0.110199 0.237787 0.018929
0.113893 0.239270 0.015313
0.117605 0.240760 0.011679
0.121334 0.242257 0.008029
0.125081 0.243761 0.004360
0.127263 0.243761 0.005003
0.128654 0.243008 0.007801
0.130042 0.242257 0.010593
0.131426 0.241508 0.013378
0.132808 0.240760 0.016156
0.134185 0.240014 0.018928
0.135560 0.239270 0.021693
0.137727 0.239270 0.022331
0.139096 0.238528 0.025089
0.140462 0.237787 0.027840
0.142623 0.237787 0.028477
0.143983 0.237049 0.031221
0.145340 0.236312 0.033959
0.146693 0.235576 0.036690
0.148044 0.234843 0.039415
0.149391 0.234111 0.042134
0.151540 0.234111 0.042766
0.152882 0.233381 0.045478
0.154220 0.232652 0.048183
0.155555 0.231925 0.050882
0.156887 0.231200 0.053574
0.158217 0.230477 0.056260
0.159543 0.229755 0.058940
0.161676 0.229755 0.059569
0.162997 0.229035 0.062242
0.164314 0.228317 0.064909
0.165629 0.227600 0.067569
0.166940 0.226885 0.070224
0.168248 0.226172 0.072872
0.170370 0.226172 0.073497
0.171673 0.225460 0.076138
0.172972 0.224750 0.078774
0.174269 0.224041 0.081403
0.175563 0.223334 0.084026
0.177675 0.223334 0.084648
0.178963 0.222629 0.087265
0.180249 0.221926 0.089875
0.181531 0.221224 0.092480
0.182811 0.220523 0.095079
0.184087 0.219825 0.097671
0.186187 0.219825 0.098290
0.187458 0.219127 0.100876
0.188727 0.218432 0.103456
0.190822 0.218432 0.104072
0.192085 0.217738 0.106646
0.193345 0.217045 0.109214
0.194602 0.216355 0.111776
0.196690 0.216355 0.112390
0.197942 0.215665 0.114946
0.199192 0.214978 0.117495
0.201275 0.214978 0.118108
0.202519 0.214292 0.120651
0.204600 0.214292 0.121264
0.205838 0.213607 0.123801
0.207075 0.212924 0.126332
0.209151 0.212924 0.126943
0.211227 0.212924 0.127554
0.212455 0.212242 0.130078
0.214529 0.212242 0.130689
0.215752 0.211562 0.133206
0.217824 0.211562 0.133816
0.219042 0.210884 0.136327
0.220258 0.210207 0.138832
0.220619 0.208858 0.143219
0.220130 0.206845 0.149459
0.220490 0.205511 0.153797
0.220848 0.204183 0.158116
0.221204 0.202861 0.162416
0.221558 0.201544 0.166697
0.221912 0.200234 0.170959
0.222263 0.198929 0.175201
0.222613 0.197630 0.179426
0.222962 0.196337 0.183631
0.224144 0.195692 0.186024
0.224488 0.194407 0.190201
0.224830 0.193128 0.194360
0.224340 0.191220 0.200270
0.224681 0.189954 0.204384
0.225848 0.189324 0.206729
0.226185 0.188067 0.210816
0.226520 0.186815 0.214885
0.226854 0.185569 0.218937
0.227186 0.184328 0.222971
0.227516 0.183092 0.226988
0.228667 0.182477 0.229280
0.228993 0.181249 0.233271
0.229318 0.180027 0.237244
0.229642 0.178810 0.241201
0.229965 0.177598 0.245140
0.231101 0.176994 0.247391
0.231420 0.175789 0.251305
0.231736 0.174590 0.255203
0.232052 0.173396 0.259084
0.232366 0.172207 0.262948
0.233490 0.171615 0.265159
0.233800 0.170433 0.268998
0.234109 0.169257 0.272822
0.234416 0.168085 0.276629
0.234723 0.166918 0.280421
0.235028 0.165756 0.284197
0.236136 0.165177 0.286360
0.236437 0.164023 0.290111
0.236737 0.162873 0.293847
0.237837 0.162300 0.295990
0.239739 0.162300 0.296550
0.240835 0.161728 0.298687
0.242735 0.161728 0.299246
0.243826 0.161157 0.301378
0.244916 0.160587 0.303506
0.246812 0.160587 0.304064
0.249520 0.161157 0.303055
0.251418 0.161157 0.303614
0.253316 0.161157 0.304173
0.255213 0.161157 0.304731
0.257933 0.161728 0.303721
0.260658 0.162300 0.302709
0.263389 0.162873 0.301695
0.266125 0.163447 0.300679
0.269705 0.164599 0.298078
0.272457 0.165177 0.297055
0.276911 0.166918 0.292844
0.280536 0.168085 0.290210
0.283317 0.168670 0.289172
0.285240 0.168670 0.289738
0.287164 0.168670 0.290305
0.289088 0.168670 0.290871
0.291011 0.168670 0.291438
0.292935 0.168670 0.292004
0.294859 0.168670 0.292571
0.296782 0.168670 0.293137
0.299583 0.169257 0.292101
0.301508 0.169257 0.292668
0.303434 0.169257 0.293235
0.305360 0.169257 0.293802
0.308172 0.169844 0.292766
0.310099 0.169844 0.293334
0.312027 0.169844 0.293901
0.313955 0.169844 0.294469
0.316779 0.170433 0.293432
0.318709 0.170433 0.294001
0.321541 0.171023 0.292962
0.323473 0.171023 0.293531
0.325404 0.171023 0.294100
0.328247 0.171615 0.293061
0.330180 0.171615 0.293630
0.332114 0.171615 0.294200
0.334967 0.172207 0.293160
0.336902 0.172207 0.293730
0.338838 0.172207 0.294300
0.341701 0.172801 0.293258
0.343638 0.172801 0.293829
0.345576 0.172801 0.294400
0.348449 0.173396 0.293358
0.350389 0.173396 0.293929
0.352329 0.173396 0.294500
0.355211 0.173993 0.293457
0.357153 0.173993 0.294029
0.360044 0.174590 0.292984
0.361988 0.174590 0.293556
0.364887 0.175189 0.292510
0.367793 0.175789 0.291462
0.369741 0.175789 0.292035
0.372654 0.176391 0.290985
0.375574 0.176994 0.289933
0.377526 0.176994 0.290507
0.380454 0.177598 0.289453
0.383388 0.178203 0.288397
0.385345 0.178203 0.288973
0.388287 0.178810 0.287915
0.391236 0.179418 0.286855
0.393197 0.179418 0.287432
0.396154 0.180027 0.286370
0.399118 0.180637 0.285306
0.402087 0.181249 0.284240
0.405064 0.181862 0.283171
0.408046 0.182477 0.282100
0.412056 0.183710 0.279369
0.416082 0.184948 0.276627
0.419093 0.185569 0.275543
0.422110 0.186191 0.274457
0.425134 0.186815 0.273368
0.429210 0.188067 0.270598
0.433305 0.189324 0.267816
0.437417 0.190586 0.265021
0.442616 0.192491 0.260511
0.446771 0.193767 0.257686
-0.353333 0.231916 -0.106367
-0.351833 0.229739 -0.098991
-0.350127 0.228295 -0.093892
-0.348647 0.226143 -0.086602
-0.346958 0.224716 -0.081561
-0.345497 0.222588 -0.074356
-0.344047 0.220475 -0.067200
-0.342384 0.219075 -0.062251
-0.340952 0.216986 -0.055177
-0.339306 0.215601 -0.050283
-0.337667 0.214223 -0.045412
-0.336036 0.212851 -0.040562
-0.334412 0.211485 -0.035734
-0.332795 0.210125 -0.030928
-0.331186 0.208771 -0.026144
-0.329583 0.207424 -0.021382
-0.327988 0.206082 -0.016640
-0.326401 0.204747 -0.011920
-0.324820 0.203417 -0.007221
-0.323246 0.202094 -0.002543
-0.321679 0.200776 0.002114
-0.320120 0.199464 0.006750
-0.318567 0.198158 0.011366
-0.316778 0.197508 0.013965
-0.315238 0.196210 0.018550
-0.313704 0.194919 0.023115
-0.311930 0.194275 0.025687
-0.310409 0.192992 0.030221
-0.308645 0.192352 0.032776
-0.306885 0.191714 0.035327
-0.304875 0.191714 0.035918
-0.303120 0.191078 0.038462
-0.301112 0.191078 0.039054
-0.299364 0.190442 0.041591
-0.297880 0.189176 0.046061
-0.295879 0.189176 0.046650
-0.294142 0.188545 0.049171
-0.292409 0.187915 0.051687
-0.290680 0.187287 0.054197
-0.288685 0.187287 0.054784
-0.286961 0.186660 0.057289
-0.284969 0.186660 0.057875
-0.283251 0.186034 0.060373
-0.281538 0.185410 0.062866
-0.279549 0.185410 0.063451
-0.277841 0.184787 0.065938
-0.275855 0.184787 0.066523
-0.274153 0.184165 0.069003
-0.272169 0.184165 0.069588
-0.270473 0.183545 0.072062
-0.268491 0.183545 0.072646
-0.266800 0.182926 0.075114
-0.264821 0.182926 0.075697
-0.262841 0.182926 0.076280
-0.261158 0.182308 0.078742
-0.259181 0.182308 0.079325
-0.257504 0.181692 0.081781
-0.255529 0.181692 0.082362
-0.253858 0.181077 0.084813
-0.251884 0.181077 0.085394
-0.250219 0.180464 0.087838
-0.248248 0.180464 0.088418
-0.246276 0.180464 0.088999
-0.244305 0.180464 0.089579
-0.242650 0.179851 0.092016
-0.240681 0.179851 0.092596
-0.238712 0.179851 0.093176
-0.236743 0.179851 0.093756
-0.235097 0.179240 0.096186
-0.233130 0.179240 0.096765
-0.231163 0.179240 0.097344
-0.229196 0.179240 0.097924
-0.227560 0.178631 0.100347
-0.225595 0.178631 0.100925
-0.223631 0.178631 0.101504
-0.221666 0.178631 0.102082
-0.220040 0.178022 0.104498
-0.218077 0.178022 0.105076
-0.216114 0.178022 0.105654
-0.214151 0.178022 0.106232
-0.212535 0.177415 0.108641
-0.210575 0.177415 0.109218
-0.208614 0.177415 0.109796
-0.206653 0.177415 0.110373
-0.205047 0.176810 0.112775
-0.202732 0.177415 0.111528
-0.201130 0.176810 0.113929
-0.199171 0.176810 0.114505
-0.196850 0.177415 0.113260
-0.194889 0.177415 0.113837
-0.192929 0.177415 0.114415
-0.190968 0.177415 0.114992
-0.189007 0.177415 0.115569
-0.187047 0.177415 0.116147
-0.185086 0.177415 0.116724
-0.183125 0.177415 0.117301
-0.181165 0.177415 0.117879
-0.179204 0.177415 0.118456
-0.177243 0.177415 0.119033
-0.175282 0.177415 0.119611
-0.173322 0.177415 0.120188
-0.171361 0.177415 0.120765
-0.169008 0.178022 0.119525
-0.167045 0.178022 0.120103
-0.165082 0.178022 0.120681
-0.163518 0.177415 0.123075
-0.161157 0.178022 0.121837
-0.159194 0.178022 0.122415
-0.157231 0.178022 0.122993
-0.154860 0.178631 0.121754
-0.152895 0.178631 0.122332
-0.150930 0.178631 0.122911
-0.148550 0.179240 0.121670
-0.146583 0.179240 0.122250
-0.144616 0.179240 0.122829
-0.142649 0.179240 0.123408
-0.140257 0.179851 0.122167
-0.137860 0.180464 0.120923
-0.135889 0.180464 0.121503
-0.133918 0.180464 0.122084
-0.131512 0.181077 0.120838
-0.129538 0.181077 0.121419
-0.127565 0.181077 0.122000
-0.125149 0.181692 0.120754
-0.123174 0.181692 0.121335
-0.121198 0.181692 0.121917
-0.118773 0.182308 0.120669
-0.116795 0.182308 0.121251
-0.114818 0.182308 0.121833
-0.112383 0.182926 0.120584
-0.110403 0.182926 0.121167
-0.108424 0.182926 0.121750
-0.105979 0.183545 0.120498
-0.103998 0.183545 0.121082
-0.102016 0.183545 0.121666
-0.099562 0.184165 0.120413
-0.097578 0.184165 0.120997
-0.095117 0.184787 0.119743
-0.093131 0.184787 0.120327
-0.090662 0.185410 0.119071
-0.088674 0.185410 0.119656
-0.086197 0.186034 0.118397
-0.084207 0.186034 0.118983
-0.082216 0.186034 0.119570
-0.079730 0.186660 0.118309
-0.077738 0.186660 0.118896
-0.075244 0.187287 0.117634
-0.073249 0.187287 0.118221
-0.070748 0.187915 0.116957
-0.068242 0.188545 0.115689
-0.065730 0.189176 0.114419
-0.063728 0.189176 0.115009
-0.060689 0.190442 0.111871
-0.058160 0.191078 0.110593
-0.056153 0.191078 0.111184
-0.053616 0.191714 0.109903
-0.051074 0.192352 0.108620
-0.049062 0.192352 0.109213
-0.046512 0.192992 0.107927
-0.043957 0.193633 0.106639
-0.041941 0.193633 0.107233
-0.039377 0.194275 0.105942
-0.036809 0.194919 0.104649
-0.034788 0.194919 0.105244
-0.032211 0.195564 0.103949
-0.030188 0.195564 0.104544
-0.027603 0.196210 0.103247
-0.025013 0.196858 0.101946
-0.022417 0.197508 0.100643
-0.020387 0.197508 0.101240
-0.017783 0.198158 0.099935
-0.015173 0.198811 0.098626
-0.012557 0.199464 0.097315
-0.009936 0.200120 0.096000
-0.007897 0.200120 0.096601
-0.005267 0.200776 0.095284
-0.002632 0.201434 0.093964
0.000009 0.202094 0.092642
0.002055 0.202094 0.093244
0.004705 0.202755 0.091919
0.007360 0.203417 0.090592
0.010021 0.204081 0.089261
0.012688 0.204747 0.087927
0.015362 0.205414 0.086590
0.018041 0.206082 0.085251
0.020101 0.206082 0.085857
0.022788 0.206752 0.084515
0.025482 0.207424 0.083170
0.028181 0.208097 0.081822
0.030248 0.208097 0.082431
0.032956 0.208771 0.081080
0.035670 0.209447 0.079727
0.038390 0.210125 0.078370
0.041117 0.210804 0.077010
0.043193 0.210804 0.077622
0.045928 0.211485 0.076260
0.048669 0.212167 0.074895
0.052085 0.213536 0.071541
0.054842 0.214223 0.070166
0.057606 0.214911 0.068788
0.060376 0.215601 0.067406
0.063153 0.216293 0.066022
0.065248 0.216293 0.066639
0.068725 0.217680 0.063243
0.072218 0.219075 0.059832
0.075727 0.220475 0.056405
0.079252 0.221882 0.052963
0.082079 0.222588 0.051547
0.085631 0.224005 0.048081
0.089200 0.225428 0.044600
0.092785 0.226858 0.041102
0.096387 0.228295 0.037587
0.100005 0.229739 0.034057
0.103641 0.231189 0.030510
0.107293 0.232646 0.026946
0.110963 0.234109 0.023365
0.114650 0.235580 0.019768
0.118355 0.237058 0.016153
0.121298 0.237799 0.014659
0.125032 0.239287 0.011020
0.127206 0.239287 0.011660
0.128592 0.238542 0.014440
0.129975 0.237799 0.017214
0.131355 0.237058 0.019981
0.132732 0.236318 0.022742
0.134105 0.235580 0.025496
0.136266 0.235580 0.026133
0.137634 0.234844 0.028880
0.138998 0.234109 0.031620
0.141154 0.234109 0.032255
0.142513 0.233377 0.034989
0.143868 0.232646 0.037716
0.145220 0.231916 0.040436
0.146569 0.231189 0.043150
0.147915 0.230463 0.045858
0.150059 0.230463 0.046489
0.151399 0.229739 0.049190
0.152736 0.229016 0.051885
0.154070 0.228295 0.054573
0.155401 0.227576 0.057255
0.156729 0.226858 0.059930
0.158053 0.226143 0.062600
0.160182 0.226143 0.063227
0.161501 0.225428 0.065889
0.162817 0.224716 0.068546
0.164131 0.224005 0.071196
0.165441 0.223296 0.073840
0.167560 0.223296 0.074464
0.168864 0.222588 0.077102
0.170166 0.221882 0.079733
0.171464 0.221178 0.082358
0.172760 0.220475 0.084977
0.174869 0.220475 0.085599
0.176159 0.219774 0.088211
0.177446 0.219075 0.090817
0.178731 0.218377 0.093418
0.180012 0.217680 0.096013
0.181290 0.216986 0.098601
0.182566 0.216293 0.101184
0.184661 0.216293 0.101801
0.185931 0.215601 0.104377
0.188023 0.215601 0.104993
0.189288 0.214911 0.107563
0.190550 0.214223 0.110126
0.192638 0.214223 0.110741
0.193895 0.213536 0.113298
0.195149 0.212851 0.115850
0.197232 0.212851 0.116463
0.198481 0.212167 0.119008
0.200561 0.212167 0.119621
0.201805 0.211485 0.122159
0.203883 0.211485 0.122771
0.205122 0.210804 0.125303
0.207198 0.210804 0.125914
0.208431 0.210125 0.128440
0.210504 0.210125 0.129050
0.211732 0.209447 0.131570
0.213804 0.209447 0.132180
0.215027 0.208771 0.134692
0.217096 0.208771 0.135302
0.218314 0.208097 0.137808
0.218679 0.206752 0.142197
0.218197 0.204747 0.148441
0.218561 0.203417 0.152781
0.218923 0.202094 0.157103
0.219283 0.200776 0.161405
0.219642 0.199464 0.165688
0.220000 0.198158 0.169952
0.220355 0.196858 0.174197
0.221545 0.196210 0.176610
0.221897 0.194919 0.180827
0.222246 0.193633 0.185025
0.222594 0.192352 0.189204
0.223773 0.191714 0.191583
0.224116 0.190442 0.195734
0.223630 0.188545 0.201633
0.223972 0.187287 0.205740
0.224312 0.186034 0.209829
0.224651 0.184787 0.213901
0.225812 0.184165 0.216222
0.226147 0.182926 0.220267
0.226480 0.181692 0.224294
0.226812 0.180464 0.228304
0.227143 0.179240 0.232296
0.227472 0.178022 0.236272
0.228616 0.177415 0.238542
0.228941 0.176205 0.242491
0.229265 0.175000 0.246424
0.229587 0.173800 0.250340
0.230720 0.173202 0.252578
0.231038 0.172010 0.256469
0.231355 0.170822 0.260343
0.231670 0.169640 0.264201
0.231984 0.168463 0.268042
0.232297 0.167290 0.271868
0.233415 0.166706 0.274058
0.233724 0.165541 0.277858
0.234031 0.164380 0.281643
0.234337 0.163225 0.285413
0.234642 0.162075 0.289166
0.234946 0.160929 0.292904
0.236048 0.160358 0.295047
0.237148 0.159788 0.297186
0.238245 0.159219 0.299320
0.240143 0.159219 0.299879
0.241237 0.158651 0.302009
0.243132 0.158651 0.302567
0.244222 0.158085 0.304691
0.246116 0.158085 0.305249
0.248009 0.158085 0.305806
0.250716 0.158651 0.304800
0.252612 0.158651 0.305358
0.254508 0.158651 0.305916
0.257224 0.159219 0.304909
0.259945 0.159788 0.303899
0.262672 0.160358 0.302887
0.266238 0.161501 0.300296
0.268980 0.162075 0.299277
0.272570 0.163225 0.296671
0.276175 0.164380 0.294053
0.279795 0.165541 0.291425
0.282572 0.166123 0.290389
0.285354 0.166706 0.289352
0.287278 0.166706 0.289918
0.289201 0.166706 0.290485
0.290258 0.166123 0.292653
0.293049 0.166706 0.291617
0.294973 0.166706 0.292184
0.296896 0.166706 0.292750
0.298820 0.166706 0.293317
0.301622 0.167290 0.292281
0.303548 0.167290 0.292848
0.305474 0.167290 0.293415
0.307399 0.167290 0.293982
0.309325 0.167290 0.294549
0.312141 0.167876 0.293514
0.314069 0.167876 0.294081
0.315997 0.167876 0.294649
0.318823 0.168463 0.293613
0.320753 0.168463 0.294181
0.322683 0.168463 0.294749
0.325519 0.169051 0.293712
0.327451 0.169051 0.294281
0.329382 0.169051 0.294849
0.332229 0.169640 0.293811
0.334163 0.169640 0.294380
0.336096 0.169640 0.294950
0.338953 0.170230 0.293911
0.340889 0.170230 0.294481
0.343753 0.170822 0.293440
0.345691 0.170822 0.294010
0.347629 0.170822 0.294581
0.350504 0.171415 0.293539
0.351505 0.170822 0.295722
0.354384 0.171415 0.294681
0.356324 0.171415 0.295253
0.359210 0.172010 0.294210
0.362103 0.172605 0.293166
0.365003 0.173202 0.292119
0.366949 0.173202 0.292692
0.369856 0.173800 0.291644
0.372770 0.174399 0.290593
0.374720 0.174399 0.291167
0.377642 0.175000 0.290115
0.380570 0.175602 0.289060
0.382524 0.175602 0.289636
0.385461 0.176205 0.288580
0.388403 0.176810 0.287521
0.390362 0.176810 0.288098
0.392320 0.176810 0.288675
0.395274 0.177415 0.287615
0.398233 0.178022 0.286554
0.401199 0.178631 0.285490
0.404171 0.179240 0.284424
0.407149 0.179851 0.283355
0.412173 0.181692 0.278972
0.415172 0.182308 0.277893
0.418179 0.182926 0.276812
0.421192 0.183545 0.275728
0.424211 0.184165 0.274642
0.427237 0.184787 0.273554
0.431319 0.186034 0.270784
0.435417 0.187287 0.268002
0.440599 0.189176 0.263512
0.444740 0.190442 0.260699
0.452149 0.193633 0.252722
-0.355142 0.230449 -0.109692
-0.353847 0.227552 -0.100052
-0.352136 0.226114 -0.094951
-0.350650 0.223969 -0.087657
-0.348956 0.222547 -0.082614
-0.347489 0.220427 -0.075405
-0.346031 0.218321 -0.068246
-0.344364 0.216925 -0.063294
-0.342926 0.214844 -0.056217
-0.341275 0.213464 -0.051320
-0.339631 0.212091 -0.046446
-0.337995 0.210723 -0.041594
-0.336594 0.208684 -0.034663
-0.334746 0.208007 -0.031956
-0.333132 0.206659 -0.027169
-0.331526 0.205316 -0.022405
-0.329926 0.203979 -0.017661
-0.328334 0.202648 -0.012939
-0.326749 0.201324 -0.008237
-0.325171 0.200005 -0.003557
-0.323600 0.198692 0.001102
-0.322036 0.197384 0.005741
-0.320479 0.196083 0.010359
-0.318929 0.194787 0.014957
-0.317143 0.194142 0.017547
-0.315606 0.192855 0.022113
-0.313830 0.192213 0.024686
-0.312304 0.190935 0.029223
-0.310538 0.190297 0.031779
-0.308526 0.190297 0.032372
-0.307017 0.189027 0.036876
-0.305009 0.189027 0.037467
-0.303257 0.188394 0.040007
-0.301251 0.188394 0.040597
-0.299763 0.187132 0.045069
-0.297762 0.187132 0.045658
-0.296023 0.186503 0.048181
-0.294288 0.185876 0.050697
-0.292556 0.185250 0.053209
-0.290829 0.184625 0.055714
-0.288836 0.184625 0.056301
-0.287114 0.184002 0.058801
-0.285124 0.184002 0.059387
-0.283408 0.183379 0.061881
-0.281420 0.183379 0.062466
-0.279710 0.182759 0.064954
-0.278004 0.182139 0.067436
-0.276020 0.182139 0.068020
-0.274319 0.181521 0.070497
-0.272337 0.181521 0.071080
-0.270643 0.180904 0.073550
-0.268663 0.180904 0.074133
-0.266974 0.180289 0.076598
-0.264997 0.180289 0.077180
-0.263019 0.180289 0.077762
-0.261338 0.179675 0.080220
-0.259363 0.179675 0.080802
-0.257687 0.179062 0.083254
-0.256016 0.178451 0.085700
-0.254045 0.178451 0.086281
-0.252073 0.178451 0.086861
-0.250102 0.178451 0.087442
-0.248441 0.177841 0.089881
-0.246471 0.177841 0.090461
-0.244502 0.177841 0.091041
-0.242533 0.177841 0.091621
-0.240881 0.177232 0.094053
-0.238914 0.177232 0.094632
-0.236948 0.177232 0.095211
-0.234981 0.177232 0.095791
-0.233339 0.176624 0.098216
-0.231374 0.176624 0.098794
-0.229409 0.176624 0.099373
-0.227444 0.176624 0.099952
-0.225812 0.176018 0.102370
-0.223849 0.176018 0.102948
-0.221886 0.176018 0.103526
-0.219924 0.176018 0.104104
-0.218301 0.175413 0.106515
-0.216341 0.175413 0.107092
-0.214380 0.175413 0.107670
-0.212419 0.175413 0.108247
-0.210807 0.174809 0.110651
-0.208848 0.174809 0.111228
-0.206889 0.174809 0.111805
-0.204931 0.174809 0.112382
-0.202972 0.174809 0.112958
-0.201014 0.174809 0.113535
-0.199055 0.174809 0.114112
-0.197097 0.174809 0.114688
-0.195138 0.174809 0.115265
-0.193179 0.174809 0.115842
-0.191221 0.174809 0.116419
-0.189262 0.174809 0.116995
-0.187304 0.174809 0.117572
-0.185345 0.174809 0.118149
-0.183387 0.174809 0.118725
-0.181428 0.174809 0.119302
-0.179469 0.174809 0.119879
-0.177127 0.175413 0.118639
-0.175166 0.175413 0.119216
-0.173206 0.175413 0.119794
-0.171245 0.175413 0.120371
-0.169284 0.175413 0.120948
-0.167324 0.175413 0.121526
-0.165363 0.175413 0.122103
-0.163402 0.175413 0.122680
-0.161442 0.175413 0.123258
-0.159481 0.175413 0.123835
-0.157115 0.176018 0.122598
-0.155152 0.176018 0.123176
-0.153189 0.176018 0.123754
-0.150814 0.176624 0.122516
-0.148849 0.176624 0.123095
-0.146884 0.176624 0.123673
-0.144919 0.176624 0.124252
-0.142533 0.177232 0.123013
-0.140566 0.177232 0.123592
-0.138172 0.177841 0.122351
-0.136202 0.177841 0.122931
-0.134233 0.177841 0.123510
-0.131830 0.178451 0.122268
-0.129859 0.178451 0.122848
-0.127888 0.178451 0.123429
-0.125475 0.179062 0.122185
-0.123501 0.179062 0.122766
-0.121528 0.179062 0.123347
-0.119106 0.179675 0.122102
-0.117130 0.179675 0.122683
-0.115155 0.179675 0.123265
-0.112723 0.180289 0.122018
-0.110746 0.180289 0.122600
-0.108768 0.180289 0.123183
-0.106327 0.180904 0.121935
-0.104347 0.180904 0.122518
-0.102367 0.180904 0.123100
-0.099917 0.181521 0.121851
-0.097935 0.181521 0.122434
-0.095477 0.182139 0.121183
-0.093493 0.182139 0.121767
-0.091027 0.182759 0.120513
-0.089041 0.182759 0.121098
-0.086568 0.183379 0.119842
-0.084579 0.183379 0.120427
-0.082098 0.184002 0.119169
-0.080108 0.184002 0.119756
-0.077620 0.184625 0.118496
-0.075627 0.184625 0.119082
-0.073131 0.185250 0.117820
-0.071137 0.185250 0.118408
-0.068633 0.185876 0.117143
-0.066124 0.186503 0.115876
-0.064125 0.186503 0.116465
-0.061609 0.187132 0.115196
-0.058565 0.188394 0.112058
-0.056559 0.188394 0.112649
-0.054026 0.189027 0.111372
-0.051487 0.189662 0.110091
-0.049477 0.189662 0.110683
-0.046931 0.190297 0.109401
-0.044379 0.190935 0.108115
-0.042364 0.190935 0.108709
-0.039804 0.191573 0.107421
-0.037239 0.192213 0.106131
-0.035220 0.192213 0.106725
-0.032647 0.192855 0.105433
-0.030626 0.192855 0.106028
-0.028044 0.193498 0.104733
-0.026021 0.193498 0.105329
-0.023432 0.194142 0.104032
-0.020837 0.194787 0.102733
-0.018236 0.195435 0.101430
-0.015630 0.196083 0.100125
-0.013598 0.196083 0.100723
-0.010983 0.196733 0.099415
-0.008363 0.197384 0.098105
-0.005737 0.198037 0.096791
-0.003698 0.198037 0.097392
-0.001064 0.198692 0.096076
0.001576 0.199347 0.094757
0.004222 0.200005 0.093435
0.006874 0.200663 0.092111
0.009532 0.201324 0.090783
0.012195 0.201985 0.089453
0.014248 0.201985 0.090057
0.016920 0.202648 0.088724
0.019598 0.203313 0.087388
0.022282 0.203979 0.086050
0.024972 0.204647 0.084708
0.027034 0.204647 0.085315
0.029732 0.205316 0.083971
0.032437 0.205986 0.082624
0.034504 0.205986 0.083232
0.037216 0.206659 0.081883
0.039935 0.207332 0.080530
0.042661 0.208007 0.079174
0.044734 0.208007 0.079785
0.048129 0.209362 0.076454
0.050208 0.209362 0.077066
0.052954 0.210042 0.075702
0.055706 0.210723 0.074334
0.058465 0.211406 0.072964
0.061910 0.212777 0.069598
0.064685 0.213464 0.068218
0.067467 0.214153 0.066834
0.069562 0.214153 0.067451
0.073048 0.215536 0.064058
0.075849 0.216230 0.062664
0.079362 0.217623 0.059248
0.082892 0.219021 0.055816
0.086438 0.220427 0.052368
0.090000 0.221839 0.048904
0.093579 0.223257 0.045424
0.096439 0.223969 0.043992
0.100045 0.225397 0.040488
0.104415 0.227552 0.034887
0.107308 0.228273 0.033432
0.110965 0.229722 0.029880
0.114639 0.231177 0.026310
0.118330 0.232639 0.022724
0.122039 0.234108 0.019121
0.125765 0.235584 0.015500
0.127150 0.234845 0.018270
0.128531 0.234108 0.021032
0.129909 0.233373 0.023789
0.131284 0.232639 0.026538
0.133443 0.232639 0.027174
0.134813 0.231907 0.029917
0.136178 0.231177 0.032653
0.137541 0.230449 0.035382
0.139693 0.230449 0.036016
0.141050 0.229722 0.038738
0.142404 0.228997 0.041455
0.143754 0.228273 0.044164
0.145102 0.227552 0.046868
0.147243 0.227552 0.047498
0.147787 0.226114 0.052256
0.149924 0.226114 0.052885
0.151259 0.225397 0.055569
0.152592 0.224682 0.058247
0.153921 0.223969 0.060918
0.155248 0.223257 0.063583
0.157374 0.223257 0.064210
0.158695 0.222547 0.066868
0.160013 0.221839 0.069520
0.161328 0.221132 0.072166
0.162639 0.220427 0.074806
0.164756 0.220427 0.075430
0.166062 0.219723 0.078063
0.167366 0.219021 0.080690
0.168666 0.218321 0.083311
0.169963 0.217623 0.085926
0.171257 0.216925 0.088535
0.173362 0.216925 0.089155
0.174651 0.216230 0.091757
0.175937 0.215536 0.094354
0.177220 0.214844 0.096944
0.178500 0.214153 0.099529
0.180595 0.214153 0.100146
0.181870 0.213464 0.102724
0.183962 0.213464 0.103340
0.185232 0.212777 0.105911
0.186498 0.212091 0.108477
0.187762 0.211406 0.111037
0.189847 0.211406 0.111651
0.191106 0.210723 0.114204
0.193189 0.210723 0.114817
0.194442 0.210042 0.117364
0.196523 0.210042 0.117977
0.197771 0.209362 0.120517
0.199849 0.209362 0.121129
0.201092 0.208684 0.123663
0.203168 0.208684 0.124274
0.204406 0.208007 0.126802
0.206480 0.208007 0.127412
0.207712 0.207332 0.129933
0.209784 0.207332 0.130543
0.211011 0.206659 0.133058
0.213080 0.206659 0.133667
0.214303 0.205986 0.136175
0.216369 0.205986 0.136784
0.216739 0.204647 0.141175
0.216263 0.202648 0.147423
0.216632 0.201324 0.151765
0.216998 0.200005 0.156089
0.217363 0.198692 0.160393
0.217726 0.197384 0.164678
0.218924 0.196733 0.167113
0.219283 0.195435 0.171369
0.219640 0.194142 0.175607
0.219995 0.192855 0.179825
0.220349 0.191573 0.184025
0.220701 0.190297 0.188207
0.221882 0.189662 0.190587
0.222230 0.188394 0.194741
0.221749 0.186503 0.200643
0.222095 0.185250 0.204752
0.223264 0.184625 0.207093
0.223606 0.183379 0.211175
0.223946 0.182139 0.215239
0.224285 0.180904 0.219286
0.224622 0.179675 0.223315
0.224958 0.178451 0.227327
0.226110 0.177841 0.229616
0.226441 0.176624 0.233602
0.226772 0.175413 0.237570
0.227100 0.174207 0.241522
0.227428 0.173006 0.245457
0.227754 0.171811 0.249375
0.228889 0.171215 0.251614
0.229211 0.170026 0.255507
0.229532 0.168843 0.259383
0.229851 0.167665 0.263243
0.230976 0.167078 0.265451
0.231291 0.165907 0.269286
0.231605 0.164741 0.273104
0.231917 0.163580 0.276907
0.232229 0.162424 0.280694
0.232539 0.161273 0.284465
0.233648 0.160699 0.286626
0.233954 0.159555 0.290373
0.234259 0.158416 0.294105
0.234562 0.157281 0.297821
0.236460 0.157281 0.298380
0.237557 0.156715 0.300511
0.238652 0.156151 0.302637
0.240546 0.156151 0.303195
0.241637 0.155588 0.305316
0.243529 0.155588 0.305874
0.245421 0.155588 0.306431
0.247313 0.155588 0.306988
0.250015 0.156151 0.305983
0.251096 0.155588 0.308102
0.254620 0.156715 0.305535
0.256516 0.156715 0.306093
0.259234 0.157281 0.305086
0.261957 0.157848 0.304076
0.265518 0.158985 0.301491
0.268257 0.159555 0.300474
0.271841 0.160699 0.297873
0.275441 0.161848 0.295260
0.279909 0.163580 0.291039
0.282686 0.164160 0.290003
0.284607 0.164160 0.290569
0.286529 0.164160 0.291135
0.288451 0.164160 0.291700
0.290372 0.164160 0.292266
0.292294 0.164160 0.292832
0.295086 0.164741 0.291797
0.297010 0.164741 0.292364
0.298934 0.164741 0.292930
0.300857 0.164741 0.293496
0.302781 0.164741 0.294063
0.305588 0.165324 0.293028
0.307513 0.165324 0.293595
0.309439 0.165324 0.294162
0.311365 0.165324 0.294729
0.314183 0.165907 0.293694
0.316111 0.165907 0.294262
0.318039 0.165907 0.294829
0.320867 0.166492 0.293793
0.321894 0.165907 0.295964
0.324727 0.166492 0.294929
0.326656 0.166492 0.295498
0.328586 0.166492 0.296066
0.331429 0.167078 0.295030
0.333360 0.167078 0.295599
0.335292 0.167078 0.296168
0.338145 0.167665 0.295131
0.340078 0.167665 0.295700
0.342012 0.167665 0.296269
0.344875 0.168254 0.295231
0.346811 0.168254 0.295801
0.348747 0.168254 0.296371
0.350683 0.168254 0.296941
0.353557 0.168843 0.295903
0.356438 0.169434 0.294863
0.359325 0.170026 0.293820
0.361267 0.170026 0.294392
0.364163 0.170620 0.293347
0.367064 0.171215 0.292301
0.369010 0.171215 0.292874
0.371920 0.171811 0.291826
0.374835 0.172408 0.290775
0.376786 0.172408 0.291349
0.379710 0.173006 0.290297
0.382640 0.173606 0.289243
0.384594 0.173606 0.289818
0.387533 0.174207 0.288763
0.390478 0.174809 0.287704
0.392436 0.174809 0.288281
0.394395 0.174809 0.288858
0.398349 0.176018 0.286159
0.401315 0.176624 0.285095
0.404287 0.177232 0.284028
0.407266 0.177841 0.282959
0.411269 0.179062 0.280233
0.414265 0.179675 0.279157
0.417267 0.180289 0.278078
0.420276 0.180904 0.276997
0.424329 0.182139 0.274244
0.427355 0.182759 0.273155
0.430388 0.183379 0.272064
0.434480 0.184625 0.269287
0.438590 0.185876 0.266499
0.442719 0.187132 0.263699
0.449019 0.189662 0.257469
-0.355862 0.225365 -0.101113
-0.354146 0.223932 -0.096009
-0.352653 0.221795 -0.088712
-0.351169 0.219672 -0.081465
-0.349480 0.218265 -0.076454
-0.347799 0.216865 -0.071466
-0.346344 0.214776 -0.064336
-0.344899 0.212702 -0.057256
-0.343243 0.211327 -0.052357
-0.341596 0.209959 -0.047481
-0.339955 0.208596 -0.042626
-0.338547 0.206564 -0.035692
-0.336922 0.205217 -0.030891
-0.335306 0.203876 -0.026113
-0.333696 0.202541 -0.021355
-0.332093 0.201212 -0.016619
-0.330498 0.199889 -0.011905
-0.328910 0.198572 -0.007211
-0.327329 0.197261 -0.002538
-0.325520 0.196607 0.000091
-0.323952 0.195305 0.004732
-0.322391 0.194008 0.009352
-0.320836 0.192717 0.013952
-0.319289 0.191431 0.018532
-0.317507 0.190791 0.021112
-0.315972 0.189514 0.025661
-0.314200 0.188878 0.028224
-0.312431 0.188243 0.030782
-0.310419 0.188243 0.031375
-0.308657 0.187609 0.033926
-0.306898 0.186977 0.036473
-0.305144 0.186346 0.039013
-0.303647 0.185089 0.043488
-0.301902 0.184462 0.046013
-0.299903 0.184462 0.046601
-0.297904 0.184462 0.047190
-0.296166 0.183837 0.049708
-0.294433 0.183213 0.052220
-0.292703 0.182590 0.054727
-0.290977 0.181969 0.057229
-0.288987 0.181969 0.057815
-0.287267 0.181349 0.060310
-0.285279 0.181349 0.060896
-0.283565 0.180730 0.063385
-0.281578 0.180730 0.063970
-0.279870 0.180113 0.066453
-0.277886 0.180113 0.067037
-0.276184 0.179497 0.069515
-0.274485 0.178883 0.071987
-0.272505 0.178883 0.072570
-0.270812 0.178270 0.075036
-0.268835 0.178270 0.075618
-0.267147 0.177658 0.078078
-0.265172 0.177658 0.078660
-0.263197 0.177658 0.079241
-0.261517 0.177047 0.081695
-0.259544 0.177047 0.082276
-0.257870 0.176438 0.084724
-0.255899 0.176438 0.085304
-0.254231 0.175830 0.087746
-0.252262 0.175830 0.088326
-0.250293 0.175830 0.088906
-0.248324 0.175830 0.089485
-0.246666 0.175223 0.091920
-0.244699 0.175223 0.092499
-0.242732 0.175223 0.093078
-0.240765 0.175223 0.093658
-0.239117 0.174618 0.096085
-0.237152 0.174618 0.096664
-0.235187 0.174618 0.097242
-0.233222 0.174618 0.097821
-0.231584 0.174014 0.100241
-0.229621 0.174014 0.100819
-0.227658 0.174014 0.101397
-0.225696 0.174014 0.101975
-0.224067 0.173411 0.104389
-0.222107 0.173411 0.104966
-0.220146 0.173411 0.105543
-0.218185 0.173411 0.106121
-0.216566 0.172809 0.108527
-0.214608 0.172809 0.109104
-0.212649 0.172809 0.109681
-0.210691 0.172809 0.110258
-0.208732 0.172809 0.110834
-0.206774 0.172809 0.111411
-0.205169 0.172209 0.113809
-0.203212 0.172209 0.114385
-0.201256 0.172209 0.114962
-0.199299 0.172209 0.115538
-0.197343 0.172209 0.116114
-0.195386 0.172209 0.116690
-0.193430 0.172209 0.117266
-0.191473 0.172209 0.117842
-0.189517 0.172209 0.118418
-0.187560 0.172209 0.118994
-0.185229 0.172809 0.117755
-0.183271 0.172809 0.118332
-0.181312 0.172809 0.118908
-0.179353 0.172809 0.119485
-0.177395 0.172809 0.120062
-0.175436 0.172809 0.120639
-0.173478 0.172809 0.121215
-0.171519 0.172809 0.121792
-0.169561 0.172809 0.122369
-0.167602 0.172809 0.122945
-0.165643 0.172809 0.123522
-0.163685 0.172809 0.124099
-0.161726 0.172809 0.124676
-0.159365 0.173411 0.123441
-0.157404 0.173411 0.124018
-0.155444 0.173411 0.124596
-0.153073 0.174014 0.123360
-0.151110 0.174014 0.123938
-0.149148 0.174014 0.124516
-0.147185 0.174014 0.125094
-0.144803 0.174618 0.123857
-0.142838 0.174618 0.124435
-0.140873 0.174618 0.125014
-0.138482 0.175223 0.123776
-0.136515 0.175223 0.124355
-0.134548 0.175223 0.124934
-0.132148 0.175830 0.123694
-0.130179 0.175830 0.124274
-0.128210 0.175830 0.124854
-0.125800 0.176438 0.123613
-0.123828 0.176438 0.124193
-0.121857 0.176438 0.124774
-0.119438 0.177047 0.123531
-0.117465 0.177047 0.124112
-0.115491 0.177047 0.124693
-0.113063 0.177658 0.123449
-0.111087 0.177658 0.124031
-0.108651 0.178270 0.122785
-0.106673 0.178270 0.123368
-0.104696 0.178270 0.123950
-0.102250 0.178883 0.122702
-0.100271 0.178883 0.123285
-0.097817 0.179497 0.122036
-0.095836 0.179497 0.122619
-0.093375 0.180113 0.121368
-0.091391 0.180113 0.121952
-0.088923 0.180730 0.120699
-0.086937 0.180730 0.121283
-0.084951 0.180730 0.121868
-0.082473 0.181349 0.120613
-0.080485 0.181349 0.121199
-0.078000 0.181969 0.119942
-0.076009 0.181969 0.120528
-0.073517 0.182590 0.119268
-0.071524 0.182590 0.119855
-0.069024 0.183213 0.118594
-0.066518 0.183837 0.117330
-0.064521 0.183837 0.117918
-0.062008 0.184462 0.116652
-0.059489 0.185089 0.115383
-0.057487 0.185089 0.115972
-0.054435 0.186346 0.112836
-0.051899 0.186977 0.111559
-0.049891 0.186977 0.112150
-0.047348 0.187609 0.110871
-0.044799 0.188243 0.109589
-0.042787 0.188243 0.110181
-0.040231 0.188878 0.108897
-0.037668 0.189514 0.107610
-0.035652 0.189514 0.108203
-0.033082 0.190152 0.106914
-0.031063 0.190152 0.107508
-0.028485 0.190791 0.106217
-0.026464 0.190791 0.106812
-0.023878 0.191431 0.105518
-0.021286 0.192073 0.104222
-0.019261 0.192073 0.104818
-0.016661 0.192717 0.103519
-0.014056 0.193362 0.102217
-0.011445 0.194008 0.100913
-0.009413 0.194008 0.101511
-0.006794 0.194655 0.100204
-0.004169 0.195305 0.098895
-0.001538 0.195955 0.097582
0.001099 0.196607 0.096266
0.003140 0.196607 0.096868
0.005785 0.197261 0.095550
0.008435 0.197915 0.094229
0.011092 0.198572 0.092905
0.013754 0.199230 0.091579
0.016423 0.199889 0.090249
0.019097 0.200550 0.088916
0.021152 0.200550 0.089521
0.023835 0.201212 0.088187
0.026523 0.201876 0.086849
0.029218 0.202541 0.085508
0.031280 0.202541 0.086115
0.033983 0.203208 0.084772
0.036693 0.203876 0.083425
0.039408 0.204546 0.082076
0.041477 0.204546 0.082685
0.044201 0.205217 0.081334
0.046931 0.205890 0.079979
0.049004 0.205890 0.080589
0.051743 0.206564 0.079232
0.055158 0.207917 0.075896
0.057238 0.207917 0.076509
0.059995 0.208596 0.075142
0.062759 0.209277 0.073773
0.065529 0.209959 0.072400
0.068305 0.210642 0.071025
0.071087 0.211327 0.069646
0.073876 0.212014 0.068264
0.076671 0.212702 0.066879
0.080178 0.214083 0.063480
0.083701 0.215471 0.060065
0.087241 0.216865 0.056635
0.090074 0.217564 0.055225
0.093640 0.218968 0.051772
0.097223 0.220378 0.048303
0.100823 0.221795 0.044818
0.103694 0.222505 0.043383
0.107322 0.223932 0.039874
0.111722 0.226084 0.034264
0.115390 0.227527 0.030713
0.119074 0.228977 0.027146
0.122001 0.229705 0.025673
0.125714 0.231165 0.022081
0.127094 0.230434 0.024833
0.128471 0.229705 0.027578
0.129844 0.228977 0.030317
0.131998 0.228977 0.030951
0.133366 0.228252 0.033683
0.134730 0.227527 0.036408
0.136091 0.226805 0.039127
0.138238 0.226805 0.039759
0.139593 0.226084 0.042471
0.140946 0.225365 0.045176
0.142295 0.224648 0.047876
0.143641 0.223932 0.050568
0.144984 0.223218 0.053255
0.147118 0.223218 0.053883
0.148455 0.222505 0.056563
0.149789 0.221795 0.059236
0.151121 0.221085 0.061904
0.152449 0.220378 0.064565
0.153774 0.219672 0.067219
0.155895 0.219672 0.067844
0.157215 0.218968 0.070492
0.158531 0.218265 0.073134
0.159845 0.217564 0.075770
0.161959 0.217564 0.076393
0.163267 0.216865 0.079022
0.164572 0.216167 0.081645
0.165874 0.215471 0.084262
0.167173 0.214776 0.086873
0.168469 0.214083 0.089478
0.170571 0.214083 0.090097
0.171862 0.213392 0.092695
0.173149 0.212702 0.095288
0.174434 0.212014 0.097874
0.176529 0.212014 0.098491
0.177808 0.211327 0.101071
0.179901 0.211327 0.101687
0.181175 0.210642 0.104260
0.183265 0.210642 0.104876
0.184534 0.209959 0.107442
0.185800 0.209277 0.110003
0.187063 0.208596 0.112559
0.189146 0.208596 0.113172
0.190404 0.207917 0.115721
0.192485 0.207917 0.116333
0.193737 0.207240 0.118875
0.195816 0.207240 0.119487
0.197063 0.206564 0.122023
0.199139 0.206564 0.122634
0.200382 0.205890 0.125164
0.202455 0.205890 0.125774
0.203692 0.205217 0.128297
0.205764 0.205217 0.128907
0.206996 0.204546 0.131424
0.209065 0.204546 0.132033
0.210292 0.203876 0.134543
0.211516 0.203208 0.137047
0.214425 0.203876 0.135760
0.214799 0.202541 0.140154
0.215172 0.201212 0.144527
0.215543 0.199889 0.148881
0.215073 0.197915 0.155075
0.216280 0.197261 0.157532
0.216646 0.195955 0.161828
0.217010 0.194655 0.166105
0.217373 0.193362 0.170364
0.217734 0.192073 0.174603
0.218926 0.191431 0.177014
0.219282 0.190152 0.181225
0.219637 0.188878 0.185417
0.219991 0.187609 0.189591
0.220343 0.186346 0.193747
0.220693 0.185089 0.197884
0.221042 0.183837 0.202004
0.221389 0.182590 0.206106
0.221735 0.181349 0.210190
0.222079 0.180113 0.214256
0.222422 0.178883 0.218305
0.223582 0.178270 0.220614
0.223920 0.177047 0.224636
0.224257 0.175830 0.228641
0.224593 0.174618 0.232628
0.224927 0.173411 0.236599
0.226073 0.172809 0.238866
0.226403 0.171610 0.242811
0.226731 0.170416 0.246739
0.227059 0.169227 0.250650
0.227384 0.168043 0.254544
0.228517 0.167453 0.256771
0.228838 0.166277 0.260641
0.229159 0.165105 0.264494
0.229478 0.163939 0.268331
0.229795 0.162777 0.272151
0.230111 0.161620 0.275956
0.231228 0.161043 0.278135
0.231540 0.159894 0.281915
0.231851 0.158749 0.285680
0.232161 0.157609 0.289429
0.232469 0.156474 0.293163
0.232777 0.155343 0.296881
0.233878 0.154779 0.299013
0.235773 0.154779 0.299571
0.236870 0.154217 0.301699
0.237965 0.153656 0.303822
0.239857 0.153656 0.304379
0.240947 0.153096 0.306497
0.242837 0.153096 0.307054
0.244727 0.153096 0.307610
0.246617 0.153096 0.308167
0.249317 0.153656 0.307164
0.250397 0.153096 0.309280
0.253915 0.154217 0.306718
0.255809 0.154217 0.307276
0.258524 0.154779 0.306271
0.262070 0.155908 0.303694
0.264799 0.156474 0.302682
0.268369 0.157609 0.300091
0.271954 0.158749 0.297489
0.275554 0.159894 0.294876
0.279169 0.161043 0.292252
0.282799 0.162198 0.289617
0.284721 0.162198 0.290182
0.286643 0.162198 0.290748
0.287701 0.161620 0.292914
0.290486 0.162198 0.291880
0.292408 0.162198 0.292446
0.294329 0.162198 0.293012
0.296251 0.162198 0.293578
0.299048 0.162777 0.292543
0.300971 0.162777 0.293110
0.302895 0.162777 0.293676
0.304819 0.162777 0.294243
0.307627 0.163357 0.293208
0.309553 0.163357 0.293775
0.311479 0.163357 0.294342
0.313404 0.163357 0.294909
0.316225 0.163939 0.293874
0.318153 0.163939 0.294442
0.320080 0.163939 0.295009
0.322008 0.163939 0.295577
0.323936 0.163939 0.296145
0.326771 0.164521 0.295110
0.328700 0.164521 0.295678
0.330630 0.164521 0.296246
0.333475 0.165105 0.295210
0.335406 0.165105 0.295779
0.337338 0.165105 0.296348
0.340193 0.165690 0.295311
0.342127 0.165690 0.295881
0.344061 0.165690 0.296450
0.346925 0.166277 0.295412
0.348861 0.166277 0.295982
0.350797 0.166277 0.296552
0.352733 0.166277 0.297122
0.356553 0.167453 0.294473
0.358493 0.167453 0.295044
0.361382 0.168043 0.294001
0.364278 0.168635 0.292956
0.366222 0.168635 0.293529
0.369125 0.169227 0.292482
0.372035 0.169821 0.291434
0.373983 0.169821 0.292008
0.376901 0.170416 0.290957
0.379825 0.171013 0.289905
0.381778 0.171013 0.290480
0.384710 0.171610 0.289426
0.387649 0.172209 0.288369
0.389605 0.172209 0.288945
0.391562 0.172209 0.289521
0.394511 0.172809 0.288464
0.397466 0.173411 0.287404
0.400428 0.174014 0.286343
0.403396 0.174618 0.285278
0.406371 0.175223 0.284212
0.410368 0.176438 0.281492
0.413359 0.177047 0.280418
0.416357 0.177658 0.279341
0.420393 0.178883 0.276599
0.423408 0.179497 0.275515
0.426430 0.180113 0.274429
0.429459 0.180730 0.273340
0.433545 0.181969 0.270570
0.436591 0.182590 0.269474
0.441770 0.184462 0.264993
0.446984 0.186346 0.260483
0.452231 0.188243 0.255943
-0.357459 0.224613 -0.106672
-0.356156 0.221750 -0.097068
-0.354655 0.219620 -0.089767
-0.353165 0.217506 -0.082516
-0.351471 0.216104 -0.077503
-0.350000 0.214013 -0.070336
-0.348324 0.212627 -0.065379
-0.346872 0.210560 -0.058295
-0.345212 0.209190 -0.053394
-0.343560 0.207827 -0.048515
-0.342136 0.205793 -0.041545
-0.340500 0.204444 -0.036720
-0.338871 0.203102 -0.031918
-0.337250 0.201766 -0.027137
-0.335636 0.200435 -0.022377
-0.334029 0.199111 -0.017639
-0.332429 0.197793 -0.012922
-0.330837 0.196480 -0.008226
-0.329252 0.195174 -0.003551
-0.327673 0.193873 0.001103
-0.325868 0.193225 0.003723
-0.324303 0.191932 0.008345
-0.322508 0.191288 0.010948
-0.321193 0.189365 0.017529
-0.319409 0.188727 0.020110
-0.317629 0.188090 0.022686
-0.316095 0.186820 0.027226
-0.314324 0.186188 0.029785
-0.312312 0.186188 0.030378
-0.310548 0.185556 0.032930
-0.308787 0.184927 0.035478
-0.307031 0.184298 0.038019
-0.305530 0.183045 0.042497
-0.303783 0.182421 0.045022
-0.301783 0.182421 0.045611
-0.300042 0.181797 0.048130
-0.298045 0.181797 0.048718
-0.296310 0.181176 0.051232
-0.294315 0.181176 0.051819
-0.292850 0.179936 0.056242
-0.291126 0.179319 0.058739
-0.289138 0.179319 0.059325
-0.287419 0.178702 0.061816
-0.285433 0.178702 0.062401
-0.283721 0.178087 0.064886
-0.281737 0.178087 0.065470
-0.280030 0.177474 0.067949
-0.278048 0.177474 0.068533
-0.276347 0.176861 0.071006
-0.274368 0.176861 0.071589
-0.272673 0.176250 0.074056
-0.270981 0.175640 0.076517
-0.269006 0.175640 0.077099
-0.267320 0.175032 0.079555
-0.265347 0.175032 0.080136
-0.263374 0.175032 0.080717
-0.261696 0.174425 0.083166
-0.259725 0.174425 0.083747
-0.258053 0.173819 0.086190
-0.256084 0.173819 0.086770
-0.254115 0.173819 0.087350
-0.252450 0.173215 0.089787
-0.250483 0.173215 0.090366
-0.248516 0.173215 0.090945
-0.246550 0.173215 0.091525
-0.244895 0.172611 0.093954
-0.242930 0.172611 0.094533
-0.240965 0.172611 0.095112
-0.239001 0.172611 0.095690
-0.237356 0.172009 0.098113
-0.235393 0.172009 0.098691
-0.233431 0.172009 0.099269
-0.231468 0.172009 0.099847
-0.229833 0.171409 0.102263
-0.227872 0.171409 0.102840
-0.225912 0.171409 0.103417
-0.223951 0.171409 0.103995
-0.222326 0.170809 0.106404
-0.220368 0.170809 0.106980
-0.218409 0.170809 0.107557
-0.216450 0.170809 0.108134
-0.214492 0.170809 0.108710
-0.212533 0.170809 0.109287
-0.210922 0.170211 0.111688
-0.208966 0.170211 0.112264
-0.207009 0.170211 0.112840
-0.205053 0.170211 0.113416
-0.203096 0.170211 0.113992
-0.201140 0.170211 0.114568
-0.199183 0.170211 0.115144
-0.197227 0.170211 0.115720
-0.195270 0.170211 0.116297
-0.193314 0.170211 0.116873
-0.191357 0.170211 0.117449
-0.189401 0.170211 0.118025
-0.187444 0.170211 0.118601
-0.185488 0.170211 0.119177
-0.183531 0.170211 0.119753
-0.181575 0.170211 0.120329
-0.179618 0.170211 0.120905
-0.177662 0.170211 0.121481
-0.175705 0.170211 0.122058
-0.173749 0.170211 0.122634
-0.171792 0.170211 0.123210
-0.169836 0.170211 0.123786
-0.167879 0.170211 0.124362
-0.165923 0.170211 0.124938
-0.163967 0.170211 0.125514
-0.161610 0.170809 0.124282
-0.159652 0.170809 0.124859
-0.157693 0.170809 0.125435
-0.155734 0.170809 0.126012
-0.153367 0.171409 0.124779
-0.151406 0.171409 0.125356
-0.149446 0.171409 0.125933
-0.147069 0.172009 0.124699
-0.145106 0.172009 0.125277
-0.143143 0.172009 0.125855
-0.140757 0.172611 0.124619
-0.138792 0.172611 0.125197
-0.136827 0.172611 0.125776
-0.134432 0.173215 0.124538
-0.132465 0.173215 0.125118
-0.130498 0.173215 0.125697
-0.128093 0.173819 0.124458
-0.126124 0.173819 0.125038
-0.124155 0.173819 0.125618
-0.122186 0.173819 0.126198
-0.119769 0.174425 0.124958
-0.117798 0.174425 0.125538
-0.115375 0.175032 0.124297
-0.113401 0.175032 0.124878
-0.110970 0.175640 0.123634
-0.108995 0.175640 0.124216
-0.106556 0.176250 0.122970
-0.105044 0.175640 0.125379
-0.102601 0.176250 0.124135
-0.100624 0.176250 0.124717
-0.098174 0.176861 0.123470
-0.096194 0.176861 0.124053
-0.093736 0.177474 0.122805
-0.091755 0.177474 0.123388
-0.089290 0.178087 0.122138
-0.087306 0.178087 0.122722
-0.084833 0.178702 0.121469
-0.082847 0.178702 0.122054
-0.080367 0.179319 0.120799
-0.078379 0.179319 0.121384
-0.075891 0.179936 0.120127
-0.073901 0.179936 0.120714
-0.071406 0.180555 0.119455
-0.069413 0.180555 0.120041
-0.066911 0.181176 0.118780
-0.064916 0.181176 0.119368
-0.062406 0.181797 0.118104
-0.059890 0.182421 0.116838
-0.057891 0.182421 0.117427
-0.055368 0.183045 0.116159
-0.052310 0.184298 0.113024
-0.050304 0.184298 0.113614
-0.047765 0.184927 0.112338
-0.045219 0.185556 0.111059
-0.043209 0.185556 0.111651
-0.040656 0.186188 0.110369
-0.038097 0.186820 0.109085
-0.036082 0.186820 0.109678
-0.033516 0.187455 0.108392
-0.031499 0.187455 0.108986
-0.028924 0.188090 0.107697
-0.026905 0.188090 0.108292
-0.024323 0.188727 0.107001
-0.021735 0.189365 0.105707
-0.019711 0.189365 0.106303
-0.017115 0.190005 0.105007
-0.014513 0.190646 0.103709
-0.012486 0.190646 0.104306
-0.009876 0.191288 0.103005
-0.007260 0.191932 0.101701
-0.004639 0.192578 0.100394
-0.002604 0.192578 0.100994
0.000025 0.193225 0.099685
0.002661 0.193873 0.098373
0.005302 0.194523 0.097058
0.007949 0.195174 0.095741
0.010602 0.195826 0.094420
0.013261 0.196480 0.093097
0.015309 0.196480 0.093700
0.017977 0.197136 0.092374
0.020650 0.197793 0.091045
0.023329 0.198451 0.089713
