ply
format ascii 1.0
element vertex 1731
property float x
property float y
property float z
end_header
-0.043712 0.024862 0.127512
-0.041140 0.024889 0.126407
-0.039228 0.024889 0.127103
-0.036649 0.024916 0.125996
-0.034734 0.024916 0.126693
-0.032148 0.024943 0.125584
-0.030231 0.024943 0.126282
-0.027637 0.024970 0.125172
-0.025719 0.024970 0.125870
-0.023117 0.024998 0.124759
-0.021196 0.024998 0.125458
-0.018587 0.025025 0.124345
-0.016664 0.025025 0.125044
-0.014047 0.025052 0.123929
-0.012122 0.025052 0.124630
-0.009498 0.025080 0.123513
-0.007571 0.025080 0.124215
-0.004939 0.025107 0.123097
-0.003010 0.025107 0.123799
-0.000370 0.025135 0.122679
0.001561 0.025135 0.123382
0.004209 0.025162 0.122260
0.006142 0.025162 0.122964
0.008798 0.025190 0.121841
0.010733 0.025190 0.122545
0.013397 0.025218 0.121420
0.015334 0.025218 0.122125
0.017271 0.025218 0.122830
0.019944 0.025246 0.121705
0.021884 0.025246 0.122410
0.024565 0.025273 0.121283
0.027252 0.025301 0.120153
0.029945 0.025329 0.119021
0.031890 0.025329 0.119729
0.034591 0.025357 0.118595
0.036539 0.025357 0.119304
0.039248 0.025386 0.118168
0.041197 0.025386 0.118878
0.043914 0.025414 0.117741
0.045866 0.025414 0.118451
0.048591 0.025442 0.117312
0.050545 0.025442 0.118024
0.052499 0.025442 0.118735
0.054453 0.025442 0.119446
0.057190 0.025470 0.118307
0.059146 0.025470 0.119019
0.061891 0.025499 0.117878
0.064643 0.025527 0.116735
0.066603 0.025527 0.117448
0.070163 0.025584 0.114440
0.072128 0.025584 0.115155
0.074899 0.025613 0.114005
0.076866 0.025613 0.114721
0.078833 0.025613 0.115437
0.081615 0.025641 0.114286
0.083584 0.025641 0.115003
0.086374 0.025670 0.113850
0.088345 0.025670 0.114567
0.091143 0.025699 0.113413
0.093117 0.025699 0.114131
0.095923 0.025728 0.112975
0.097899 0.025728 0.113694
0.100714 0.025756 0.112536
0.103535 0.025785 0.111375
0.105515 0.025785 0.112096
0.108344 0.025814 0.110933
0.110327 0.025814 0.111655
0.113165 0.025844 0.110491
0.115149 0.025844 0.111213
0.117133 0.025844 0.111935
0.119982 0.025873 0.110770
0.121968 0.025873 0.111493
0.124825 0.025902 0.110326
0.126814 0.025902 0.111050
0.128803 0.025902 0.111774
0.130791 0.025902 0.112498
0.132780 0.025902 0.113221
0.134769 0.025902 0.113945
0.136757 0.025902 0.114669
0.139634 0.025931 0.113504
0.141625 0.025931 0.114229
0.143616 0.025931 0.114954
0.145606 0.025931 0.115678
0.147597 0.025931 0.116403
0.148689 0.025902 0.119012
0.150678 0.025902 0.119736
0.152666 0.025902 0.120459
0.155561 0.025931 0.119301
0.157551 0.025931 0.120026
0.158632 0.025902 0.122631
0.160621 0.025902 0.123355
0.162609 0.025902 0.124078
0.164598 0.025902 0.124802
0.166587 0.025902 0.125526
0.168575 0.025902 0.126250
0.170564 0.025902 0.126974
0.172553 0.025902 0.127697
0.174541 0.025902 0.128421
0.176530 0.025902 0.129145
0.178518 0.025902 0.129869
0.180507 0.025902 0.130593
0.182496 0.025902 0.131316
0.094018 0.023079 0.312249
0.095046 0.023056 0.314384
0.096071 0.023032 0.316515
0.097094 0.023009 0.318642
0.098865 0.023009 0.319286
0.099884 0.022986 0.321408
0.100902 0.022963 0.323526
0.101917 0.022940 0.325639
0.102930 0.022917 0.327748
0.104694 0.022917 0.328390
0.105704 0.022894 0.330495
0.106712 0.022871 0.332595
0.107717 0.022848 0.334692
0.108721 0.022825 0.336784
0.110478 0.022825 0.337423
0.111478 0.022802 0.339511
0.112477 0.022779 0.341594
0.113473 0.022756 0.343673
0.114467 0.022734 0.345749
0.116217 0.022734 0.346386
0.117208 0.022711 0.348456
0.118197 0.022688 0.350523
0.119183 0.022666 0.352586
0.120929 0.022666 0.353221
0.121912 0.022643 0.355279
0.122893 0.022621 0.357333
0.124635 0.022621 0.357967
0.125612 0.022599 0.360016
0.126588 0.022576 0.362062
0.127562 0.022554 0.364103
0.129299 0.022554 0.364735
0.130269 0.022531 0.366772
0.131238 0.022509 0.368805
0.132204 0.022487 0.370834
0.133169 0.022465 0.372860
0.134899 0.022465 0.373489
0.135860 0.022443 0.375510
0.136820 0.022421 0.377527
0.138547 0.022421 0.378155
0.140273 0.022421 0.378784
0.142000 0.022421 0.379412
0.143727 0.022421 0.380041
0.146232 0.022443 0.379285
0.147960 0.022443 0.379914
0.149689 0.022443 0.380543
0.152202 0.022465 0.379787
0.153932 0.022465 0.380417
0.156451 0.022487 0.379659
0.158975 0.022509 0.378901
0.161504 0.022531 0.378141
0.164038 0.022554 0.377379
0.166576 0.022576 0.376616
0.169120 0.022599 0.375852
0.171668 0.022621 0.375086
0.174222 0.022643 0.374318
0.176780 0.022666 0.373549
0.179344 0.022688 0.372779
0.181912 0.022711 0.372007
0.184485 0.022734 0.371233
0.186236 0.022734 0.371870
0.188816 0.022756 0.371096
0.190568 0.022756 0.371734
0.193155 0.022779 0.370959
0.196586 0.022825 0.368764
0.200031 0.022871 0.366561
0.203490 0.022917 0.364349
0.207818 0.022986 0.360693
0.212173 0.023056 0.357015
0.216553 0.023126 0.353315
0.220959 0.023196 0.349594
0.227165 0.023315 0.342906
0.230744 0.023362 0.340605
0.236139 0.023458 0.335318
0.240666 0.023531 0.331489
0.247060 0.023653 0.324615
0.252587 0.023751 0.319199
0.259101 0.023875 0.312199
0.264729 0.023976 0.306681
0.273296 0.024153 0.296409
0.281988 0.024333 0.285987
0.282874 0.024307 0.288262
0.283759 0.024281 0.290533
0.284641 0.024255 0.292799
0.286506 0.024255 0.293478
0.287385 0.024230 0.295739
0.289248 0.024230 0.296417
0.290123 0.024204 0.298672
0.291984 0.024204 0.299349
0.293845 0.024204 0.300027
0.294714 0.024179 0.302276
0.296573 0.024179 0.302952
0.298432 0.024179 0.303629
0.300291 0.024179 0.304306
0.302151 0.024179 0.304982
0.304010 0.024179 0.305659
0.305869 0.024179 0.306336
0.307728 0.024179 0.307012
0.309587 0.024179 0.307689
0.311446 0.024179 0.308366
0.313305 0.024179 0.309042
0.314153 0.024153 0.311280
0.317023 0.024179 0.310396
0.318882 0.024179 0.311072
0.320741 0.024179 0.311749
0.323621 0.024204 0.310864
0.324459 0.024179 0.313102
0.326319 0.024179 0.313779
0.329204 0.024204 0.312896
0.331065 0.024204 0.313573
0.332926 0.024204 0.314251
0.334787 0.024204 0.314928
0.337684 0.024230 0.314046
0.339547 0.024230 0.314724
0.342452 0.024255 0.313841
0.344317 0.024255 0.314519
0.347230 0.024281 0.313635
0.349097 0.024281 0.314314
0.352018 0.024307 0.313428
0.353886 0.024307 0.314109
0.356815 0.024333 0.313222
0.359751 0.024359 0.312333
0.360557 0.024333 0.314584
0.363496 0.024359 0.313696
0.366441 0.024385 0.312807
0.368316 0.024385 0.313489
0.371269 0.024411 0.312599
0.374228 0.024437 0.311707
0.377194 0.024463 0.310813
0.380166 0.024489 0.309917
0.383144 0.024516 0.309020
0.387231 0.024568 0.306531
0.390226 0.024595 0.305627
0.394340 0.024648 0.303124
0.397352 0.024674 0.302213
0.400370 0.024701 0.301301
0.404524 0.024754 0.298777
0.408694 0.024808 0.296243
0.415175 0.024916 0.290446
0.421711 0.025025 0.284600
-0.480206 0.026344 -0.319858
-0.478910 0.026213 -0.308646
-0.478074 0.026020 -0.292426
-0.476355 0.025956 -0.286546
-0.474416 0.025924 -0.283223
-0.472482 0.025892 -0.279907
-0.470553 0.025860 -0.276600
-0.468629 0.025828 -0.273301
-0.466709 0.025797 -0.270010
-0.464793 0.025765 -0.266726
-0.462643 0.025765 -0.265943
-0.460976 0.025702 -0.260183
-0.458831 0.025702 -0.259402
-0.456932 0.025671 -0.256143
-0.454789 0.025671 -0.255363
-0.452897 0.025640 -0.252113
-0.450757 0.025640 -0.251334
-0.448617 0.025640 -0.250555
-0.446735 0.025609 -0.247314
-0.444597 0.025609 -0.246536
-0.442459 0.025609 -0.245758
-0.440586 0.025578 -0.242526
-0.438451 0.025578 -0.241749
-0.436316 0.025578 -0.240972
-0.434181 0.025578 -0.240195
-0.432320 0.025547 -0.236974
-0.430188 0.025547 -0.236198
-0.428055 0.025547 -0.235422
-0.425923 0.025547 -0.234646
-0.423506 0.025578 -0.236310
-0.421371 0.025578 -0.235533
-0.419236 0.025578 -0.234755
-0.416808 0.025609 -0.236421
-0.414671 0.025609 -0.235643
-0.412533 0.025609 -0.234865
-0.410395 0.025609 -0.234087
-0.408258 0.025609 -0.233309
-0.406120 0.025609 -0.232531
-0.403983 0.025609 -0.231753
-0.401534 0.025640 -0.233418
-0.401574 0.025423 -0.215669
-0.401613 0.025211 -0.198212
-0.401652 0.025001 -0.181038
-0.401389 0.024824 -0.166431
-0.400829 0.024679 -0.154287
-0.400275 0.024535 -0.142281
-0.399428 0.024421 -0.132626
-0.398290 0.024336 -0.125257
-0.397159 0.024252 -0.117938
-0.395735 0.024196 -0.112840
-0.394318 0.024141 -0.107766
-0.392907 0.024085 -0.102714
-0.391503 0.024030 -0.097685
-0.390104 0.023976 -0.092678
-0.388712 0.023921 -0.087694
-0.387326 0.023867 -0.082732
-0.385946 0.023813 -0.077791
-0.384264 0.023786 -0.074967
-0.382896 0.023732 -0.070061
-0.381843 0.023652 -0.063101
-0.380177 0.023625 -0.060312
-0.378514 0.023599 -0.057529
-0.377169 0.023546 -0.052698
-0.375515 0.023519 -0.049932
-0.373865 0.023493 -0.047173
-0.372536 0.023441 -0.042385
-0.370894 0.023415 -0.039643
-0.369256 0.023388 -0.036907
-0.367942 0.023336 -0.032163
-0.366313 0.023311 -0.029443
-0.364687 0.023285 -0.026730
-0.363064 0.023259 -0.024022
-0.361445 0.023233 -0.021321
-0.359830 0.023208 -0.018625
-0.357888 0.023208 -0.017918
-0.356609 0.023156 -0.013251
-0.355004 0.023131 -0.010573
-0.353402 0.023105 -0.007900
-0.351804 0.023080 -0.005233
-0.350209 0.023055 -0.002572
-0.348281 0.023055 -0.001870
-0.346691 0.023029 0.000785
-0.345105 0.023004 0.003434
-0.343181 0.023004 0.004135
-0.341600 0.022979 0.006777
-0.340023 0.022954 0.009414
-0.338450 0.022929 0.012046
-0.336879 0.022904 0.014671
-0.335312 0.022879 0.017291
-0.333398 0.022879 0.017988
-0.331836 0.022854 0.020602
-0.330278 0.022829 0.023210
-0.328723 0.022804 0.025813
-0.327171 0.022779 0.028410
-0.325265 0.022779 0.029104
-0.323718 0.022754 0.031695
-0.322175 0.022730 0.034281
-0.320273 0.022730 0.034973
-0.318735 0.022705 0.037552
-0.317201 0.022681 0.040126
-0.315302 0.022681 0.040817
-0.313773 0.022656 0.043385
-0.311877 0.022656 0.044075
-0.310352 0.022632 0.046637
-0.308832 0.022607 0.049193
-0.306939 0.022607 0.049881
-0.305423 0.022583 0.052431
-0.303533 0.022583 0.053119
-0.301643 0.022583 0.053808
-0.299752 0.022583 0.054496
-0.298246 0.022559 0.057038
-0.296357 0.022559 0.057725
-0.294856 0.022534 0.060262
-0.292970 0.022534 0.060948
-0.291083 0.022534 0.061635
-0.289589 0.022510 0.064165
-0.287705 0.022510 0.064851
-0.286215 0.022486 0.067374
-0.284333 0.022486 0.068059
-0.282450 0.022486 0.068745
-0.280968 0.022462 0.071262
-0.279088 0.022462 0.071946
-0.277207 0.022462 0.072630
-0.275732 0.022438 0.075141
-0.273854 0.022438 0.075825
-0.271975 0.022438 0.076508
-0.270507 0.022414 0.079012
-0.268631 0.022414 0.079695
-0.266754 0.022414 0.080378
-0.264877 0.022414 0.081061
-0.263001 0.022414 0.081744
-0.261544 0.022390 0.084239
-0.259669 0.022390 0.084922
-0.258217 0.022366 0.087411
-0.256344 0.022366 0.088093
-0.254472 0.022366 0.088774
-0.253026 0.022342 0.091258
-0.251156 0.022342 0.091938
-0.249285 0.022342 0.092619
-0.247414 0.022342 0.093300
-0.245978 0.022318 0.095776
-0.244109 0.022318 0.096456
-0.242240 0.022318 0.097136
-0.240811 0.022295 0.099605
-0.238944 0.022295 0.100285
-0.237077 0.022295 0.100964
-0.235210 0.022295 0.101644
-0.233789 0.022271 0.104106
-0.231924 0.022271 0.104785
-0.230060 0.022271 0.105463
-0.228195 0.022271 0.106142
-0.226330 0.022271 0.106821
-0.224920 0.022247 0.109275
-0.223057 0.022247 0.109953
-0.221194 0.022247 0.110631
-0.219331 0.022247 0.111309
-0.217468 0.022247 0.111987
-0.215605 0.022247 0.112665
-0.213742 0.022247 0.113343
-0.211879 0.022247 0.114021
-0.209546 0.022271 0.112930
-0.207681 0.022271 0.113608
-0.205816 0.022271 0.114287
-0.203952 0.022271 0.114966
-0.202087 0.022271 0.115645
-0.200222 0.022271 0.116323
-0.198357 0.022271 0.117002
-0.196492 0.022271 0.117681
-0.195113 0.022247 0.120124
-0.193250 0.022247 0.120802
-0.191387 0.022247 0.121480
-0.189524 0.022247 0.122158
-0.187661 0.022247 0.122836
-0.185798 0.022247 0.123514
-0.183935 0.022247 0.124192
-0.182072 0.022247 0.124870
-0.179708 0.022271 0.123790
-0.177844 0.022271 0.124468
-0.175979 0.022271 0.125147
-0.174114 0.022271 0.125826
-0.172249 0.022271 0.126505
-0.170384 0.022271 0.127183
-0.168519 0.022271 0.127862
-0.166139 0.022295 0.126784
-0.164272 0.022295 0.127463
-0.162405 0.022295 0.128143
-0.160538 0.022295 0.128822
-0.158672 0.022295 0.129502
-0.156278 0.022318 0.128424
-0.154410 0.022318 0.129104
-0.152541 0.022318 0.129784
-0.150672 0.022318 0.130464
-0.148268 0.022342 0.129386
-0.146397 0.022342 0.130067
-0.144527 0.022342 0.130748
-0.142114 0.022366 0.129669
-0.140241 0.022366 0.130351
-0.138369 0.022366 0.131033
-0.136496 0.022366 0.131714
-0.134072 0.022390 0.130635
-0.132198 0.022390 0.131318
-0.130323 0.022390 0.132000
-0.127890 0.022414 0.130920
-0.126014 0.022414 0.131603
-0.123574 0.022438 0.130522
-0.121695 0.022438 0.131206
-0.119817 0.022438 0.131889
-0.117938 0.022438 0.132573
-0.115487 0.022462 0.131492
-0.113031 0.022486 0.130408
-0.111149 0.022486 0.131093
-0.108686 0.022510 0.130008
-0.106802 0.022510 0.130694
-0.104331 0.022534 0.129607
-0.102445 0.022534 0.130294
-0.099968 0.022559 0.129206
-0.098079 0.022559 0.129893
-0.095595 0.022583 0.128803
-0.093704 0.022583 0.129491
-0.091814 0.022583 0.130179
-0.089320 0.022607 0.129088
-0.087428 0.022607 0.129777
-0.084927 0.022632 0.128685
-0.083032 0.022632 0.129374
-0.080524 0.022656 0.128280
-0.078010 0.022681 0.127184
-0.076112 0.022681 0.127875
-0.073591 0.022705 0.126777
-0.071691 0.022705 0.127469
-0.069162 0.022730 0.126370
-0.067260 0.022730 0.127062
-0.064724 0.022754 0.125961
-0.062820 0.022754 0.126654
-0.060277 0.022779 0.125552
-0.058371 0.022779 0.126246
-0.056464 0.022779 0.126940
-0.053912 0.022804 0.125836
-0.052003 0.022804 0.126531
-0.049443 0.022829 0.125426
-0.047533 0.022829 0.126121
-0.045622 0.022829 0.126816
-0.043053 0.022854 0.125711
-0.041140 0.022854 0.126407
-0.038563 0.022879 0.125299
-0.036649 0.022879 0.125996
-0.034064 0.022904 0.124887
-0.032148 0.022904 0.125584
-0.029556 0.022929 0.124474
-0.027637 0.022929 0.125172
-0.025037 0.022954 0.124060
-0.023117 0.022954 0.124759
-0.021196 0.022954 0.125458
-0.018587 0.022979 0.124345
-0.016664 0.022979 0.125044
-0.014047 0.023004 0.123929
-0.012122 0.023004 0.124630
-0.009498 0.023029 0.123513
-0.006867 0.023055 0.122395
-0.004939 0.023055 0.123097
-0.002300 0.023080 0.121976
-0.000370 0.023080 0.122679
0.002276 0.023105 0.121557
0.004209 0.023105 0.122260
0.006863 0.023131 0.121136
0.008798 0.023131 0.121841
0.011459 0.023156 0.120715
0.013397 0.023156 0.121420
0.015334 0.023156 0.122125
0.018005 0.023182 0.120999
0.019944 0.023182 0.121705
0.022623 0.023208 0.120576
0.024565 0.023208 0.121283
0.027252 0.023233 0.120153
0.029945 0.023259 0.119021
0.031890 0.023259 0.119729
0.034591 0.023285 0.118595
0.036539 0.023285 0.119304
0.039248 0.023311 0.118168
0.041197 0.023311 0.118878
0.043914 0.023336 0.117741
0.045866 0.023336 0.118451
0.048591 0.023362 0.117312
0.050545 0.023362 0.118024
0.053278 0.023388 0.116883
0.055234 0.023388 0.117595
0.057975 0.023415 0.116452
0.060722 0.023441 0.115307
0.062682 0.023441 0.116021
0.064643 0.023441 0.116735
0.068198 0.023493 0.113725
0.070163 0.023493 0.114440
0.072932 0.023519 0.113289
0.074899 0.023519 0.114005
0.076866 0.023519 0.114721
0.079646 0.023546 0.113569
0.081615 0.023546 0.114286
0.084403 0.023572 0.113132
0.086374 0.023572 0.113850
0.089170 0.023599 0.112695
0.091143 0.023599 0.113413
0.093948 0.023625 0.112256
0.095923 0.023625 0.112975
0.098736 0.023652 0.111816
0.100714 0.023652 0.112536
0.103535 0.023678 0.111375
0.105515 0.023678 0.112096
0.108344 0.023705 0.110933
0.110327 0.023705 0.111655
0.113165 0.023732 0.110491
0.115149 0.023732 0.111213
0.117995 0.023759 0.110047
0.119982 0.023759 0.110770
0.122837 0.023786 0.109602
0.124825 0.023786 0.110326
0.127689 0.023813 0.109157
0.129680 0.023813 0.109881
0.131671 0.023813 0.110606
0.132780 0.023786 0.113221
0.134769 0.023786 0.113945
0.136757 0.023786 0.114669
0.139634 0.023813 0.113504
0.141625 0.023813 0.114229
0.143616 0.023813 0.114954
0.145606 0.023813 0.115678
0.147597 0.023813 0.116403
0.149588 0.023813 0.117127
0.151579 0.023813 0.117852
0.153570 0.023813 0.118577
0.155561 0.023813 0.119301
0.157551 0.023813 0.120026
0.159542 0.023813 0.120750
0.161533 0.023813 0.121475
0.163524 0.023813 0.122200
0.165515 0.023813 0.122924
0.167506 0.023813 0.123649
0.169496 0.023813 0.124373
0.170564 0.023786 0.126974
0.172553 0.023786 0.127697
0.174541 0.023786 0.128421
0.176530 0.023786 0.129145
0.178518 0.023786 0.129869
0.092706 0.021253 0.306467
0.090752 0.021146 0.314579
0.091780 0.021124 0.316708
0.092807 0.021103 0.318832
0.093831 0.021082 0.320952
0.095599 0.021082 0.321595
0.096619 0.021060 0.323711
0.097638 0.021039 0.325822
0.098654 0.021018 0.327929
0.099669 0.020997 0.330032
0.100681 0.020976 0.332131
0.102440 0.020976 0.332771
0.103449 0.020955 0.334865
0.104456 0.020934 0.336955
0.106212 0.020934 0.337594
0.107215 0.020913 0.339679
0.108216 0.020892 0.341760
0.109215 0.020871 0.343837
0.110966 0.020871 0.344474
0.111962 0.020850 0.346547
0.112955 0.020829 0.348615
0.113947 0.020809 0.350680
0.115692 0.020809 0.351315
0.116681 0.020788 0.353375
0.117667 0.020767 0.355431
0.118651 0.020747 0.357483
0.119634 0.020726 0.359531
0.121372 0.020726 0.360163
0.122351 0.020705 0.362207
0.123328 0.020685 0.364246
0.125063 0.020685 0.364878
0.126037 0.020664 0.366912
0.127008 0.020644 0.368943
0.127978 0.020624 0.370970
0.129708 0.020624 0.371600
0.130675 0.020603 0.373623
0.131639 0.020583 0.375641
0.132601 0.020563 0.377656
0.133562 0.020542 0.379667
0.135285 0.020542 0.380294
0.137009 0.020542 0.380921
0.138733 0.020542 0.381549
0.140456 0.020542 0.382176
0.142180 0.020542 0.382803
0.144678 0.020563 0.382051
0.146403 0.020563 0.382679
0.148129 0.020563 0.383307
0.150635 0.020583 0.382555
0.152362 0.020583 0.383184
0.154875 0.020603 0.382431
0.157392 0.020624 0.381676
0.159915 0.020644 0.380920
0.162442 0.020664 0.380163
0.164974 0.020685 0.379404
0.167511 0.020705 0.378644
0.170053 0.020726 0.377882
0.173410 0.020767 0.375720
0.175965 0.020788 0.374953
0.178526 0.020809 0.374184
0.181912 0.020850 0.372007
0.183661 0.020850 0.372643
0.186236 0.020871 0.371870
0.187986 0.020871 0.372508
0.190568 0.020892 0.371734
0.192320 0.020892 0.372372
0.196586 0.020955 0.368764
0.200031 0.020997 0.366561
0.203490 0.021039 0.364349
0.207818 0.021103 0.360693
0.211309 0.021146 0.358458
0.216553 0.021232 0.353315
0.220959 0.021296 0.349594
0.226277 0.021384 0.344379
0.230744 0.021449 0.340605
0.236139 0.021538 0.335318
0.241577 0.021627 0.329988
0.247060 0.021717 0.324615
0.253519 0.021830 0.317671
0.259101 0.021921 0.312199
0.265681 0.022037 0.305127
0.281100 0.022366 0.283707
0.281988 0.022342 0.285987
0.282874 0.022318 0.288262
0.283759 0.022295 0.290533
0.284641 0.022271 0.292799
0.286506 0.022271 0.293478
0.287385 0.022247 0.295739
0.289248 0.022247 0.296417
0.291111 0.022247 0.297095
0.291984 0.022224 0.299349
0.293845 0.022224 0.300027
0.294714 0.022200 0.302276
0.296573 0.022200 0.302952
0.298432 0.022200 0.303629
0.300291 0.022200 0.304306
0.302151 0.022200 0.304982
0.304010 0.022200 0.305659
0.305869 0.022200 0.306336
0.307728 0.022200 0.307012
0.309587 0.022200 0.307689
0.311446 0.022200 0.308366
0.313305 0.022200 0.309042
0.314153 0.022177 0.311280
0.316010 0.022177 0.311956
0.318882 0.022200 0.311072
0.320741 0.022200 0.311749
0.322600 0.022200 0.312425
0.324459 0.022200 0.313102
0.326319 0.022200 0.313779
0.329204 0.022224 0.312896
0.331065 0.022224 0.313573
0.332926 0.022224 0.314251
0.334787 0.022224 0.314928
0.337684 0.022247 0.314046
0.339547 0.022247 0.314724
0.342452 0.022271 0.313841
0.344317 0.022271 0.314519
0.346182 0.022271 0.315198
0.349097 0.022295 0.314314
0.350964 0.022295 0.314994
0.353886 0.022318 0.314109
0.356815 0.022342 0.313222
0.358686 0.022342 0.313903
0.360557 0.022342 0.314584
0.363496 0.022366 0.313696
0.365369 0.022366 0.314378
0.368316 0.022390 0.313489
0.371269 0.022414 0.312599
0.374228 0.022438 0.311707
0.377194 0.022462 0.310813
0.380166 0.022486 0.309917
0.384242 0.022534 0.307433
0.387231 0.022559 0.306531
0.390226 0.022583 0.305627
0.394340 0.022632 0.303124
0.397352 0.022656 0.302213
0.400370 0.022681 0.301301
0.404524 0.022730 0.298777
0.409832 0.022804 0.294625
0.416325 0.022904 0.288815
-0.478009 0.024006 -0.319058
-0.476950 0.023856 -0.305264
-0.475903 0.023709 -0.291635
-0.474189 0.023651 -0.285757
-0.472253 0.023621 -0.282435
-0.470322 0.023592 -0.279121
-0.468395 0.023563 -0.275815
-0.466237 0.023563 -0.275029
-0.464317 0.023534 -0.271732
-0.462403 0.023506 -0.268442
-0.460493 0.023477 -0.265161
-0.458587 0.023448 -0.261887
-0.456686 0.023420 -0.258621
-0.454541 0.023420 -0.257840
-0.452647 0.023391 -0.254583
-0.450504 0.023391 -0.253803
-0.448617 0.023362 -0.250555
-0.446477 0.023362 -0.249776
-0.444597 0.023334 -0.246536
-0.442459 0.023334 -0.245758
-0.440322 0.023334 -0.244980
-0.438451 0.023306 -0.241749
-0.436316 0.023306 -0.240972
-0.434181 0.023306 -0.240195
-0.432046 0.023306 -0.239418
-0.429911 0.023306 -0.238641
-0.427776 0.023306 -0.237864
-0.425641 0.023306 -0.237087
-0.423506 0.023306 -0.236310
-0.421371 0.023306 -0.235533
-0.419236 0.023306 -0.234755
-0.416808 0.023334 -0.236421
-0.414671 0.023334 -0.235643
-0.412533 0.023334 -0.234865
-0.410395 0.023334 -0.234087
-0.407954 0.023362 -0.235755
-0.406120 0.023334 -0.232531
-0.403983 0.023334 -0.231753
-0.401534 0.023362 -0.233418
-0.399707 0.023334 -0.230197
-0.400999 0.023026 -0.202951
-0.401043 0.022834 -0.185699
-0.401087 0.022644 -0.168725
-0.400527 0.022511 -0.156554
-0.399975 0.022380 -0.144522
-0.399128 0.022275 -0.134845
-0.397990 0.022198 -0.127461
-0.396859 0.022121 -0.120126
-0.395735 0.022044 -0.112840
-0.394318 0.021994 -0.107766
-0.392907 0.021943 -0.102714
-0.391199 0.021918 -0.099831
-0.389799 0.021868 -0.094814
-0.388406 0.021818 -0.089819
-0.387020 0.021768 -0.084846
-0.385639 0.021719 -0.079896
-0.384264 0.021669 -0.074967
-0.382896 0.021620 -0.070061
-0.381534 0.021572 -0.065175
-0.380177 0.021523 -0.060312
-0.378514 0.021499 -0.057529
-0.377169 0.021450 -0.052698
-0.375515 0.021426 -0.049932
-0.373865 0.021402 -0.047173
-0.372536 0.021354 -0.042385
-0.370894 0.021331 -0.039643
-0.369256 0.021307 -0.036907
-0.367621 0.021283 -0.034176
-0.365990 0.021259 -0.031452
-0.364363 0.021236 -0.028734
-0.362739 0.021212 -0.026021
-0.361119 0.021188 -0.023314
-0.359502 0.021165 -0.020613
-0.357888 0.021142 -0.017918
-0.356278 0.021118 -0.015229
-0.355004 0.021071 -0.010573
-0.353402 0.021048 -0.007900
-0.351469 0.021048 -0.007196
-0.349873 0.021025 -0.004530
-0.348281 0.021002 -0.001870
-0.346691 0.020979 0.000785
-0.344764 0.020979 0.001486
-0.343181 0.020956 0.004135
-0.341600 0.020933 0.006777
-0.340023 0.020910 0.009414
-0.338450 0.020887 0.012046
-0.336879 0.020864 0.014671
-0.334963 0.020864 0.015369
-0.333398 0.020841 0.017988
-0.331836 0.020818 0.020602
-0.330278 0.020796 0.023210
-0.328723 0.020773 0.025813
-0.326814 0.020773 0.026508
-0.325265 0.020750 0.029104
-0.323718 0.020728 0.031695
-0.322175 0.020705 0.034281
-0.320273 0.020705 0.034973
-0.318735 0.020683 0.037552
-0.317201 0.020660 0.040126
-0.315302 0.020660 0.040817
-0.313773 0.020638 0.043385
-0.312247 0.020616 0.045947
-0.310352 0.020616 0.046637
-0.308458 0.020616 0.047326
-0.306939 0.020593 0.049881
-0.305047 0.020593 0.050570
-0.303155 0.020593 0.051259
-0.301643 0.020571 0.053808
-0.299752 0.020571 0.054496
-0.297862 0.020571 0.055184
-0.296357 0.020549 0.057725
-0.294469 0.020549 0.058413
-0.292970 0.020527 0.060948
-0.291083 0.020527 0.061635
-0.289589 0.020505 0.064165
-0.287705 0.020505 0.064851
-0.285820 0.020505 0.065536
-0.284333 0.020483 0.068059
-0.282450 0.020483 0.068745
-0.280568 0.020483 0.069430
-0.279088 0.020461 0.071946
-0.277207 0.020461 0.072630
-0.275327 0.020461 0.073315
-0.273854 0.020439 0.075825
-0.271975 0.020439 0.076508
-0.270097 0.020439 0.077192
-0.268631 0.020417 0.079695
-0.266340 0.020439 0.078559
-0.264877 0.020417 0.081061
-0.263001 0.020417 0.081744
-0.261544 0.020395 0.084239
-0.259669 0.020395 0.084922
-0.257794 0.020395 0.085604
-0.256344 0.020373 0.088093
-0.254472 0.020373 0.088774
-0.252599 0.020373 0.089456
-0.251156 0.020351 0.091938
-0.249285 0.020351 0.092619
-0.247414 0.020351 0.093300
-0.245543 0.020351 0.093981
-0.244109 0.020330 0.096456
-0.242240 0.020330 0.097136
-0.240371 0.020330 0.097816
-0.238944 0.020308 0.100285
-0.237077 0.020308 0.100964
-0.235210 0.020308 0.101644
-0.233789 0.020286 0.104106
-0.231924 0.020286 0.104785
-0.230060 0.020286 0.105463
-0.228195 0.020286 0.106142
-0.226330 0.020286 0.106821
-0.224465 0.020286 0.107500
-0.222600 0.020286 0.108178
-0.220735 0.020286 0.108857
-0.218870 0.020286 0.109536
-0.217006 0.020286 0.110215
-0.215141 0.020286 0.110893
-0.213276 0.020286 0.111572
-0.211411 0.020286 0.112251
-0.209546 0.020286 0.112930
-0.207681 0.020286 0.113608
-0.205816 0.020286 0.114287
-0.203952 0.020286 0.114966
-0.202087 0.020286 0.115645
-0.200222 0.020286 0.116323
-0.198357 0.020286 0.117002
-0.196492 0.020286 0.117681
-0.194627 0.020286 0.118360
-0.192762 0.020286 0.119038
-0.190898 0.020286 0.119717
-0.189033 0.020286 0.120396
-0.187168 0.020286 0.121075
-0.185303 0.020286 0.121753
-0.183438 0.020286 0.122432
-0.181573 0.020286 0.123111
-0.179708 0.020286 0.123790
-0.177844 0.020286 0.124468
-0.175979 0.020286 0.125147
-0.174114 0.020286 0.125826
-0.172249 0.020286 0.126505
-0.169872 0.020308 0.125425
-0.168006 0.020308 0.126104
-0.166139 0.020308 0.126784
-0.164272 0.020308 0.127463
-0.162405 0.020308 0.128143
-0.160016 0.020330 0.127064
-0.158147 0.020330 0.127744
-0.156278 0.020330 0.128424
-0.154410 0.020330 0.129104
-0.152009 0.020351 0.128025
-0.150139 0.020351 0.128706
-0.147732 0.020373 0.127625
-0.145859 0.020373 0.128306
-0.143986 0.020373 0.128988
-0.142114 0.020373 0.129669
-0.140241 0.020373 0.130351
-0.138369 0.020373 0.131033
-0.135947 0.020395 0.129953
-0.134072 0.020395 0.130635
-0.132198 0.020395 0.131318
-0.130323 0.020395 0.132000
-0.127890 0.020417 0.130920
-0.125452 0.020439 0.129838
-0.123574 0.020439 0.130522
-0.121695 0.020439 0.131206
-0.119817 0.020439 0.131889
-0.117368 0.020461 0.130807
-0.114914 0.020483 0.129723
-0.113031 0.020483 0.130408
-0.111149 0.020483 0.131093
-0.108686 0.020505 0.130008
-0.106802 0.020505 0.130694
-0.104331 0.020527 0.129607
-0.102445 0.020527 0.130294
-0.099968 0.020549 0.129206
-0.098079 0.020549 0.129893
-0.095595 0.020571 0.128803
-0.093704 0.020571 0.129491
-0.091212 0.020593 0.128400
-0.089320 0.020593 0.129088
-0.086821 0.020616 0.127995
-0.084927 0.020616 0.128685
-0.082420 0.020638 0.127590
-0.079909 0.020660 0.126493
-0.078010 0.020660 0.127184
-0.076112 0.020660 0.127875
-0.073591 0.020683 0.126777
-0.071691 0.020683 0.127469
-0.069162 0.020705 0.126370
-0.067260 0.020705 0.127062
-0.064724 0.020728 0.125961
-0.062820 0.020728 0.126654
-0.060277 0.020750 0.125552
-0.058371 0.020750 0.126246
-0.055820 0.020773 0.125142
-0.053912 0.020773 0.125836
-0.051354 0.020796 0.124730
-0.049443 0.020796 0.125426
-0.046878 0.020818 0.124318
-0.044965 0.020818 0.125014
-0.043053 0.020818 0.125711
-0.041140 0.020818 0.126407
-0.038563 0.020841 0.125299
-0.036649 0.020841 0.125996
-0.034064 0.020864 0.124887
-0.032148 0.020864 0.125584
-0.029556 0.020887 0.124474
-0.027637 0.020887 0.125172
-0.025037 0.020910 0.124060
-0.023117 0.020910 0.124759
-0.020510 0.020933 0.123645
-0.018587 0.020933 0.124345
-0.015972 0.020956 0.123229
-0.014047 0.020956 0.123929
-0.011424 0.020979 0.122812
-0.008796 0.021002 0.121693
-0.006867 0.021002 0.122395
-0.004939 0.021002 0.123097
-0.002300 0.021025 0.121976
-0.000370 0.021025 0.122679
0.002276 0.021048 0.121557
0.004209 0.021048 0.122260
0.006863 0.021071 0.121136
0.008798 0.021071 0.121841
0.011459 0.021095 0.120715
0.013397 0.021095 0.121420
0.016066 0.021118 0.120293
0.018005 0.021118 0.120999
0.020682 0.021142 0.119870
0.022623 0.021142 0.120576
0.025308 0.021165 0.119446
0.027999 0.021188 0.118313
0.029945 0.021188 0.119021
0.031890 0.021188 0.119729
0.034591 0.021212 0.118595
0.036539 0.021212 0.119304
0.039248 0.021236 0.118168
0.041197 0.021236 0.118878
0.043914 0.021259 0.117741
0.045866 0.021259 0.118451
0.048591 0.021283 0.117312
0.050545 0.021283 0.118024
0.053278 0.021307 0.116883
0.056017 0.021331 0.115740
0.057975 0.021331 0.116452
0.060722 0.021354 0.115307
0.062682 0.021354 0.116021
0.064643 0.021354 0.116735
0.068198 0.021402 0.113725
0.070163 0.021402 0.114440
0.072932 0.021426 0.113289
0.074899 0.021426 0.114005
0.077677 0.021450 0.112853
0.079646 0.021450 0.113569
0.082431 0.021475 0.112415
0.084403 0.021475 0.113132
0.087197 0.021499 0.111976
0.089997 0.021523 0.110818
0.091972 0.021523 0.111537
0.094781 0.021547 0.110376
0.095923 0.021523 0.112975
0.098736 0.021547 0.111816
0.100714 0.021547 0.112536
0.103535 0.021572 0.111375
0.106362 0.021596 0.110212
0.108344 0.021596 0.110933
0.111180 0.021620 0.109769
0.113165 0.021620 0.110491
0.116009 0.021645 0.109324
0.117995 0.021645 0.110047
0.120848 0.021669 0.108879
0.122837 0.021669 0.109602
0.125698 0.021694 0.108432
0.127689 0.021694 0.109157
0.129680 0.021694 0.109881
0.131671 0.021694 0.110606
0.133661 0.021694 0.111331
0.135652 0.021694 0.112055
0.137643 0.021694 0.112780
0.139634 0.021694 0.113504
0.141625 0.021694 0.114229
0.143616 0.021694 0.114954
0.145606 0.021694 0.115678
0.147597 0.021694 0.116403
0.149588 0.021694 0.117127
0.151579 0.021694 0.117852
0.153570 0.021694 0.118577
0.155561 0.021694 0.119301
0.157551 0.021694 0.120026
0.159542 0.021694 0.120750
0.161533 0.021694 0.121475
0.163524 0.021694 0.122200
0.165515 0.021694 0.122924
0.167506 0.021694 0.123649
0.169496 0.021694 0.124373
0.170564 0.021669 0.126974
0.172553 0.021669 0.127697
0.174541 0.021669 0.128421
0.176530 0.021669 0.129145
0.086467 0.019239 0.314774
0.087498 0.019220 0.316900
0.088528 0.019200 0.319022
0.089555 0.019181 0.321140
0.090581 0.019162 0.323253
0.092345 0.019162 0.323896
0.093367 0.019142 0.326004
0.094386 0.019123 0.328109
0.095404 0.019104 0.330210
0.097163 0.019104 0.330850
0.098177 0.019085 0.332946
0.099189 0.019065 0.335038
0.100945 0.019065 0.335677
0.101953 0.019046 0.337764
0.102960 0.019027 0.339847
0.103964 0.019008 0.341926
0.104967 0.018989 0.344001
0.106715 0.018989 0.344637
0.107714 0.018970 0.346708
0.108711 0.018951 0.348774
0.109706 0.018932 0.350836
0.111450 0.018932 0.351471
0.112441 0.018913 0.353529
0.113430 0.018895 0.355582
0.114418 0.018876 0.357632
0.116157 0.018876 0.358265
0.117140 0.018857 0.360310
0.118122 0.018838 0.362351
0.119858 0.018838 0.362983
0.120836 0.018820 0.365020
0.121813 0.018801 0.367052
0.122787 0.018782 0.369081
0.123760 0.018764 0.371106
0.125489 0.018764 0.371735
0.126458 0.018745 0.373755
0.127425 0.018727 0.375772
0.128391 0.018708 0.377785
0.130115 0.018708 0.378412
0.131077 0.018690 0.380420
0.132037 0.018671 0.382425
0.133757 0.018671 0.383051
0.135478 0.018671 0.383677
0.137198 0.018671 0.384303
0.138918 0.018671 0.384929
0.140639 0.018671 0.385555
0.143130 0.018690 0.384807
0.144852 0.018690 0.385434
0.146574 0.018690 0.386061
0.149074 0.018708 0.385313
0.151579 0.018727 0.384563
0.154089 0.018745 0.383812
0.156603 0.018764 0.383060
0.159123 0.018782 0.382306
0.161647 0.018801 0.381551
0.164176 0.018820 0.380794
0.166710 0.018838 0.380036
0.169248 0.018857 0.379276
0.171792 0.018876 0.378515
0.175152 0.018913 0.376354
0.177709 0.018932 0.375588
0.180271 0.018951 0.374820
0.183661 0.018989 0.372643
0.185409 0.018989 0.373280
0.187986 0.019008 0.372508
0.189737 0.019008 0.373145
0.192320 0.019027 0.372372
0.195747 0.019065 0.370182
0.199187 0.019104 0.367984
0.203490 0.019162 0.364349
0.207818 0.019220 0.360693
0.211309 0.019259 0.358458
0.216553 0.019337 0.353315
0.220959 0.019397 0.349594
0.226277 0.019476 0.344379
0.230744 0.019536 0.340605
0.236139 0.019617 0.335318
0.242490 0.019719 0.328484
0.247982 0.019801 0.323099
0.254453 0.019904 0.316141
0.260044 0.019988 0.310656
0.274345 0.020265 0.290992
0.282085 0.020395 0.282104
0.282973 0.020373 0.284388
0.283859 0.020351 0.286668
0.283759 0.020308 0.290533
0.284641 0.020286 0.292799
0.286506 0.020286 0.293478
0.288371 0.020286 0.294157
0.289248 0.020265 0.296417
0.291111 0.020265 0.297095
0.291984 0.020243 0.299349
0.293845 0.020243 0.300027
0.294714 0.020222 0.302276
0.296573 0.020222 0.302952
0.298432 0.020222 0.303629
0.300291 0.020222 0.304306
0.302151 0.020222 0.304982
0.304010 0.020222 0.305659
0.305869 0.020222 0.306336
0.307728 0.020222 0.307012
0.309587 0.020222 0.307689
0.311446 0.020222 0.308366
0.313305 0.020222 0.309042
0.314153 0.020200 0.311280
0.316010 0.020200 0.311956
0.318882 0.020222 0.311072
0.320741 0.020222 0.311749
0.322600 0.020222 0.312425
0.324459 0.020222 0.313102
0.326319 0.020222 0.313779
0.328178 0.020222 0.314455
0.331065 0.020243 0.313573
0.332926 0.020243 0.314251
0.334787 0.020243 0.314928
0.336648 0.020243 0.315605
0.339547 0.020265 0.314724
0.342452 0.020286 0.313841
0.344317 0.020286 0.314519
0.346182 0.020286 0.315198
0.349097 0.020308 0.314314
0.350964 0.020308 0.314994
0.353886 0.020330 0.314109
0.355755 0.020330 0.314789
0.358686 0.020351 0.313903
0.360557 0.020351 0.314584
0.363496 0.020373 0.313696
0.365369 0.020373 0.314378
0.368316 0.020395 0.313489
0.371269 0.020417 0.312599
0.374228 0.020439 0.311707
0.377194 0.020461 0.310813
0.380166 0.020483 0.309917
0.384242 0.020527 0.307433
0.387231 0.020549 0.306531
0.390226 0.020571 0.305627
0.394340 0.020616 0.303124
0.397352 0.020638 0.302213
0.400370 0.020660 0.301301
0.404524 0.020705 0.298777
0.409832 0.020773 0.294625
0.416325 0.020864 0.288815
-0.476040 0.021640 -0.315646
-0.474765 0.021532 -0.304468
-0.473503 0.021425 -0.293398
-0.471792 0.021372 -0.287509
-0.470089 0.021319 -0.281648
-0.467926 0.021319 -0.280860
-0.466000 0.021293 -0.277548
-0.464079 0.021267 -0.274244
-0.462162 0.021241 -0.270947
-0.460250 0.021215 -0.267659
-0.458342 0.021188 -0.264378
-0.456439 0.021163 -0.261105
-0.454541 0.021137 -0.257840
-0.452395 0.021137 -0.257059
-0.450250 0.021137 -0.256279
-0.448361 0.021111 -0.253023
-0.446477 0.021085 -0.249776
-0.444337 0.021085 -0.248997
-0.442197 0.021085 -0.248218
-0.440322 0.021059 -0.244980
-0.438184 0.021059 -0.244202
-0.436047 0.021059 -0.243424
-0.434181 0.021034 -0.240195
-0.432046 0.021034 -0.239418
-0.429911 0.021034 -0.238641
-0.427776 0.021034 -0.237864
-0.425641 0.021034 -0.237087
-0.423506 0.021034 -0.236310
-0.421371 0.021034 -0.235533
-0.419236 0.021034 -0.234755
-0.416808 0.021059 -0.236421
-0.414671 0.021059 -0.235643
-0.412533 0.021059 -0.234865
-0.410395 0.021059 -0.234087
-0.407954 0.021085 -0.235755
-0.405814 0.021085 -0.234976
-0.403983 0.021059 -0.231753
-0.401534 0.021085 -0.233418
-0.399394 0.021085 -0.232639
-0.400382 0.020830 -0.207712
-0.400432 0.020656 -0.190381
-0.400480 0.020484 -0.173331
-0.400527 0.020315 -0.156554
-0.399674 0.020220 -0.146768
-0.398828 0.020125 -0.137070
-0.397990 0.020031 -0.127461
-0.396859 0.019962 -0.120126
-0.395434 0.019915 -0.115018
-0.394016 0.019869 -0.109933
-0.392604 0.019824 -0.104870
-0.391199 0.019778 -0.099831
-0.389799 0.019733 -0.094814
-0.388406 0.019688 -0.089819
-0.386712 0.019665 -0.086966
-0.385331 0.019620 -0.082005
-0.383956 0.019575 -0.077067
-0.382586 0.019531 -0.072150
-0.381223 0.019487 -0.067255
-0.379866 0.019443 -0.062381
-0.378514 0.019399 -0.057529
-0.376855 0.019377 -0.054752
-0.375515 0.019333 -0.049932
-0.373548 0.019333 -0.049216
-0.372536 0.019268 -0.042385
-0.370894 0.019247 -0.039643
-0.369256 0.019225 -0.036907
-0.367621 0.019204 -0.034176
-0.365990 0.019182 -0.031452
-0.364363 0.019161 -0.028734
-0.362739 0.019139 -0.026021
-0.361119 0.019118 -0.023314
-0.359173 0.019118 -0.022606
-0.357558 0.019097 -0.019906
-0.355947 0.019076 -0.017212
-0.354339 0.019054 -0.014523
-0.353069 0.019012 -0.009868
-0.351469 0.018991 -0.007196
-0.349873 0.018970 -0.004530
-0.347942 0.018970 -0.003827
-0.346352 0.018949 -0.001168
-0.344764 0.018928 0.001486
-0.343181 0.018907 0.004135
-0.341600 0.018887 0.006777
-0.340023 0.018866 0.009414
-0.338103 0.018866 0.010113
-0.336531 0.018845 0.012744
-0.334963 0.018824 0.015369
-0.333398 0.018804 0.017988
-0.331836 0.018783 0.020602
-0.330278 0.018763 0.023210
-0.328367 0.018763 0.023906
-0.326814 0.018742 0.026508
-0.325265 0.018722 0.029104
-0.323358 0.018722 0.029798
-0.321814 0.018701 0.032388
-0.320273 0.018681 0.034973
-0.318735 0.018661 0.037552
-0.316835 0.018661 0.038244
-0.315302 0.018640 0.040817
-0.313404 0.018640 0.041508
-0.311877 0.018620 0.044075
-0.310352 0.018600 0.046637
-0.308458 0.018600 0.047326
-0.306564 0.018600 0.048016
-0.305047 0.018580 0.050570
-0.303155 0.018580 0.051259
-0.301262 0.018580 0.051948
-0.299752 0.018560 0.054496
-0.297862 0.018560 0.055184
-0.296357 0.018540 0.057725
-0.294469 0.018540 0.058413
-0.292970 0.018519 0.060948
-0.291083 0.018519 0.061635
-0.289197 0.018519 0.062322
-0.287705 0.018499 0.064851
-0.285820 0.018499 0.065536
-0.283936 0.018499 0.066222
-0.282450 0.018480 0.068745
-0.280568 0.018480 0.069430
-0.278686 0.018480 0.070115
-0.277207 0.018460 0.072630
-0.275327 0.018460 0.073315
-0.273446 0.018460 0.073999
-0.271975 0.018440 0.076508
-0.270097 0.018440 0.077192
-0.268631 0.018420 0.079695
-0.266340 0.018440 0.078559
-0.264877 0.018420 0.081061
-0.263001 0.018420 0.081744
-0.261124 0.018420 0.082427
-0.259669 0.018400 0.084922
-0.257794 0.018400 0.085604
-0.255920 0.018400 0.086286
-0.254472 0.018380 0.088774
-0.252599 0.018380 0.089456
-0.250726 0.018380 0.090138
-0.249285 0.018361 0.092619
-0.247414 0.018361 0.093300
-0.245543 0.018361 0.093981
-0.243673 0.018361 0.094662
-0.242240 0.018341 0.097136
-0.240371 0.018341 0.097816
-0.238944 0.018321 0.100285
-0.237077 0.018321 0.100964
-0.235210 0.018321 0.101644
-0.233343 0.018321 0.102323
-0.231477 0.018321 0.103003
-0.230060 0.018302 0.105463
-0.228195 0.018302 0.106142
-0.226330 0.018302 0.106821
-0.224465 0.018302 0.107500
-0.222600 0.018302 0.108178
-0.220735 0.018302 0.108857
-0.218870 0.018302 0.109536
-0.217006 0.018302 0.110215
-0.215141 0.018302 0.110893
-0.213276 0.018302 0.111572
-0.211411 0.018302 0.112251
-0.209546 0.018302 0.112930
-0.207681 0.018302 0.113608
-0.205816 0.018302 0.114287
-0.203952 0.018302 0.114966
-0.202087 0.018302 0.115645
-0.200222 0.018302 0.116323
-0.198357 0.018302 0.117002
-0.196492 0.018302 0.117681
-0.194627 0.018302 0.118360
-0.192762 0.018302 0.119038
-0.190898 0.018302 0.119717
-0.189033 0.018302 0.120396
-0.187168 0.018302 0.121075
-0.185303 0.018302 0.121753
-0.183438 0.018302 0.122432
-0.181573 0.018302 0.123111
-0.179708 0.018302 0.123790
-0.177339 0.018321 0.122707
-0.175473 0.018321 0.123386
-0.173606 0.018321 0.124066
-0.171739 0.018321 0.124745
-0.169872 0.018321 0.125425
-0.168006 0.018321 0.126104
-0.166139 0.018321 0.126784
-0.163753 0.018341 0.125703
-0.161885 0.018341 0.126383
-0.160016 0.018341 0.127064
-0.158147 0.018341 0.127744
-0.155751 0.018361 0.126663
-0.153880 0.018361 0.127344
-0.152009 0.018361 0.128025
-0.150139 0.018361 0.128706
-0.147732 0.018380 0.127625
-0.145859 0.018380 0.128306
-0.143986 0.018380 0.128988
-0.141570 0.018400 0.127906
-0.139696 0.018400 0.128588
-0.137821 0.018400 0.129271
-0.135947 0.018400 0.129953
-0.134072 0.018400 0.130635
-0.132198 0.018400 0.131318
-0.129767 0.018420 0.130237
-0.127331 0.018440 0.129155
-0.125452 0.018440 0.129838
-0.123574 0.018440 0.130522
-0.121695 0.018440 0.131206
-0.119248 0.018460 0.130123
-0.117368 0.018460 0.130807
-0.114914 0.018480 0.129723
-0.113031 0.018480 0.130408
-0.110570 0.018499 0.129322
-0.108686 0.018499 0.130008
-0.106218 0.018519 0.128921
-0.104331 0.018519 0.129607
-0.101856 0.018540 0.128518
-0.099968 0.018540 0.129206
-0.097485 0.018560 0.128115
-0.095595 0.018560 0.128803
-0.093105 0.018580 0.127711
-0.091212 0.018580 0.128400
-0.088715 0.018600 0.127306
-0.086821 0.018600 0.127995
-0.084317 0.018620 0.126900
-0.082420 0.018620 0.127590
-0.079909 0.018640 0.126493
-0.078010 0.018640 0.127184
-0.075491 0.018661 0.126086
-0.073591 0.018661 0.126777
-0.071065 0.018681 0.125677
-0.069162 0.018681 0.126370
-0.066629 0.018701 0.125268
-0.064724 0.018701 0.125961
-0.062183 0.018722 0.124858
-0.060277 0.018722 0.125552
-0.057728 0.018742 0.124447
-0.055820 0.018742 0.125142
-0.053264 0.018763 0.124035
-0.051354 0.018763 0.124730
-0.048790 0.018783 0.123622
-0.046878 0.018783 0.124318
-0.044965 0.018783 0.125014
-0.043053 0.018783 0.125711
-0.040478 0.018804 0.124602
-0.038563 0.018804 0.125299
-0.035981 0.018824 0.124189
-0.034064 0.018824 0.124887
-0.031474 0.018845 0.123775
-0.029556 0.018845 0.124474
-0.026958 0.018866 0.123361
-0.025037 0.018866 0.124060
-0.022432 0.018887 0.122945
-0.020510 0.018887 0.123645
-0.017897 0.018907 0.122528
-0.015972 0.018907 0.123229
-0.013351 0.018928 0.122111
-0.011424 0.018928 0.122812
-0.008796 0.018949 0.121693
-0.006867 0.018949 0.122395
-0.004231 0.018970 0.121273
-0.002300 0.018970 0.121976
0.000343 0.018991 0.120853
0.002276 0.018991 0.121557
0.004928 0.019012 0.120432
0.006863 0.019012 0.121136
0.009522 0.019033 0.120010
0.011459 0.019033 0.120715
0.014126 0.019054 0.119587
0.016066 0.019054 0.120293
0.018741 0.019076 0.119163
0.020682 0.019076 0.119870
0.023365 0.019097 0.118739
0.025308 0.019097 0.119446
0.027999 0.019118 0.118313
0.029945 0.019118 0.119021
0.032643 0.019139 0.117886
0.034591 0.019139 0.118595
0.037298 0.019161 0.117459
0.039248 0.019161 0.118168
0.041962 0.019182 0.117030
0.043914 0.019182 0.117741
0.046637 0.019204 0.116601
0.048591 0.019204 0.117312
0.051322 0.019225 0.116171
0.053278 0.019225 0.116883
0.056017 0.019247 0.115740
0.057975 0.019247 0.116452
0.060722 0.019268 0.115307
0.062682 0.019268 0.116021
0.064643 0.019268 0.116735
0.066603 0.019268 0.117448
0.070163 0.019311 0.114440
0.072932 0.019333 0.113289
0.074899 0.019333 0.114005
0.077677 0.019355 0.112853
0.079646 0.019355 0.113569
0.082431 0.019377 0.112415
0.085223 0.019399 0.111258
0.087197 0.019399 0.111976
0.089997 0.019421 0.110818
0.091972 0.019421 0.111537
0.094781 0.019443 0.110376
0.096758 0.019443 0.111096
0.099575 0.019465 0.109934
0.101555 0.019465 0.110655
0.103535 0.019465 0.111375
0.106362 0.019487 0.110212
0.108344 0.019487 0.110933
0.111180 0.019509 0.109769
0.113165 0.019509 0.110491
0.116009 0.019531 0.109324
0.117995 0.019531 0.110047
0.120848 0.019553 0.108879
0.122837 0.019553 0.109602
0.125698 0.019575 0.108432
0.127689 0.019575 0.109157
0.129680 0.019575 0.109881
0.131671 0.019575 0.110606
0.133661 0.019575 0.111331
0.135652 0.019575 0.112055
0.137643 0.019575 0.112780
0.139634 0.019575 0.113504
0.141625 0.019575 0.114229
0.143616 0.019575 0.114954
0.145606 0.019575 0.115678
0.147597 0.019575 0.116403
0.149588 0.019575 0.117127
0.151579 0.019575 0.117852
0.153570 0.019575 0.118577
0.155561 0.019575 0.119301
0.157551 0.019575 0.120026
0.159542 0.019575 0.120750
0.161533 0.019575 0.121475
0.163524 0.019575 0.122200
0.165515 0.019575 0.122924
0.167506 0.019575 0.123649
0.169496 0.019575 0.124373
0.170564 0.019553 0.126974
0.172553 0.019553 0.127697
0.083660 0.017372 0.311998
0.083225 0.017319 0.317092
0.084258 0.017302 0.319211
0.085288 0.017284 0.321327
0.086317 0.017267 0.323438
0.088079 0.017267 0.324080
0.089104 0.017249 0.326187
0.090127 0.017232 0.328289
0.091148 0.017215 0.330388
0.092905 0.017215 0.331027
0.093923 0.017197 0.333121
0.094938 0.017180 0.335211
0.095951 0.017163 0.337296
0.097703 0.017163 0.337934
0.098713 0.017145 0.340015
0.099720 0.017128 0.342092
0.101469 0.017128 0.342728
0.102473 0.017111 0.344800
0.103475 0.017094 0.346868
0.104475 0.017077 0.348932
0.105473 0.017060 0.350993
0.107215 0.017060 0.351627
0.108210 0.017043 0.353682
0.109202 0.017026 0.355734
0.110193 0.017009 0.357781
0.111930 0.017009 0.358413
0.112917 0.016992 0.360457
0.113902 0.016975 0.362496
0.114885 0.016958 0.364531
0.116617 0.016958 0.365161
0.117597 0.016941 0.367192
0.118574 0.016924 0.369218
0.120303 0.016924 0.369848
0.121277 0.016907 0.371870
0.122250 0.016891 0.373888
0.123220 0.016874 0.375903
0.124189 0.016857 0.377913
0.125911 0.016857 0.378540
0.126876 0.016841 0.380546
0.127839 0.016824 0.382548
0.128801 0.016807 0.384547
0.130518 0.016807 0.385172
0.132235 0.016807 0.385797
0.133952 0.016807 0.386422
0.135669 0.016807 0.387047
0.137386 0.016807 0.387672
0.139103 0.016807 0.388297
0.141589 0.016824 0.387553
0.143307 0.016824 0.388178
0.145026 0.016824 0.388804
0.147520 0.016841 0.388060
0.150018 0.016857 0.387314
0.152522 0.016874 0.386568
0.155030 0.016891 0.385819
0.157543 0.016907 0.385069
0.160853 0.016941 0.382936
0.163379 0.016958 0.382181
0.165909 0.016975 0.381425
0.168445 0.016992 0.380667
0.170985 0.017009 0.379908
0.173531 0.017026 0.379147
0.176081 0.017043 0.378385
0.179453 0.017077 0.376222
0.182838 0.017111 0.374051
0.184585 0.017111 0.374686
0.187158 0.017128 0.373916
0.188907 0.017128 0.374553
0.192320 0.017163 0.372372
0.195747 0.017197 0.370182
0.199187 0.017232 0.367984
0.203490 0.017284 0.364349
0.207818 0.017337 0.360693
0.211309 0.017372 0.358458
0.216553 0.017443 0.353315
0.220959 0.017497 0.349594
0.226277 0.017569 0.344379
0.230744 0.017623 0.340605
0.236139 0.017696 0.335318
0.242490 0.017788 0.328484
0.248906 0.017881 0.321581
0.254453 0.017956 0.316141
0.265743 0.018147 0.301335
0.281195 0.018420 0.279815
0.282085 0.018400 0.282104
0.282973 0.018380 0.284388
0.283859 0.018361 0.286668
0.284743 0.018341 0.288943
0.285626 0.018321 0.291213
0.286506 0.018302 0.293478
0.288371 0.018302 0.294157
0.289248 0.018282 0.296417
0.291111 0.018282 0.297095
0.292974 0.018282 0.297773
0.293845 0.018263 0.300027
0.294714 0.018243 0.302276
0.296573 0.018243 0.302952
0.298432 0.018243 0.303629
0.300291 0.018243 0.304306
0.302151 0.018243 0.304982
0.304010 0.018243 0.305659
0.305869 0.018243 0.306336
0.307728 0.018243 0.307012
0.309587 0.018243 0.307689
0.311446 0.018243 0.308366
0.313305 0.018243 0.309042
0.314153 0.018224 0.311280
0.316010 0.018224 0.311956
0.317868 0.018224 0.312632
0.320741 0.018243 0.311749
0.322600 0.018243 0.312425
0.324459 0.018243 0.313102
0.326319 0.018243 0.313779
0.328178 0.018243 0.314455
0.331065 0.018263 0.313573
0.332926 0.018263 0.314251
0.334787 0.018263 0.314928
0.336648 0.018263 0.315605
0.339547 0.018282 0.314724
0.341410 0.018282 0.315402
0.344317 0.018302 0.314519
0.346182 0.018302 0.315198
0.349097 0.018321 0.314314
0.350964 0.018321 0.314994
0.353886 0.018341 0.314109
0.355755 0.018341 0.314789
0.358686 0.018361 0.313903
0.360557 0.018361 0.314584
0.362428 0.018361 0.315264
0.365369 0.018380 0.314378
0.368316 0.018400 0.313489
0.371269 0.018420 0.312599
0.374228 0.018440 0.311707
0.377194 0.018460 0.310813
0.380166 0.018480 0.309917
0.384242 0.018519 0.307433
0.387231 0.018540 0.306531
0.390226 0.018560 0.305627
0.393227 0.018580 0.304721
0.396234 0.018600 0.303813
0.400370 0.018640 0.301301
0.404524 0.018681 0.298777
0.410973 0.018763 0.293003
0.417477 0.018845 0.287180
-0.473845 0.019304 -0.314848
-0.472812 0.019183 -0.301095
-0.471329 0.019112 -0.292607
-0.469623 0.019064 -0.286720
-0.467691 0.019041 -0.283392
-0.465763 0.019017 -0.280073
-0.463839 0.018994 -0.276762
-0.461921 0.018970 -0.273458
-0.460006 0.018947 -0.270163
-0.458097 0.018923 -0.266875
-0.456192 0.018900 -0.263595
-0.454291 0.018877 -0.260323
-0.452395 0.018854 -0.257059
-0.449996 0.018877 -0.258760
-0.448105 0.018854 -0.255498
-0.445960 0.018854 -0.254717
-0.444076 0.018831 -0.251463
-0.442197 0.018807 -0.248218
-0.440056 0.018807 -0.247439
-0.438184 0.018784 -0.244202
-0.436047 0.018784 -0.243424
-0.433909 0.018784 -0.242646
-0.432046 0.018761 -0.239418
-0.429911 0.018761 -0.238641
-0.427776 0.018761 -0.237864
-0.425641 0.018761 -0.237087
-0.423506 0.018761 -0.236310
-0.421371 0.018761 -0.235533
-0.419236 0.018761 -0.234755
-0.416808 0.018784 -0.236421
-0.414671 0.018784 -0.235643
-0.412533 0.018784 -0.234865
-0.410395 0.018784 -0.234087
-0.407954 0.018807 -0.235755
-0.405814 0.018807 -0.234976
-0.403674 0.018807 -0.234197
-0.401534 0.018807 -0.233418
-0.399394 0.018807 -0.232639
-0.399451 0.018647 -0.214897
-0.399817 0.018468 -0.195085
-0.399870 0.018313 -0.177957
-0.399923 0.018161 -0.161105
-0.399372 0.018054 -0.149019
-0.398828 0.017949 -0.137070
-0.397689 0.017886 -0.129669
-0.396558 0.017823 -0.122319
-0.395434 0.017761 -0.115018
-0.393713 0.017740 -0.112104
-0.392300 0.017699 -0.107032
-0.390894 0.017659 -0.101981
