ply
format ascii 1.0
element vertex 1744
property float x
property float y
property float z
end_header
-0.123021 -0.024758 0.108864
-0.120391 -0.023410 0.109862
-0.117766 -0.022065 0.110858
-0.115704 -0.022065 0.110323
-0.113088 -0.020723 0.111317
-0.111028 -0.020723 0.110783
-0.108419 -0.019384 0.111775
-0.105817 -0.018048 0.112766
-0.103761 -0.018048 0.112233
-0.101167 -0.016715 0.113221
-0.098578 -0.015385 0.114208
-0.096527 -0.015385 0.113676
-0.093946 -0.014058 0.114661
-0.091371 -0.012734 0.115643
-0.089325 -0.012734 0.115113
-0.086758 -0.011413 0.116094
-0.084714 -0.011413 0.115564
-0.082670 -0.011413 0.115034
-0.080113 -0.010094 0.116014
-0.078071 -0.010094 0.115484
-0.076030 -0.010094 0.114955
-0.073483 -0.008779 0.115934
-0.071443 -0.008779 0.115405
-0.068904 -0.007466 0.116383
-0.066867 -0.007466 0.115854
-0.064830 -0.007466 0.115326
-0.062301 -0.006157 0.116303
-0.060266 -0.006157 0.115775
-0.058231 -0.006157 0.115247
-0.055712 -0.004850 0.116223
-0.053679 -0.004850 0.115696
-0.051168 -0.003546 0.116669
-0.049137 -0.003546 0.116143
-0.047107 -0.003546 0.115616
-0.044605 -0.002245 0.116589
-0.042577 -0.002245 0.116063
-0.040549 -0.002245 0.115538
-0.038521 -0.002245 0.115012
-0.036031 -0.000947 0.115984
-0.034005 -0.000947 0.115459
-0.031979 -0.000947 0.114933
-0.029500 0.000349 0.115905
-0.027476 0.000349 0.115380
-0.025452 0.000349 0.114855
-0.022538 0.002931 0.117318
-0.020519 0.002931 0.116795
-0.018499 0.002931 0.116271
-0.016043 0.004218 0.117238
-0.014026 0.004218 0.116715
-0.012008 0.004218 0.116192
-0.009991 0.004218 0.115669
-0.007546 0.005502 0.116635
-0.005531 0.005502 0.116113
-0.003516 0.005502 0.115590
-0.001082 0.006783 0.116556
0.000931 0.006783 0.116034
0.002944 0.006783 0.115512
0.005369 0.008062 0.116477
0.007380 0.008062 0.115955
0.009391 0.008062 0.115434
0.011806 0.009338 0.116397
0.013815 0.009338 0.115877
0.015823 0.009338 0.115356
0.018229 0.010611 0.116319
0.020236 0.010611 0.115798
0.022242 0.010611 0.115278
0.024248 0.010611 0.114758
0.026643 0.011881 0.115720
0.028647 0.011881 0.115200
0.031034 0.013148 0.116161
0.033415 0.014413 0.117120
0.035415 0.014413 0.116601
0.037415 0.014413 0.116083
0.039787 0.015675 0.117041
0.041785 0.015675 0.116523
0.043783 0.015675 0.116005
0.046146 0.016934 0.116961
0.048141 0.016934 0.116444
0.050137 0.016934 0.115927
0.052132 0.016934 0.115409
0.054484 0.018191 0.116366
0.056477 0.018191 0.115849
0.058470 0.018191 0.115332
0.060812 0.019445 0.116287
0.062804 0.019445 0.115771
0.064795 0.019445 0.115255
0.067128 0.020696 0.116209
0.068777 0.019445 0.114222
0.071106 0.020696 0.115178
0.073095 0.020696 0.114662
0.075084 0.020696 0.114146
0.077073 0.020696 0.113630
0.079062 0.020696 0.113115
0.081377 0.021945 0.114070
0.083364 0.021945 0.113555
0.085351 0.021945 0.113040
0.087657 0.023190 0.113995
0.089641 0.023190 0.113480
0.091626 0.023190 0.112965
0.093611 0.023190 0.112451
0.095905 0.024434 0.113405
0.097888 0.024434 0.112891
0.099871 0.024434 0.112377
0.101854 0.024434 0.111863
0.104137 0.025674 0.112817
0.106117 0.025674 0.112303
0.108098 0.025674 0.111790
0.110078 0.025674 0.111276
0.112350 0.026912 0.112230
0.114329 0.026912 0.111717
0.116307 0.026912 0.111204
0.118286 0.026912 0.110691
0.120546 0.028147 0.111644
0.122523 0.028147 0.111132
0.124499 0.028147 0.110619
0.126476 0.028147 0.110107
0.128725 0.029380 0.111060
0.131240 0.031837 0.113470
0.133477 0.033062 0.114417
0.135709 0.034284 0.115361
0.137937 0.035503 0.116303
0.140160 0.036720 0.117243
0.142379 0.037935 0.118182
0.144592 0.039147 0.119118
0.146801 0.040356 0.120052
0.149006 0.041563 0.120985
0.151205 0.042767 0.121915
0.153401 0.043968 0.122844
0.155591 0.045167 0.123770
0.157777 0.046364 0.124695
0.159958 0.047558 0.125617
0.162135 0.048750 0.126538
0.164307 0.049939 0.127457
0.166475 0.051125 0.128373
0.168638 0.052309 0.129288
0.170796 0.053491 0.130201
0.172950 0.054670 0.131112
0.175318 0.057021 0.133428
0.187892 0.114888 0.202288
0.190868 0.121185 0.209364
0.193623 0.126376 0.215120
0.196168 0.130492 0.219590
0.198513 0.133559 0.222804
0.200844 0.136608 0.225999
0.202986 0.138630 0.227965
0.205293 0.141649 0.231129
0.207416 0.143653 0.233075
0.209700 0.146643 0.236210
0.211805 0.148627 0.238137
0.213901 0.150604 0.240057
0.216151 0.153554 0.243151
0.218230 0.155512 0.245052
0.220456 0.158435 0.248117
0.222517 0.160374 0.250000
0.224570 0.162306 0.251875
0.226764 0.165190 0.254901
0.228799 0.167104 0.256759
0.230971 0.169961 0.259757
0.232989 0.171857 0.261597
0.235139 0.174688 0.264567
0.237140 0.176566 0.266389
0.239268 0.179371 0.269333
0.241252 0.181232 0.271138
0.243359 0.184011 0.274054
0.245327 0.185854 0.275842
0.247413 0.188607 0.278732
0.249364 0.190435 0.280504
0.251185 0.191345 0.281167
0.253003 0.192255 0.281829
0.254818 0.193162 0.282489
0.256512 0.193162 0.282050
0.258322 0.194068 0.282710
0.260129 0.194973 0.283368
0.262044 0.196776 0.285120
0.263732 0.196776 0.284682
0.265529 0.197676 0.285337
0.267215 0.197676 0.284900
0.268902 0.197676 0.284463
0.270692 0.198574 0.285117
0.272479 0.199470 0.285771
0.274263 0.200364 0.286423
0.275945 0.200364 0.285987
0.277627 0.200364 0.285551
0.279309 0.200364 0.285114
0.280897 0.199470 0.283588
0.282580 0.199470 0.283151
0.284264 0.199470 0.282715
0.286037 0.200364 0.283370
0.287807 0.201257 0.284024
0.289487 0.201257 0.283588
0.291253 0.202148 0.284241
0.292931 0.202148 0.283806
0.294692 0.203038 0.284458
0.296369 0.203038 0.284023
0.298125 0.203926 0.284675
0.299801 0.203926 0.284240
0.301552 0.204812 0.284891
0.303227 0.204812 0.284457
0.304973 0.205697 0.285107
0.306646 0.205697 0.284673
0.308388 0.206581 0.285322
0.310059 0.206581 0.284889
0.311796 0.207462 0.285537
0.313466 0.207462 0.285104
0.315198 0.208342 0.285752
0.316867 0.208342 0.285319
0.318535 0.208342 0.284886
0.320261 0.209221 0.285534
0.321928 0.209221 0.285101
0.323595 0.209221 0.284669
0.325262 0.209221 0.284237
0.326981 0.210098 0.284884
0.328646 0.210098 0.284452
0.330311 0.210098 0.284021
0.331977 0.210098 0.283589
0.333642 0.210098 0.283157
0.335352 0.210973 0.283804
0.337016 0.210973 0.283373
0.338679 0.210973 0.282942
0.340383 0.211847 0.283589
0.342045 0.211847 0.283158
0.343708 0.211847 0.282727
0.345370 0.211847 0.282296
0.347066 0.212719 0.282943
0.348727 0.212719 0.282512
0.350388 0.212719 0.282082
0.352078 0.213589 0.282728
0.353737 0.213589 0.282298
0.355397 0.213589 0.281868
0.357056 0.213589 0.281438
0.358715 0.213589 0.281007
0.360375 0.213589 0.280577
0.362034 0.213589 0.280147
0.363694 0.213589 0.279717
0.365370 0.214458 0.280365
0.367028 0.214458 0.279935
0.368686 0.214458 0.279505
0.370344 0.214458 0.279075
0.372002 0.214458 0.278645
0.373660 0.214458 0.278215
0.375318 0.214458 0.277786
0.376982 0.215326 0.278435
0.378639 0.215326 0.278006
0.380295 0.215326 0.277576
0.381952 0.215326 0.277147
0.383608 0.215326 0.276717
0.385264 0.215326 0.276288
0.386921 0.215326 0.275858
0.388577 0.215326 0.275429
0.390238 0.214458 0.273917
0.391896 0.214458 0.273487
0.393554 0.214458 0.273057
0.395203 0.215326 0.273711
0.396859 0.215326 0.273281
0.398528 0.214458 0.271767
0.400186 0.214458 0.271337
0.401844 0.214458 0.270907
0.403502 0.214458 0.270478
0.405159 0.214458 0.270048
0.406817 0.214458 0.269618
0.408475 0.214458 0.269188
0.410156 0.213589 0.267669
0.411815 0.213589 0.267239
0.413475 0.213589 0.266808
0.415161 0.212719 0.265286
0.416822 0.212719 0.264855
0.418483 0.212719 0.264425
0.420144 0.212719 0.263994
0.421805 0.212719 0.263563
0.423466 0.212719 0.263133
0.425126 0.212719 0.262702
0.426825 0.211847 0.261175
0.428488 0.211847 0.260744
0.430150 0.211847 0.260313
0.431812 0.211847 0.259882
0.433518 0.210973 0.258350
0.435182 0.210973 0.257919
0.436799 0.211847 0.258588
0.438510 0.210973 0.257056
0.440224 0.210098 0.255521
0.441941 0.209221 0.253983
0.443660 0.208342 0.252442
0.445329 0.208342 0.252009
0.447053 0.207462 0.250465
0.448839 0.205697 0.247803
0.450571 0.204812 0.246251
0.452307 0.203926 0.244696
0.454046 0.203038 0.243138
0.455787 0.202148 0.241578
0.457466 0.202148 0.241143
0.459280 0.200364 0.238449
0.461032 0.199470 0.236880
0.462786 0.198574 0.235308
0.464617 0.196776 0.232593
0.466454 0.194973 0.229869
0.468298 0.193162 0.227135
0.470070 0.192255 0.225544
0.471846 0.191345 0.223950
0.473707 0.189522 0.221195
0.475658 0.186774 0.217264
0.478574 0.173746 0.200272
0.481658 0.159405 0.181598
0.484928 0.143653 0.161118
0.489424 0.115943 0.125417
-0.183180 -0.083025 0.055460
-0.175779 -0.071290 0.068132
-0.169785 -0.062631 0.077345
-0.165129 -0.056924 0.083234
-0.161759 -0.054090 0.085884
-0.158405 -0.051269 0.088523
-0.154454 -0.047062 0.092730
-0.151743 -0.045666 0.093763
-0.148435 -0.042883 0.096365
-0.145740 -0.041496 0.097391
-0.143051 -0.040113 0.098414
-0.139777 -0.037355 0.100994
-0.137104 -0.035981 0.102010
-0.133855 -0.033242 0.104573
-0.131197 -0.031877 0.105581
-0.129121 -0.031877 0.105043
-0.126472 -0.030515 0.106050
-0.123829 -0.029156 0.107054
-0.121192 -0.027800 0.108056
-0.119123 -0.027800 0.107520
-0.116493 -0.026447 0.108520
-0.113870 -0.025098 0.109518
-0.111806 -0.025098 0.108983
-0.109191 -0.023751 0.109980
-0.107128 -0.023751 0.109445
-0.104522 -0.022407 0.110440
-0.101920 -0.021066 0.111433
-0.099863 -0.021066 0.110899
-0.097270 -0.019728 0.111890
-0.094682 -0.018394 0.112879
-0.092629 -0.018394 0.112347
-0.090050 -0.017062 0.113334
-0.087999 -0.017062 0.112802
-0.085428 -0.015733 0.113788
-0.083379 -0.015733 0.113257
-0.080816 -0.014407 0.114241
-0.078770 -0.014407 0.113711
-0.076214 -0.013084 0.114693
-0.074170 -0.013084 0.114163
-0.072126 -0.013084 0.113633
-0.069581 -0.011763 0.114615
-0.067539 -0.011763 0.114085
-0.065497 -0.011763 0.113556
-0.062962 -0.010446 0.114537
-0.060922 -0.010446 0.114008
-0.058395 -0.009132 0.114987
-0.056358 -0.009132 0.114458
-0.054320 -0.009132 0.113930
-0.051803 -0.007820 0.114908
-0.049768 -0.007820 0.114381
-0.047733 -0.007820 0.113853
-0.045226 -0.006512 0.114830
-0.043193 -0.006512 0.114303
-0.040693 -0.005206 0.115278
-0.038663 -0.005206 0.114752
-0.036632 -0.005206 0.114225
-0.034602 -0.005206 0.113699
-0.032114 -0.003903 0.114674
-0.030086 -0.003903 0.114148
-0.028057 -0.003903 0.113622
-0.025580 -0.002603 0.114596
-0.023554 -0.002603 0.114071
-0.021528 -0.002603 0.113545
-0.019060 -0.001306 0.114518
-0.017036 -0.001306 0.113994
-0.015012 -0.001306 0.113469
-0.012121 0.001280 0.115935
-0.010101 0.001280 0.115411
-0.008082 0.001280 0.114887
-0.005637 0.002569 0.115856
-0.003619 0.002569 0.115333
-0.001602 0.002569 0.114810
0.000415 0.002569 0.114286
0.002848 0.003855 0.115255
0.004863 0.003855 0.114732
0.006878 0.003855 0.114210
0.009302 0.005138 0.115177
0.011315 0.005138 0.114655
0.013328 0.005138 0.114133
0.015742 0.006418 0.115099
0.017752 0.006418 0.114578
0.019763 0.006418 0.114056
0.022167 0.007695 0.115021
0.024176 0.007695 0.114500
0.026184 0.007695 0.113980
0.028579 0.008970 0.114944
0.030969 0.010242 0.115906
0.032973 0.010242 0.115386
0.034977 0.010242 0.114867
0.037357 0.011512 0.115828
0.039359 0.011512 0.115309
0.041361 0.011512 0.114790
0.043732 0.012778 0.115750
0.045732 0.012778 0.115231
0.047731 0.012778 0.114713
0.050093 0.014042 0.115672
0.052090 0.014042 0.115154
0.054088 0.014042 0.114636
0.056440 0.015303 0.115594
0.058435 0.015303 0.115077
0.060431 0.015303 0.114559
0.062426 0.015303 0.114042
0.064767 0.016561 0.115000
0.066760 0.016561 0.114483
0.068753 0.016561 0.113966
0.071084 0.017817 0.114923
0.073075 0.017817 0.114407
0.075067 0.017817 0.113890
0.077388 0.019070 0.114846
0.079377 0.019070 0.114331
0.081367 0.019070 0.113815
0.083356 0.019070 0.113299
0.085345 0.019070 0.112783
0.087334 0.019070 0.112267
0.089640 0.020320 0.113224
0.091627 0.020320 0.112709
0.093614 0.020320 0.112194
0.095601 0.020320 0.111679
0.097895 0.021568 0.112635
0.099880 0.021568 0.112120
0.101865 0.021568 0.111606
0.104151 0.022813 0.112561
0.106133 0.022813 0.112047
0.108116 0.022813 0.111533
0.110099 0.022813 0.111019
0.112373 0.024055 0.111974
0.114354 0.024055 0.111460
0.116334 0.024055 0.110946
0.118315 0.024055 0.110433
0.120578 0.025294 0.111387
0.122556 0.025294 0.110874
0.124535 0.025294 0.110361
0.126513 0.025294 0.109848
0.128765 0.026531 0.110803
0.131012 0.027766 0.111755
0.133255 0.028997 0.112705
0.135757 0.031453 0.115109
0.137987 0.032677 0.116053
0.140212 0.033898 0.116995
0.142433 0.035117 0.117934
0.144649 0.036333 0.118872
0.146860 0.037546 0.119807
0.149067 0.038757 0.120741
0.151269 0.039966 0.121672
0.153466 0.041171 0.122602
0.155659 0.042375 0.123530
0.157847 0.043575 0.124455
0.160030 0.044774 0.125379
0.162209 0.045969 0.126301
0.164384 0.047163 0.127221
0.166553 0.048353 0.128139
0.168719 0.049542 0.129055
0.170879 0.050727 0.129969
0.173036 0.051911 0.130882
0.175187 0.053092 0.131792
0.188762 0.116556 0.207187
0.191535 0.121785 0.212970
0.194282 0.126963 0.218697
0.196636 0.130045 0.221919
0.198977 0.133110 0.225123
0.201305 0.136157 0.228309
0.203444 0.138179 0.230268
0.205748 0.141196 0.233423
0.207868 0.143198 0.235362
0.210148 0.146187 0.238488
0.212250 0.148170 0.240409
0.214344 0.150146 0.242322
0.216590 0.153095 0.245407
0.218666 0.155052 0.247302
0.220889 0.157973 0.250358
0.222947 0.159911 0.252234
0.225148 0.162805 0.255262
0.227188 0.164725 0.257121
0.229366 0.167592 0.260120
0.231389 0.169494 0.261961
0.233405 0.171389 0.263795
0.235551 0.174218 0.266757
0.237550 0.176096 0.268573
0.239675 0.178899 0.271508
0.241656 0.180759 0.273307
0.243760 0.183537 0.276215
0.245725 0.185380 0.277997
0.247808 0.188132 0.280879
0.249633 0.189046 0.281542
0.251454 0.189958 0.282204
0.253272 0.190868 0.282865
0.255086 0.191777 0.283525
0.256898 0.192685 0.284184
0.258590 0.192685 0.283745
0.260397 0.193590 0.284402
0.262311 0.195396 0.286152
0.263999 0.195396 0.285714
0.265796 0.196297 0.286368
0.267483 0.196297 0.285931
0.269169 0.196297 0.285494
0.270959 0.197196 0.286147
0.272746 0.198093 0.286800
0.274530 0.198989 0.287451
0.276113 0.198093 0.285927
0.277797 0.198093 0.285490
0.279480 0.198093 0.285054
0.281164 0.198093 0.284617
0.282754 0.197196 0.283089
0.284531 0.198093 0.283744
0.286304 0.198989 0.284398
0.287986 0.198989 0.283962
0.289754 0.199883 0.284615
0.291434 0.199883 0.284180
0.293198 0.200776 0.284832
0.294877 0.200776 0.284397
0.296635 0.201667 0.285049
0.298313 0.201667 0.284614
0.300067 0.202556 0.285265
0.301743 0.202556 0.284830
0.303492 0.203444 0.285480
0.305166 0.203444 0.285046
0.306911 0.204330 0.285695
0.308584 0.204330 0.285262
0.310324 0.205214 0.285910
0.311995 0.205214 0.285477
0.313731 0.206097 0.286125
0.315463 0.206978 0.286771
0.317131 0.206978 0.286339
0.318800 0.206978 0.285906
0.320468 0.206978 0.285474
0.322192 0.207858 0.286120
0.323859 0.207858 0.285688
0.325526 0.207858 0.285256
0.327193 0.207858 0.284824
0.328860 0.207858 0.284392
0.330575 0.208736 0.285039
0.332241 0.208736 0.284607
0.333906 0.208736 0.284175
0.335571 0.208736 0.283743
0.337279 0.209613 0.284390
0.338943 0.209613 0.283959
0.340607 0.209613 0.283527
0.342271 0.209613 0.283096
0.343971 0.210487 0.283743
0.345634 0.210487 0.283312
0.347296 0.210487 0.282881
0.348958 0.210487 0.282450
0.350651 0.211361 0.283097
0.352312 0.211361 0.282666
0.353973 0.211361 0.282236
0.355660 0.212233 0.282882
0.357319 0.212233 0.282452
0.358979 0.212233 0.282022
0.360638 0.212233 0.281591
0.362297 0.212233 0.281161
0.363957 0.212233 0.280731
0.365616 0.212233 0.280301
0.367275 0.212233 0.279870
0.368949 0.213103 0.280519
0.370607 0.213103 0.280089
0.372265 0.213103 0.279659
0.373922 0.213103 0.279229
0.375580 0.213103 0.278799
0.377238 0.213103 0.278369
0.378896 0.213103 0.277939
0.380554 0.213103 0.277509
0.382214 0.213972 0.278159
0.383870 0.213972 0.277730
0.385527 0.213972 0.277300
0.387186 0.213103 0.275790
0.388843 0.213103 0.275360
0.390501 0.213103 0.274930
0.392159 0.213103 0.274500
0.393817 0.213103 0.274070
0.395475 0.213103 0.273641
0.397133 0.213103 0.273211
0.398791 0.213103 0.272781
0.400449 0.213103 0.272351
0.402106 0.213103 0.271921
0.403764 0.213103 0.271491
0.405441 0.212233 0.269974
0.407100 0.212233 0.269544
0.408760 0.212233 0.269114
0.410442 0.211361 0.267593
0.412103 0.211361 0.267163
0.413764 0.211361 0.266732
0.415425 0.211361 0.266301
0.417085 0.211361 0.265871
0.418746 0.211361 0.265440
0.420407 0.211361 0.265009
0.422102 0.210487 0.263484
0.423764 0.210487 0.263053
0.425426 0.210487 0.262622
0.427089 0.210487 0.262191
0.428751 0.210487 0.261760
0.430413 0.210487 0.261329
0.432118 0.209613 0.259799
0.433782 0.209613 0.259367
0.435446 0.209613 0.258936
0.437110 0.209613 0.258505
0.438774 0.209613 0.258073
0.440488 0.208736 0.256539
0.442205 0.207858 0.255002
0.443925 0.206978 0.253462
0.445648 0.206097 0.251919
0.447375 0.205214 0.250374
0.449104 0.204330 0.248825
0.450837 0.203444 0.247274
0.452572 0.202556 0.245720
0.454311 0.201667 0.244164
0.456053 0.200776 0.242604
0.457799 0.199883 0.241042
0.459547 0.198989 0.239477
0.461299 0.198093 0.237909
0.463125 0.196297 0.235202
0.465031 0.193590 0.231341
0.466797 0.192685 0.229757
0.468567 0.191777 0.228170
0.470339 0.190868 0.226581
0.472195 0.189046 0.223833
0.473976 0.188132 0.222234
0.475928 0.185380 0.218306
0.478935 0.171389 0.200130
0.482120 0.156027 0.180202
0.485307 0.141196 0.160934
0.490234 0.109148 0.119806
-0.173737 -0.078891 0.061746
-0.166457 -0.067248 0.074302
-0.161806 -0.061507 0.080218
-0.158436 -0.058656 0.082881
-0.155082 -0.055819 0.085532
-0.151744 -0.052994 0.088171
-0.148420 -0.050182 0.090798
-0.145713 -0.048780 0.091835
-0.143012 -0.047382 0.092869
-0.139723 -0.044596 0.095473
-0.137038 -0.043207 0.096500
-0.133774 -0.040439 0.099087
-0.131105 -0.039060 0.100106
-0.127865 -0.036311 0.102677
-0.125212 -0.034941 0.103688
-0.123133 -0.034941 0.103149
-0.120488 -0.033574 0.104159
-0.117848 -0.032210 0.105167
-0.115215 -0.030850 0.106172
-0.112587 -0.029492 0.107175
-0.109965 -0.028137 0.108176
-0.107899 -0.028137 0.107640
-0.105285 -0.026785 0.108639
-0.103220 -0.026785 0.108104
-0.100615 -0.025437 0.109101
-0.098015 -0.024091 0.110097
-0.095955 -0.024091 0.109563
-0.093364 -0.022748 0.110556
-0.090778 -0.021409 0.111548
-0.088722 -0.021409 0.111015
-0.086145 -0.020072 0.112005
-0.083572 -0.018738 0.112993
-0.081522 -0.018738 0.112461
-0.079471 -0.018738 0.111929
-0.077420 -0.018738 0.111397
-0.074860 -0.017407 0.112385
-0.072812 -0.017407 0.111853
-0.070260 -0.016080 0.112839
-0.068214 -0.016080 0.112309
-0.066168 -0.016080 0.111778
-0.063626 -0.014755 0.112763
-0.061582 -0.014755 0.112233
-0.059538 -0.014755 0.111703
-0.057007 -0.013433 0.112686
-0.054965 -0.013433 0.112157
-0.052441 -0.012114 0.113139
-0.050402 -0.012114 0.112610
-0.048362 -0.012114 0.112081
-0.045849 -0.010797 0.113063
-0.043811 -0.010797 0.112534
-0.041774 -0.010797 0.112006
-0.039270 -0.009484 0.112986
-0.037235 -0.009484 0.112459
-0.034740 -0.008174 0.113437
-0.032707 -0.008174 0.112910
-0.030674 -0.008174 0.112383
-0.028188 -0.006866 0.113361
-0.026158 -0.006866 0.112834
-0.024127 -0.006866 0.112307
-0.021651 -0.005561 0.113284
-0.019180 -0.004260 0.114259
-0.017154 -0.004260 0.113733
-0.015128 -0.004260 0.113208
-0.012667 -0.002961 0.114181
-0.010643 -0.002961 0.113656
-0.008619 -0.002961 0.113132
-0.006596 -0.002961 0.112607
-0.003723 -0.000371 0.115075
-0.001703 -0.000371 0.114551
0.000735 0.000919 0.115520
0.002752 0.000919 0.114997
0.004769 0.000919 0.114474
0.006787 0.000919 0.113950
0.009213 0.002207 0.114919
0.011228 0.002207 0.114396
0.013243 0.002207 0.113874
0.015660 0.003492 0.114841
0.017673 0.003492 0.114319
0.019686 0.003492 0.113798
0.022092 0.004774 0.114764
0.024103 0.004774 0.114243
0.026114 0.004774 0.113721
0.028511 0.006053 0.114687
0.030520 0.006053 0.114166
0.032528 0.006053 0.113645
0.034916 0.007330 0.114610
0.036923 0.007330 0.114089
0.038929 0.007330 0.113569
0.040935 0.007330 0.113049
0.043311 0.008604 0.114013
0.045316 0.008604 0.113493
0.047320 0.008604 0.112974
0.049686 0.009875 0.113937
0.051688 0.009875 0.113418
0.053690 0.009875 0.112899
0.056048 0.011143 0.113861
0.058048 0.011143 0.113342
0.060047 0.011143 0.112824
0.062395 0.012409 0.113785
0.064393 0.012409 0.113267
0.066391 0.012409 0.112749
0.068729 0.013671 0.113709
0.070725 0.013671 0.113192
0.072720 0.013671 0.112675
0.074716 0.013671 0.112157
0.076711 0.013671 0.111640
0.079036 0.014932 0.112600
0.081030 0.014932 0.112083
0.083023 0.014932 0.111566
0.085339 0.016189 0.112526
0.087330 0.016189 0.112010
0.089321 0.016189 0.111493
0.091627 0.017444 0.112452
0.093617 0.017444 0.111936
0.095606 0.017444 0.111420
0.097903 0.018696 0.112378
0.099890 0.018696 0.111863
0.101877 0.018696 0.111348
0.104165 0.019945 0.112304
0.106149 0.019945 0.111790
0.108134 0.019945 0.111275
0.110119 0.019945 0.110760
0.112104 0.019945 0.110246
0.114378 0.021192 0.111202
0.116361 0.021192 0.110688
0.118344 0.021192 0.110174
0.120327 0.021192 0.109660
0.122590 0.022436 0.110617
0.124571 0.022436 0.110103
0.126551 0.022436 0.109589
0.128805 0.023677 0.110545
0.131055 0.024916 0.111498
0.133299 0.026152 0.112450
0.135539 0.027385 0.113399
0.138037 0.029844 0.115802
0.140264 0.031070 0.116745
0.142487 0.032292 0.117686
0.144706 0.033513 0.118625
0.146919 0.034731 0.119561
0.149128 0.035946 0.120496
0.151579 0.038369 0.122867
0.153775 0.039576 0.123795
0.155968 0.040781 0.124721
0.158156 0.041983 0.125646
0.160339 0.043183 0.126569
0.162517 0.044381 0.127489
0.164691 0.045576 0.128408
0.166633 0.045576 0.127904
0.168800 0.046768 0.128822
0.170963 0.047958 0.129737
0.173121 0.049145 0.130651
0.185859 0.107648 0.199927
0.189436 0.117166 0.210808
0.192012 0.121343 0.215322
0.194568 0.125487 0.219800
0.197104 0.129599 0.224244
0.199441 0.132662 0.227438
0.201588 0.134694 0.229402
0.203902 0.137728 0.232566
0.206030 0.139740 0.234511
0.208319 0.142745 0.237645
0.210429 0.144738 0.239571
0.212695 0.147714 0.242676
0.214786 0.149689 0.244583
0.217029 0.152636 0.247658
0.219102 0.154592 0.249547
0.221321 0.157512 0.252594
0.223377 0.159449 0.254464
0.225574 0.162342 0.257483
0.227612 0.164261 0.259336
0.229787 0.167126 0.262326
0.231807 0.169027 0.264161
0.233960 0.171866 0.267125
0.235963 0.173750 0.268942
0.238095 0.176562 0.271878
0.240081 0.178428 0.273679
0.242191 0.181215 0.276588
0.244161 0.183064 0.278372
0.246250 0.185824 0.281255
0.248078 0.186741 0.281918
0.249902 0.187657 0.282581
0.251723 0.188570 0.283242
0.253541 0.189482 0.283902
0.255237 0.189482 0.283462
0.257049 0.190392 0.284121
0.258859 0.191301 0.284779
0.260665 0.192208 0.285436
0.262356 0.192208 0.284998
0.264267 0.194016 0.286746
0.265955 0.194016 0.286308
0.267643 0.194016 0.285871
0.269436 0.194918 0.286525
0.271226 0.195818 0.287177
0.273013 0.196717 0.287829
0.274696 0.196717 0.287392
0.276380 0.196717 0.286956
0.278063 0.196717 0.286519
0.279747 0.196717 0.286083
0.281337 0.195818 0.284556
0.283022 0.195818 0.284119
0.284797 0.196717 0.284773
0.286570 0.197614 0.285426
0.288252 0.197614 0.284990
0.290020 0.198509 0.285643
0.291701 0.198509 0.285207
0.293464 0.199403 0.285859
0.295143 0.199403 0.285423
0.296901 0.200295 0.286074
0.298579 0.200295 0.285639
0.300332 0.201186 0.286289
0.302008 0.201186 0.285855
0.303684 0.201186 0.285420
0.305432 0.202075 0.286070
0.307176 0.202962 0.286718
0.308849 0.202962 0.286284
0.310589 0.203848 0.286932
0.312260 0.203848 0.286499
0.313995 0.204732 0.287146
0.315727 0.205614 0.287791
0.317396 0.205614 0.287359
0.319064 0.205614 0.286926
0.320732 0.205614 0.286494
0.322457 0.206495 0.287139
0.324124 0.206495 0.286707
0.325790 0.206495 0.286275
0.327457 0.206495 0.285843
0.329174 0.207375 0.286488
0.330791 0.206495 0.284978
0.332458 0.206495 0.284546
0.334125 0.206495 0.284114
0.335835 0.207375 0.284761
0.337501 0.207375 0.284329
0.339166 0.207375 0.283898
0.340831 0.207375 0.283466
0.342535 0.208252 0.284113
0.344198 0.208252 0.283682
0.345862 0.208252 0.283250
0.347526 0.208252 0.282819
0.349222 0.209128 0.283466
0.350884 0.209128 0.283035
0.352575 0.210003 0.283682
0.354236 0.210003 0.283251
0.355923 0.210876 0.283897
0.357582 0.210876 0.283466
0.359242 0.210876 0.283036
0.360901 0.210876 0.282606
0.362560 0.210876 0.282176
0.364220 0.210876 0.281745
0.365879 0.210876 0.281315
0.367538 0.210876 0.280885
0.369198 0.210876 0.280455
0.370869 0.211748 0.281102
0.372527 0.211748 0.280672
0.374185 0.211748 0.280243
0.375843 0.211748 0.279813
0.377501 0.211748 0.279383
0.379159 0.211748 0.278953
0.380817 0.211748 0.278523
0.382477 0.212617 0.279172
0.384133 0.212617 0.278742
0.385789 0.212617 0.278313
0.387448 0.211748 0.276803
0.389106 0.211748 0.276374
0.390764 0.211748 0.275944
0.392422 0.211748 0.275514
0.394080 0.211748 0.275084
0.395738 0.211748 0.274654
0.397396 0.211748 0.274224
0.399054 0.211748 0.273794
0.400711 0.211748 0.273364
0.402369 0.211748 0.272934
0.404045 0.210876 0.271419
0.405704 0.210876 0.270989
0.407363 0.210876 0.270558
0.409023 0.210876 0.270128
0.410705 0.210003 0.268609
0.412366 0.210003 0.268178
0.414027 0.210003 0.267747
0.415688 0.210003 0.267317
0.417349 0.210003 0.266886
0.419040 0.209128 0.265362
0.420703 0.209128 0.264931
0.422365 0.209128 0.264500
0.424027 0.209128 0.264069
0.425690 0.209128 0.263638
0.427352 0.209128 0.263207
0.429015 0.209128 0.262776
0.430677 0.209128 0.262345
0.432339 0.209128 0.261914
0.434002 0.209128 0.261483
0.435710 0.208252 0.259953
0.437374 0.208252 0.259522
0.439037 0.208252 0.259090
0.440752 0.207375 0.257557
0.442469 0.206495 0.256021
0.444189 0.205614 0.254482
0.445913 0.204732 0.252940
0.447640 0.203848 0.251395
0.449369 0.202962 0.249848
0.451042 0.202962 0.249414
0.452777 0.202075 0.247864
0.454514 0.201186 0.246310
0.456255 0.200295 0.244754
0.457999 0.199403 0.243195
0.459746 0.198509 0.241634
0.461566 0.196717 0.238938
0.463321 0.195818 0.237368
0.465299 0.192208 0.232375
0.467065 0.191301 0.230792
0.468835 0.190392 0.229206
0.470608 0.189482 0.227617
0.472465 0.187657 0.224871
0.474246 0.186741 0.223274
0.476283 0.183064 0.218183
0.479386 0.168078 0.198787
0.482491 0.153615 0.180039
0.487973 0.115066 0.130792
-0.165019 -0.076254 0.066333
-0.158467 -0.066111 0.077188
-0.155098 -0.063244 0.079864
-0.151744 -0.060389 0.082529
-0.149014 -0.058966 0.083581
-0.145686 -0.056131 0.086228
-0.142973 -0.054718 0.087273
-0.139669 -0.051902 0.089902
-0.136972 -0.050499 0.090940
-0.134281 -0.049099 0.091975
-0.131012 -0.046308 0.094581
-0.128337 -0.044918 0.095609
-0.125092 -0.042146 0.098198
-0.122433 -0.040765 0.099218
-0.119779 -0.039387 0.100236
-0.116568 -0.036640 0.102803
-0.113930 -0.035271 0.103813
-0.111298 -0.033906 0.104821
-0.109225 -0.033906 0.104284
-0.106601 -0.032543 0.105290
-0.103983 -0.031183 0.106294
-0.101371 -0.029827 0.107296
-0.099304 -0.029827 0.106760
-0.096700 -0.028473 0.107760
-0.094101 -0.027123 0.108758
-0.092039 -0.027123 0.108223
-0.089449 -0.025775 0.109219
-0.086865 -0.024431 0.110214
-0.084807 -0.024431 0.109680
-0.082231 -0.023089 0.110673
-0.080175 -0.023089 0.110140
-0.078120 -0.023089 0.109607
-0.075554 -0.021751 0.110598
-0.073501 -0.021751 0.110066
-0.070943 -0.020415 0.111056
-0.068892 -0.020415 0.110524
-0.066841 -0.020415 0.109992
-0.064293 -0.019082 0.110981
-0.062245 -0.019082 0.110450
-0.060196 -0.019082 0.109919
-0.057658 -0.017753 0.110907
-0.055612 -0.017753 0.110376
-0.053082 -0.016426 0.111362
-0.051038 -0.016426 0.110832
-0.048994 -0.016426 0.110302
-0.046474 -0.015102 0.111288
-0.044433 -0.015102 0.110758
-0.041920 -0.013781 0.111742
-0.039881 -0.013781 0.111213
-0.037841 -0.013781 0.110684
-0.035339 -0.012463 0.111667
-0.033302 -0.012463 0.111139
-0.031265 -0.012463 0.110610
-0.028773 -0.011148 0.111592
-0.026738 -0.011148 0.111064
-0.024703 -0.011148 0.110537
-0.022221 -0.009835 0.111517
-0.020188 -0.009835 0.110990
-0.017713 -0.008526 0.111969
-0.015683 -0.008526 0.111443
-0.013652 -0.008526 0.110916
-0.011188 -0.007220 0.111894
-0.008729 -0.005916 0.112870
-0.006702 -0.005916 0.112345
-0.004676 -0.005916 0.111820
-0.002650 -0.005916 0.111294
-0.000203 -0.004615 0.112270
0.001821 -0.004615 0.111745
0.003845 -0.004615 0.111220
0.006695 -0.002022 0.113691
0.008714 -0.002022 0.113167
0.011141 -0.000730 0.114138
0.013158 -0.000730 0.113614
0.015176 -0.000730 0.113091
0.017593 0.000560 0.114061
0.019608 0.000560 0.113538
0.021623 0.000560 0.113016
0.023638 0.000560 0.112493
0.026043 0.001846 0.113462
0.028056 0.001846 0.112940
0.030069 0.001846 0.112418
0.032465 0.003130 0.113386
0.034475 0.003130 0.112865
0.036486 0.003130 0.112344
0.038872 0.004411 0.113311
0.040881 0.004411 0.112790
0.042889 0.004411 0.112269
0.045266 0.005690 0.113235
0.047272 0.005690 0.112715
0.049279 0.005690 0.112195
0.051646 0.006965 0.113160
0.053650 0.006965 0.112640
0.055654 0.006965 0.112120
0.057658 0.006965 0.111601
0.060014 0.008238 0.112565
0.062016 0.008238 0.112046
0.064018 0.008238 0.111527
0.066364 0.009508 0.112491
0.068364 0.009508 0.111972
0.070364 0.009508 0.111454
0.072700 0.010775 0.112416
0.074698 0.010775 0.111898
0.076696 0.010775 0.111380
0.079023 0.012040 0.112342
0.081019 0.012040 0.111825
0.083014 0.012040 0.111307
0.085332 0.013302 0.112268
0.087326 0.013302 0.111751
0.089319 0.013302 0.111234
0.091312 0.013302 0.110718
0.093306 0.013302 0.110201
0.095610 0.014561 0.111162
0.097602 0.014561 0.110645
0.099593 0.014561 0.110129
0.101888 0.015817 0.111089
0.104179 0.017071 0.112047
0.106166 0.017071 0.111532
0.108153 0.017071 0.111017
0.110140 0.017071 0.110501
0.112419 0.018322 0.111459
0.114403 0.018322 0.110944
0.116388 0.018322 0.110430
0.118373 0.018322 0.109915
0.120358 0.018322 0.109400
0.122624 0.019571 0.110358
0.124606 0.019571 0.109844
0.126589 0.019571 0.109330
0.128846 0.020816 0.110287
0.131097 0.022059 0.111241
0.133344 0.023300 0.112194
0.135587 0.024538 0.113145
0.137824 0.025773 0.114093
0.140317 0.028235 0.116495
0.142542 0.029462 0.117437
0.144763 0.030687 0.118377
0.146978 0.031909 0.119315
0.149190 0.033128 0.120251
0.151396 0.034345 0.121185
0.153598 0.035560 0.122118
0.156036 0.037981 0.124482
0.158226 0.039187 0.125408
0.160412 0.040391 0.126331
0.162592 0.041593 0.127253
0.164769 0.042792 0.128173
0.166712 0.042792 0.127669
0.168881 0.043989 0.128588
0.171046 0.045183 0.129504
0.173207 0.046374 0.130419
0.186738 0.109343 0.204852
0.190106 0.117774 0.214415
0.192675 0.121941 0.218905
0.195223 0.126074 0.223361
0.197571 0.129154 0.226564
0.199904 0.132215 0.229748
0.202049 0.134246 0.231706
0.204358 0.137278 0.234860
0.206483 0.139289 0.236799
0.208769 0.142292 0.239923
0.210876 0.144285 0.241843
0.213138 0.147259 0.244938
0.215227 0.149233 0.246839
0.217466 0.152179 0.249905
0.219536 0.154134 0.251788
0.221753 0.157052 0.254826
0.223805 0.158988 0.256690
0.225999 0.161879 0.259700
0.228034 0.163798 0.261547
0.230206 0.166661 0.264528
0.232224 0.168562 0.266357
0.234374 0.171399 0.269312
0.236374 0.173282 0.271124
0.238503 0.176093 0.274051
0.240486 0.177958 0.275846
0.242594 0.180743 0.278747
0.244561 0.182592 0.280524
0.246520 0.184433 0.282295
0.248348 0.185351 0.282958
0.250172 0.186268 0.283619
0.251992 0.187182 0.284280
0.253810 0.188096 0.284939
0.255624 0.189007 0.285597
0.257434 0.189917 0.286253
0.259127 0.189917 0.285814
0.260933 0.190825 0.286470
0.262624 0.190825 0.286032
0.264535 0.192636 0.287778
0.266223 0.192636 0.287340
0.267911 0.192636 0.286903
0.269704 0.193539 0.287556
0.271493 0.194441 0.288208
0.273178 0.194441 0.287771
0.274863 0.194441 0.287334
0.276647 0.195341 0.287985
0.278234 0.194441 0.286460
0.279919 0.194441 0.286023
0.281510 0.193539 0.284494
0.283289 0.194441 0.285149
0.285064 0.195341 0.285802
0.286748 0.195341 0.285366
0.288519 0.196239 0.286019
0.290201 0.196239 0.285582
0.291967 0.197136 0.286234
0.293647 0.197136 0.285799
0.295409 0.198031 0.286450
0.297088 0.198031 0.286014
0.298844 0.198924 0.286665
0.300522 0.198924 0.286230
0.302274 0.199816 0.286879
0.303950 0.199816 0.286445
0.305697 0.200706 0.287093
0.307372 0.200706 0.286659
0.309114 0.201594 0.287307
0.310787 0.201594 0.286873
0.312525 0.202481 0.287520
0.314196 0.202481 0.287087
0.315930 0.203367 0.287733
0.317660 0.204250 0.288379
0.319328 0.204250 0.287946
0.320997 0.204250 0.287513
0.322665 0.204250 0.287081
0.324333 0.204250 0.286648
0.326055 0.205133 0.287294
0.327721 0.205133 0.286862
0.329388 0.205133 0.286430
0.331007 0.204250 0.284918
0.332722 0.205133 0.285565
0.334389 0.205133 0.285133
0.336056 0.205133 0.284701
0.337722 0.205133 0.284269
0.339430 0.206013 0.284916
0.341095 0.206013 0.284484
0.342761 0.206013 0.284052
0.344426 0.206013 0.283620
0.346126 0.206892 0.284267
0.347790 0.206892 0.283836
0.349454 0.206892 0.283404
0.351118 0.206892 0.282973
0.352810 0.207769 0.283620
0.354472 0.207769 0.283189
0.356160 0.208645 0.283836
0.357821 0.208645 0.283405
0.359482 0.208645 0.282974
0.361143 0.208645 0.282544
0.362823 0.209519 0.283190
0.364483 0.209519 0.282760
0.366142 0.209519 0.282329
0.367801 0.209519 0.281899
0.369461 0.209519 0.281469
0.371120 0.209519 0.281039
0.372780 0.209519 0.280608
0.374448 0.210392 0.281256
0.376106 0.210392 0.280826
0.377764 0.210392 0.280396
0.379422 0.210392 0.279966
0.381080 0.210392 0.279536
0.382737 0.210392 0.279107
0.384395 0.210392 0.278677
0.386053 0.210392 0.278247
0.387711 0.210392 0.277817
0.389369 0.210392 0.277387
0.391027 0.210392 0.276957
0.392685 0.210392 0.276527
0.394343 0.210392 0.276097
0.396011 0.209519 0.274585
0.397670 0.209519 0.274154
0.399329 0.209519 0.273724
0.400989 0.209519 0.273294
0.402648 0.209519 0.272864
0.404308 0.209519 0.272433
0.405967 0.209519 0.272003
0.407626 0.209519 0.271573
0.409286 0.209519 0.271143
0.410969 0.208645 0.269624
0.412629 0.208645 0.269193
0.414317 0.207769 0.267672
0.415979 0.207769 0.267241
0.417642 0.207769 0.266810
0.419304 0.207769 0.266379
0.420966 0.207769 0.265948
0.422663 0.206892 0.264422
0.424327 0.206892 0.263990
0.425953 0.207769 0.264654
0.427616 0.207769 0.264223
0.429278 0.207769 0.263792
0.430940 0.207769 0.263361
0.432603 0.207769 0.262930
0.434265 0.207769 0.262499
0.435973 0.206892 0.260970
0.437637 0.206892 0.260539
0.439301 0.206892 0.260107
0.441016 0.206013 0.258575
0.442733 0.205133 0.257040
0.444454 0.204250 0.255502
0.446178 0.203367 0.253961
0.447904 0.202481 0.252417
0.449634 0.201594 0.250871
0.451368 0.200706 0.249322
0.453104 0.199816 0.247770
0.454843 0.198924 0.246215
0.456586 0.198031 0.244657
0.458265 0.198031 0.244222
0.460080 0.196239 0.241533
0.461832 0.195341 0.239967
0.463660 0.193539 0.237264
0.465567 0.190825 0.233409
0.467334 0.189917 0.231827
0.469104 0.189007 0.230242
0.470956 0.187182 0.227503
0.472734 0.186268 0.225910
0.474598 0.184433 0.223156
0.476723 0.179817 0.216891
0.479750 0.165709 0.198643
0.482956 0.150217 0.178636
0.488774 0.108280 0.125219
-0.156360 -0.073635 0.070888
-0.152361 -0.069293 0.075214
-0.149002 -0.066414 0.077898
-0.146266 -0.064980 0.078960
-0.142933 -0.062121 0.081626
-0.140213 -0.060696 0.082680
-0.136905 -0.057857 0.085329
-0.134201 -0.056442 0.086375
-0.131504 -0.055031 0.087419
-0.128231 -0.052217 0.090044
-0.125550 -0.050815 0.091080
-0.122300 -0.048021 0.093689
-0.119635 -0.046628 0.094718
-0.116976 -0.045239 0.095744
-0.114322 -0.043853 0.096768
-0.111117 -0.041090 0.099349
-0.107925 -0.038339 0.101918
-0.105297 -0.036969 0.102929
-0.103221 -0.036969 0.102391
-0.100601 -0.035601 0.103400
-0.097987 -0.034237 0.104408
-0.095378 -0.032875 0.105413
-0.092776 -0.031517 0.106416
-0.090709 -0.031517 0.105880
-0.088114 -0.030161 0.106881
-0.085526 -0.028809 0.107880
-0.083464 -0.028809 0.107345
-0.080883 -0.027459 0.108342
-0.078308 -0.026113 0.109337
-0.076250 -0.026113 0.108804
-0.073684 -0.024769 0.109797
-0.071628 -0.024769 0.109264
-0.069573 -0.024769 0.108732
-0.067518 -0.024769 0.108199
-0.064963 -0.023429 0.109192
-0.062910 -0.023429 0.108659
-0.060364 -0.022092 0.109651
-0.058313 -0.022092 0.109119
-0.056262 -0.022092 0.108587
-0.053726 -0.020757 0.109578
-0.051677 -0.020757 0.109046
-0.049629 -0.020757 0.108515
-0.047103 -0.019425 0.109505
-0.045056 -0.019425 0.108974
-0.042538 -0.018097 0.109962
-0.040494 -0.018097 0.109432
-0.038450 -0.018097 0.108902
-0.035942 -0.016771 0.109889
-0.033900 -0.016771 0.109359
-0.031858 -0.016771 0.108830
-0.029360 -0.015448 0.109816
-0.027321 -0.015448 0.109287
-0.024830 -0.014128 0.110271
-0.022793 -0.014128 0.109743
-0.020756 -0.014128 0.109214
-0.018275 -0.012811 0.110198
-0.016240 -0.012811 0.109670
-0.014205 -0.012811 0.109142
-0.011735 -0.011497 0.110125
-0.009702 -0.011497 0.109597
-0.007239 -0.010186 0.110578
-0.005208 -0.010186 0.110052
-0.003178 -0.010186 0.109525
-0.000725 -0.008878 0.110505
0.001304 -0.008878 0.109979
0.003749 -0.007572 0.110957
0.005775 -0.007572 0.110431
0.007801 -0.007572 0.109906
0.010237 -0.006270 0.110883
0.012261 -0.006270 0.110358
0.014285 -0.006270 0.109834
0.017112 -0.003673 0.112307
0.019132 -0.003673 0.111784
0.021547 -0.002379 0.112755
0.023564 -0.002379 0.112232
0.025582 -0.002379 0.111709
0.027988 -0.001088 0.112680
0.030003 -0.001088 0.112158
0.032018 -0.001088 0.111635
0.034033 -0.001088 0.111113
0.036427 0.000201 0.112083
0.038440 0.000201 0.111561
0.040453 0.000201 0.111039
0.042837 0.001486 0.112009
0.044848 0.001486 0.111487
0.046858 0.001486 0.110966
0.049233 0.002769 0.111934
0.051242 0.002769 0.111414
0.053250 0.002769 0.110893
0.055616 0.004049 0.111860
0.057622 0.004049 0.111340
0.059628 0.004049 0.110820
0.061984 0.005327 0.111786
0.063989 0.005327 0.111267
0.065993 0.005327 0.110747
0.067997 0.005327 0.110227
0.070341 0.006601 0.111194
0.072343 0.006601 0.110674
0.074345 0.006601 0.110155
0.076680 0.007873 0.111121
0.078680 0.007873 0.110602
0.080680 0.007873 0.110083
0.083006 0.009142 0.111048
0.085003 0.009142 0.110530
0.087001 0.009142 0.110012
0.089317 0.010409 0.110975
0.091313 0.010409 0.110458
0.093308 0.010409 0.109940
0.095615 0.011672 0.110902
0.097609 0.011672 0.110386
0.099602 0.011672 0.109869
0.101595 0.011672 0.109352
0.103891 0.012933 0.110314
0.105882 0.012933 0.109797
0.107874 0.012933 0.109281
0.109865 0.012933 0.108765
0.112149 0.014191 0.109726
0.114428 0.015447 0.110686
0.116415 0.015447 0.110171
0.118402 0.015447 0.109655
0.120389 0.015447 0.109140
0.122657 0.016700 0.110099
0.124642 0.016700 0.109584
0.126627 0.016700 0.109070
0.128886 0.017950 0.110028
0.131140 0.019197 0.110984
0.133390 0.020442 0.111938
0.135634 0.021684 0.112890
0.137874 0.022924 0.113840
0.140109 0.024160 0.114788
0.142339 0.025395 0.115734
0.144819 0.027855 0.118129
0.147038 0.029082 0.119068
0.149251 0.030305 0.120006
0.151460 0.031526 0.120941
0.153664 0.032745 0.121875
0.155863 0.033961 0.122806
0.158058 0.035174 0.123735
0.160484 0.037594 0.126094
0.162667 0.038799 0.127017
0.164846 0.040003 0.127938
0.166791 0.040003 0.127434
0.168963 0.041203 0.128353
0.171130 0.042402 0.129271
0.173293 0.043597 0.130187
0.187806 0.112085 0.211003
0.190584 0.117336 0.216767
0.193335 0.122536 0.222475
0.195692 0.125631 0.225687
0.198036 0.128709 0.228880
0.200366 0.131769 0.232054
0.202508 0.133799 0.234006
0.204814 0.136829 0.237150
0.206936 0.138839 0.239083
0.209219 0.141841 0.242197
0.211322 0.143832 0.244111
0.213581 0.146805 0.247197
0.215667 0.148777 0.249092
0.217903 0.151722 0.252148
0.219970 0.153676 0.254025
0.222184 0.156593 0.257053
0.224233 0.158528 0.258912
0.226424 0.161418 0.261913
0.228456 0.163335 0.263753
0.230625 0.166198 0.266726
0.232640 0.168097 0.268549
0.234787 0.170933 0.271495
0.236784 0.172815 0.273301
0.238910 0.175625 0.276220
0.240891 0.177489 0.278009
0.242995 0.180273 0.280901
0.244959 0.182120 0.282673
0.246917 0.183961 0.284439
0.248617 0.183961 0.283998
0.250441 0.184879 0.284658
0.252261 0.185795 0.285317
0.254078 0.186709 0.285975
0.255892 0.187622 0.286632
0.257703 0.188533 0.287288
0.259395 0.188533 0.286849
0.261201 0.189442 0.287504
0.262892 0.189442 0.287065
0.264583 0.189442 0.286627
0.266490 0.191256 0.288372
0.268178 0.191256 0.287935
0.270075 0.193063 0.289675
0.271658 0.192160 0.288149
0.273446 0.193063 0.288801
0.275131 0.193063 0.288364
0.276816 0.193063 0.287927
0.278501 0.193063 0.287490
0.280186 0.193063 0.287053
0.281777 0.192160 0.285525
0.283464 0.192160 0.285088
0.285241 0.193063 0.285742
0.287015 0.193964 0.286395
0.288698 0.193964 0.285959
0.290467 0.194864 0.286611
0.292149 0.194864 0.286175
0.293914 0.195762 0.286826
0.295594 0.195762 0.286390
0.297354 0.196658 0.287041
0.299033 0.196658 0.286605
0.300788 0.197553 0.287255
0.302465 0.197553 0.286820
0.304215 0.198446 0.287469
0.305891 0.198446 0.287035
0.307637 0.199337 0.287683
0.309311 0.199337 0.287249
0.311052 0.200227 0.287896
0.312725 0.200227 0.287462
0.314461 0.201115 0.288109
0.316195 0.202001 0.288754
0.317864 0.202001 0.288321
0.319534 0.202001 0.287888
0.321204 0.202001 0.287455
0.322930 0.202886 0.288101
0.324598 0.202886 0.287668
0.326266 0.202886 0.287236
0.327935 0.202886 0.286803
0.329652 0.203770 0.287449
0.331271 0.202886 0.285938
0.332940 0.202886 0.285505
0.334608 0.202886 0.285073
0.336320 0.203770 0.285720
0.337987 0.203770 0.285287
0.339654 0.203770 0.284855
0.341320 0.203770 0.284423
0.343025 0.204652 0.285070
0.344690 0.204652 0.284638
0.346355 0.204652 0.284206
0.348021 0.204652 0.283775
0.349717 0.205532 0.284422
0.351381 0.205532 0.283990
0.353074 0.206410 0.284636
0.354736 0.206410 0.284205
0.356398 0.206410 0.283774
0.358061 0.206410 0.283343
0.359745 0.207287 0.283990
0.361406 0.207287 0.283559
0.363067 0.207287 0.283128
0.364728 0.207287 0.282698
0.366405 0.208163 0.283344
0.368064 0.208163 0.282914
0.369724 0.208163 0.282483
0.371383 0.208163 0.282053
0.373043 0.208163 0.281623
0.374702 0.208163 0.281193
0.376361 0.208163 0.280762
0.378021 0.208163 0.280332
0.379685 0.209037 0.280980
0.381342 0.209037 0.280550
0.383000 0.209037 0.280120
0.384658 0.209037 0.279690
0.386316 0.209037 0.279260
0.387974 0.209037 0.278830
0.389636 0.208163 0.277320
0.391296 0.208163 0.276890
0.392955 0.208163 0.276460
0.394614 0.208163 0.276029
0.396274 0.208163 0.275599
0.397933 0.208163 0.275169
0.399592 0.208163 0.274739
0.401252 0.208163 0.274308
0.402911 0.208163 0.273878
0.404571 0.208163 0.273448
0.406249 0.207287 0.271931
0.407910 0.207287 0.271501
0.409571 0.207287 0.271070
0.411256 0.206410 0.269550
0.412918 0.206410 0.269119
0.414580 0.206410 0.268688
0.416243 0.206410 0.268257
0.417905 0.206410 0.267826
0.419567 0.206410 0.267395
0.421263 0.205532 0.265870
0.422926 0.205532 0.265439
0.424590 0.205532 0.265007
0.426292 0.204652 0.263479
0.427918 0.205532 0.264145
0.429582 0.205532 0.263713
0.431246 0.205532 0.263282
0.432910 0.205532 0.262850
0.434573 0.205532 0.262419
0.436237 0.205532 0.261987
0.437901 0.205532 0.261556
0.439614 0.204652 0.260025
0.441331 0.203770 0.258491
0.442997 0.203770 0.258059
0.444718 0.202886 0.256521
0.446442 0.202001 0.254982
0.448169 0.201115 0.253439
0.449900 0.200227 0.251893
0.451633 0.199337 0.250345
0.453369 0.198446 0.248794
0.455109 0.197553 0.247240
0.456852 0.196658 0.245683
0.458598 0.195762 0.244124
0.460347 0.194864 0.242562
0.462099 0.193964 0.240996
0.463927 0.192160 0.238295
0.465835 0.189442 0.234443
0.467602 0.188533 0.232862
0.469372 0.187622 0.231278
0.471225 0.185795 0.228541
0.473003 0.184879 0.226949
0.474868 0.183041 0.224196
0.477079 0.177489 0.216766
0.480204 0.162377 0.197293
0.483329 0.147792 0.178471
-0.149606 -0.075384 0.070532
-0.146241 -0.072481 0.073236
-0.143500 -0.071035 0.074307
-0.140161 -0.068152 0.076993
-0.137435 -0.066716 0.078056
-0.134121 -0.063853 0.080724
-0.131412 -0.062427 0.081779
-0.128709 -0.061003 0.082832
-0.125430 -0.058167 0.085477
-0.122743 -0.056753 0.086522
-0.120062 -0.055343 0.087564
-0.116818 -0.052532 0.090186
-0.114153 -0.051131 0.091221
-0.111494 -0.049734 0.092254
-0.108284 -0.046948 0.094854
-0.105640 -0.045560 0.095878
-0.102454 -0.042793 0.098461
-0.099826 -0.041414 0.099479
-0.096664 -0.038666 0.102045
-0.094588 -0.038666 0.101507
-0.091977 -0.037296 0.102517
-0.089373 -0.035930 0.103526
-0.086774 -0.034567 0.104532
-0.084181 -0.033206 0.105535
-0.082114 -0.033206 0.104999
-0.079529 -0.031849 0.106002
-0.076950 -0.030495 0.107002
-0.074888 -0.030495 0.106467
-0.072317 -0.029143 0.107465
-0.069751 -0.027795 0.108461
-0.067694 -0.027795 0.107928
-0.065636 -0.027795 0.107394
-0.063579 -0.027795 0.106861
-0.061026 -0.026450 0.107856
-0.058970 -0.026450 0.107323
-0.056915 -0.026450 0.106790
-0.054372 -0.025107 0.107785
-0.052319 -0.025107 0.107253
-0.049785 -0.023768 0.108246
-0.047734 -0.023768 0.107714
-0.045683 -0.023768 0.107182
-0.043159 -0.022432 0.108174
-0.041110 -0.022432 0.107643
-0.039062 -0.022432 0.107112
-0.036547 -0.021098 0.108103
-0.034501 -0.021098 0.107572
-0.031994 -0.019768 0.108561
-0.029950 -0.019768 0.108031
-0.027906 -0.019768 0.107501
-0.025410 -0.018440 0.108490
-0.023368 -0.018440 0.107960
-0.021326 -0.018440 0.107431
-0.018839 -0.017116 0.108418
-0.016800 -0.017116 0.107889
-0.014321 -0.015794 0.108875
-0.012284 -0.015794 0.108347
-0.010247 -0.015794 0.107819
-0.007778 -0.014475 0.108803
-0.005743 -0.014475 0.108276
-0.003708 -0.014475 0.107748
-0.001249 -0.013159 0.108732
0.000784 -0.013159 0.108205
0.003236 -0.011846 0.109187
0.005266 -0.011846 0.108660
0.007297 -0.011846 0.108134
0.009738 -0.010536 0.109115
0.011767 -0.010536 0.108589
0.013795 -0.010536 0.108063
0.016227 -0.009229 0.109043
0.018253 -0.009229 0.108518
0.020677 -0.007924 0.109496
0.022701 -0.007924 0.108972
0.024725 -0.007924 0.108447
0.027530 -0.005324 0.110924
0.029549 -0.005324 0.110400
0.031953 -0.004028 0.111373
0.033971 -0.004028 0.110850
0.035988 -0.004028 0.110327
0.038382 -0.002735 0.111300
0.040397 -0.002735 0.110777
0.042412 -0.002735 0.110255
0.044428 -0.002735 0.109732
0.046810 -0.001445 0.110704
0.048823 -0.001445 0.110182
0.050836 -0.001445 0.109660
0.053209 -0.000157 0.110631
0.055220 -0.000157 0.110110
0.057231 -0.000157 0.109588
0.059594 0.001127 0.110558
0.061603 0.001127 0.110037
0.063611 0.001127 0.109517
0.065965 0.002409 0.110486
0.067972 0.002409 0.109966
0.069978 0.002409 0.109445
0.072323 0.003688 0.110413
0.074327 0.003688 0.109894
0.076331 0.003688 0.109374
0.078335 0.003688 0.108854
0.080669 0.004965 0.109822
0.082671 0.004965 0.109303
0.084673 0.004965 0.108784
0.086996 0.006238 0.109750
0.088996 0.006238 0.109232
0.090996 0.006238 0.108713
0.093311 0.007509 0.109679
0.095308 0.007509 0.109161
0.097306 0.007509 0.108643
0.099611 0.008777 0.109608
0.101607 0.008777 0.109090
0.103602 0.008777 0.108573
0.105898 0.010042 0.109537
0.107892 0.010042 0.109020
0.109885 0.010042 0.108503
0.111878 0.010042 0.107986
0.114163 0.011305 0.108949
0.116154 0.011305 0.108433
0.118145 0.011305 0.107917
0.120421 0.012565 0.108879
0.122410 0.012565 0.108363
0.124399 0.012565 0.107848
0.126665 0.013822 0.108809
0.128927 0.015077 0.109768
0.130911 0.015077 0.109254
0.133435 0.017578 0.111681
0.135682 0.018824 0.112634
0.137924 0.020068 0.113586
0.140161 0.021309 0.114535
0.142394 0.022548 0.115482
0.144621 0.023784 0.116427
0.146844 0.025017 0.117370
0.149313 0.027476 0.119760
0.151524 0.028701 0.120696
0.153730 0.029924 0.121631
0.155932 0.031145 0.122564
0.158129 0.032362 0.123494
0.160321 0.033577 0.124423
0.162509 0.034790 0.125350
0.164692 0.036000 0.126275
0.166871 0.037207 0.127197
0.169045 0.038412 0.128118
0.171214 0.039615 0.129037
0.173379 0.040815 0.129955
0.188674 0.113756 0.215862
0.191251 0.117942 0.220351
0.193807 0.122095 0.224806
0.196161 0.125189 0.228008
0.198501 0.128265 0.231191
0.200828 0.131323 0.234355
0.202966 0.133352 0.236301
0.205269 0.136381 0.239435
0.207388 0.138390 0.241362
0.209667 0.141390 0.244467
0.211768 0.143380 0.246374
0.214023 0.146352 0.249451
0.216106 0.148323 0.251340
0.218339 0.151266 0.254387
0.220403 0.153219 0.256258
0.222613 0.156134 0.259277
0.224660 0.158069 0.261130
0.226848 0.160957 0.264121
0.228877 0.162873 0.265956
0.231043 0.165735 0.268920
0.233055 0.167633 0.270737
0.235199 0.170468 0.273674
0.237194 0.172349 0.275474
0.239316 0.175157 0.278384
0.241295 0.177021 0.280168
0.243396 0.179803 0.283051
0.245358 0.181650 0.284818
0.247186 0.182571 0.285478
0.248887 0.182571 0.285037
0.250710 0.183490 0.285697
0.252530 0.184407 0.286355
0.254347 0.185323 0.287012
0.256161 0.186237 0.287668
0.257971 0.187149 0.288323
0.259664 0.187149 0.287884
0.261356 0.187149 0.287445
