ply
format ascii 1.0
element vertex 1714
property float x
property float y
property float z
end_header
0.453122 0.153919 -0.005758
0.451104 0.155061 -0.006352
0.449992 0.155061 -0.007911
0.448880 0.155061 -0.009470
0.446855 0.156205 -0.010068
0.445742 0.156205 -0.011628
0.443713 0.157352 -0.012229
0.441679 0.158501 -0.012831
0.439642 0.159653 -0.013435
0.437600 0.160806 -0.014039
0.439254 0.157352 -0.018477
0.448174 0.144862 -0.030402
0.456016 0.133742 -0.041159
0.459336 0.128264 -0.047220
0.463494 0.121760 -0.054112
0.465880 0.117466 -0.059165
0.467390 0.114267 -0.063305
0.467177 0.113205 -0.065680
0.466964 0.112145 -0.068052
0.467608 0.110031 -0.071283
0.467396 0.108977 -0.073642
0.467184 0.107925 -0.075996
0.467825 0.105827 -0.079200
0.467613 0.104781 -0.081542
0.467401 0.103737 -0.083880
0.467190 0.102696 -0.086214
0.467829 0.100618 -0.089382
0.467618 0.099582 -0.091704
0.467407 0.098548 -0.094021
0.468043 0.096485 -0.097163
0.467832 0.095457 -0.099468
0.467622 0.094431 -0.101769
0.468255 0.092385 -0.104885
0.468045 0.091364 -0.107174
0.467836 0.090346 -0.109459
0.467627 0.089329 -0.111740
0.467418 0.088315 -0.114016
0.467210 0.087302 -0.116288
0.467002 0.086291 -0.118556
0.466795 0.085282 -0.120820
0.466588 0.084275 -0.123079
0.466381 0.083270 -0.125334
0.466175 0.082267 -0.127585
0.465969 0.081266 -0.129831
0.465764 0.080266 -0.132074
0.465558 0.079269 -0.134312
0.465354 0.078273 -0.136546
0.465149 0.077279 -0.138776
0.464946 0.076287 -0.141001
0.463910 0.076287 -0.142453
0.462874 0.076287 -0.143904
0.462672 0.075297 -0.146123
0.461638 0.075297 -0.147573
0.461437 0.074309 -0.149786
0.460404 0.074309 -0.151235
0.460205 0.073322 -0.153443
0.459172 0.073322 -0.154890
0.458974 0.072337 -0.157092
0.457942 0.072337 -0.158538
0.456911 0.072337 -0.159984
0.456715 0.071355 -0.162180
0.455684 0.071355 -0.163624
0.455490 0.070374 -0.165815
0.454460 0.070374 -0.167258
0.454268 0.069394 -0.169443
0.453239 0.069394 -0.170885
0.452210 0.069394 -0.172326
0.452019 0.068417 -0.174505
0.450991 0.068417 -0.175945
0.450802 0.067441 -0.178118
0.449775 0.067441 -0.179557
0.448748 0.067441 -0.180996
0.448561 0.066468 -0.183163
0.447535 0.066468 -0.184600
0.447349 0.065496 -0.186761
0.446324 0.065496 -0.188198
0.446140 0.064526 -0.190353
0.445115 0.064526 -0.191789
0.444091 0.064526 -0.193224
0.443909 0.063557 -0.195373
0.442886 0.063557 -0.196807
0.441863 0.063557 -0.198241
0.441683 0.062591 -0.200383
0.440660 0.062591 -0.201815
0.439638 0.062591 -0.203248
0.437769 0.063557 -0.203976
0.436746 0.063557 -0.205410
0.435723 0.063557 -0.206844
0.435549 0.062591 -0.208978
0.434526 0.062591 -0.210411
0.433504 0.062591 -0.211844
0.432481 0.062591 -0.213276
0.430606 0.063557 -0.214013
0.429583 0.063557 -0.215447
0.428560 0.063557 -0.216881
0.427536 0.063557 -0.218315
0.426513 0.063557 -0.219749
0.425490 0.063557 -0.221183
0.424466 0.063557 -0.222617
0.423443 0.063557 -0.224051
0.422420 0.063557 -0.225485
0.421397 0.063557 -0.226919
0.420373 0.063557 -0.228353
0.419350 0.063557 -0.229786
0.419191 0.062591 -0.231900
0.418168 0.062591 -0.233332
0.417146 0.062591 -0.234765
0.416124 0.062591 -0.236198
0.414233 0.063557 -0.236956
0.413210 0.063557 -0.238390
0.412187 0.063557 -0.239824
0.411164 0.063557 -0.241258
0.410140 0.063557 -0.242692
0.409117 0.063557 -0.244126
0.408967 0.062591 -0.246226
0.407070 0.063557 -0.246993
0.406047 0.063557 -0.248427
0.405024 0.063557 -0.249861
0.403122 0.064526 -0.250633
0.402977 0.063557 -0.252729
0.401073 0.064526 -0.253503
0.400049 0.064526 -0.254939
0.399025 0.064526 -0.256374
0.398000 0.064526 -0.257809
0.396090 0.065496 -0.258589
0.395065 0.065496 -0.260025
0.394039 0.065496 -0.261462
0.393014 0.065496 -0.262899
0.391097 0.066468 -0.263684
0.390071 0.066468 -0.265122
0.389045 0.066468 -0.266560
0.388019 0.066468 -0.267997
0.386993 0.066468 -0.269435
0.385069 0.067441 -0.270227
0.384042 0.067441 -0.271667
0.383015 0.067441 -0.273106
0.381085 0.068417 -0.273902
0.380057 0.068417 -0.275342
0.379029 0.068417 -0.276783
0.378001 0.068417 -0.278223
0.376065 0.069394 -0.279025
0.375036 0.069394 -0.280467
0.374007 0.069394 -0.281909
0.372978 0.069394 -0.283351
0.371035 0.070374 -0.284158
0.370005 0.070374 -0.285601
0.368975 0.070374 -0.287044
0.367946 0.070374 -0.288487
0.366916 0.070374 -0.289931
0.364966 0.071355 -0.290745
0.363935 0.071355 -0.292189
0.362904 0.071355 -0.293634
0.361873 0.071355 -0.295078
0.359917 0.072337 -0.295898
0.358885 0.072337 -0.297344
0.357853 0.072337 -0.298790
0.355891 0.073322 -0.299613
0.354858 0.073322 -0.301060
0.352892 0.074309 -0.301887
0.351858 0.074309 -0.303336
0.349887 0.075297 -0.304165
0.348852 0.075297 -0.305615
0.346876 0.076287 -0.306447
0.345840 0.076287 -0.307899
0.343860 0.077279 -0.308734
0.342823 0.077279 -0.310186
0.341786 0.077279 -0.311639
0.339800 0.078273 -0.312479
0.338763 0.078273 -0.313933
0.336772 0.079269 -0.314775
0.335733 0.079269 -0.316230
0.333738 0.080266 -0.317076
0.332698 0.080266 -0.318533
0.331659 0.080266 -0.319989
0.329657 0.081266 -0.320839
0.328617 0.081266 -0.322297
0.326611 0.082267 -0.323150
0.324601 0.083270 -0.324004
0.323559 0.083270 -0.325465
0.321544 0.084275 -0.326322
0.319526 0.085282 -0.327181
0.318482 0.085282 -0.328644
0.316459 0.086291 -0.329506
0.314432 0.087302 -0.330370
0.312401 0.088315 -0.331235
0.311354 0.088315 -0.332703
0.309318 0.089329 -0.333571
0.307279 0.090346 -0.334440
0.306230 0.090346 -0.335911
0.304186 0.091364 -0.336784
0.302138 0.092385 -0.337658
0.301086 0.092385 -0.339131
0.299033 0.093407 -0.340009
0.296976 0.094431 -0.340888
0.295923 0.094431 -0.342364
0.293861 0.095457 -0.343246
0.291796 0.096485 -0.344130
0.290741 0.096485 -0.345609
0.288670 0.097516 -0.346496
0.286595 0.098548 -0.347385
0.284517 0.099582 -0.348275
0.283459 0.099582 -0.349758
0.281375 0.100618 -0.350652
0.279288 0.101656 -0.351547
0.278228 0.101656 -0.353033
0.276135 0.102696 -0.353931
0.274039 0.103737 -0.354831
0.272976 0.103737 -0.356320
0.270875 0.104781 -0.357223
0.268770 0.105827 -0.358128
0.267705 0.105827 -0.359620
0.265595 0.106875 -0.360528
0.263480 0.107925 -0.361437
0.262414 0.107925 -0.362932
0.260294 0.108977 -0.363845
0.258170 0.110031 -0.364760
0.256042 0.111087 -0.365676
0.254973 0.111087 -0.367175
0.252840 0.112145 -0.368095
0.250703 0.113205 -0.369016
0.249631 0.113205 -0.370518
0.247489 0.114267 -0.371443
0.275659 0.085282 -0.388650
0.294596 0.065496 -0.400808
0.313793 0.045491 -0.413029
0.325859 0.032571 -0.421385
0.328545 0.028939 -0.424725
0.330300 0.026232 -0.427560
0.332045 0.023539 -0.430380
0.333782 0.020860 -0.433185
0.336408 0.017311 -0.436445
0.336329 0.016427 -0.438284
0.338042 0.013786 -0.441048
0.338854 0.012034 -0.443338
0.339664 0.010287 -0.445619
0.339583 0.009416 -0.447437
0.340389 0.007678 -0.449705
0.340307 0.006811 -0.451515
0.341110 0.005083 -0.453770
0.341027 0.004221 -0.455571
0.341827 0.002501 -0.457814
0.342624 0.000787 -0.460048
0.342540 -0.000067 -0.461836
0.343334 -0.001772 -0.464058
0.343250 -0.002622 -0.465838
0.343167 -0.003471 -0.467615
0.343083 -0.004318 -0.469389
0.343872 -0.006009 -0.471588
0.343789 -0.006852 -0.473354
0.343705 -0.007693 -0.475116
0.343621 -0.008533 -0.476876
0.343538 -0.009372 -0.478633
0.343455 -0.010209 -0.480386
0.342503 -0.010209 -0.481720
0.341552 -0.010209 -0.483053
0.341471 -0.011044 -0.484801
0.339649 -0.010209 -0.485719
0.338698 -0.010209 -0.487053
0.337746 -0.010209 -0.488386
0.336795 -0.010209 -0.489719
0.334091 -0.008533 -0.490231
0.331377 -0.006852 -0.490745
0.329539 -0.006009 -0.491672
0.326811 -0.004318 -0.492190
0.324073 -0.002622 -0.492710
0.320430 -0.000067 -0.492819
0.317669 0.001643 -0.493342
0.313993 0.004221 -0.493453
0.310298 0.006811 -0.493565
0.305664 0.010287 -0.493261
0.301925 0.012909 -0.493373
0.298165 0.015546 -0.493486
0.294385 0.018196 -0.493599
0.290586 0.020860 -0.493713
0.286766 0.023539 -0.493828
0.282926 0.026232 -0.493943
0.279066 0.028939 -0.494058
0.275184 0.031660 -0.494175
0.271282 0.034397 -0.494291
0.266380 0.038068 -0.493982
0.262429 0.040839 -0.494099
0.258457 0.043625 -0.494217
0.254464 0.046426 -0.494335
0.250448 0.049242 -0.494454
0.245398 0.053021 -0.494141
0.240311 0.056828 -0.493825
0.236217 0.059701 -0.493944
0.232099 0.062591 -0.494063
0.227959 0.065496 -0.494184
0.222746 0.069394 -0.493864
0.218553 0.072337 -0.493985
0.214336 0.075297 -0.494106
0.210096 0.078273 -0.494227
0.205832 0.081266 -0.494350
0.200458 0.085282 -0.494026
0.195043 0.089329 -0.493700
0.191795 0.091364 -0.494272
0.186316 0.095457 -0.493945
0.181915 0.098548 -0.494069
0.177489 0.101656 -0.494193
0.171903 0.105827 -0.493863
0.167418 0.108977 -0.493988
0.162908 0.112145 -0.494113
0.157211 0.116398 -0.493779
0.152641 0.119609 -0.493904
0.146865 0.123920 -0.493568
0.141045 0.128264 -0.493228
0.135179 0.132642 -0.492886
0.130475 0.135949 -0.493010
0.124527 0.140388 -0.492665
0.119759 0.143740 -0.492790
0.112487 0.149372 -0.491966
0.107645 0.152779 -0.492090
0.101516 0.157352 -0.491735
0.096607 0.160806 -0.491859
0.090389 0.165445 -0.491501
0.085411 0.168948 -0.491626
0.079104 0.173652 -0.491264
0.072745 0.178395 -0.490900
0.067657 0.181978 -0.491024
0.061205 0.186789 -0.490656
0.056045 0.190424 -0.490780
0.049498 0.195305 -0.490408
0.044263 0.198992 -0.490532
0.037619 0.203945 -0.490157
0.030920 0.208939 -0.489779
0.025566 0.212712 -0.489902
0.018766 0.217780 -0.489520
0.011909 0.222891 -0.489134
0.004993 0.228046 -0.488745
-0.001983 0.233245 -0.488353
-0.007551 0.237173 -0.488475
-0.014633 0.242450 -0.488078
-0.021777 0.247773 -0.487679
-0.027476 0.251796 -0.487799
-0.034730 0.257200 -0.487395
-0.043582 0.264022 -0.486458
-0.049429 0.268152 -0.486577
-0.056876 0.273700 -0.486162
-0.062813 0.277894 -0.486280
-0.070378 0.283528 -0.485861
-0.078010 0.289214 -0.485438
-0.084091 0.293511 -0.485555
0.468074 0.239354 0.187536
0.472594 0.231483 0.178444
0.475180 0.226292 0.171894
0.475875 0.223713 0.167813
0.476566 0.221145 0.163749
0.477255 0.218588 0.159703
0.477941 0.216041 0.155673
0.477697 0.214772 0.152843
0.478379 0.212242 0.148841
0.479059 0.209722 0.144855
0.479736 0.207213 0.140886
0.482242 0.202226 0.134623
0.487440 0.193598 0.124999
0.489885 0.188724 0.118873
0.492310 0.183890 0.112797
0.494716 0.179096 0.106771
0.496223 0.175526 0.101887
0.496846 0.173158 0.098119
0.496591 0.171977 0.095448
0.497211 0.169624 0.091705
0.497829 0.167280 0.087976
0.497574 0.166111 0.085329
0.498189 0.163781 0.081625
0.499666 0.160304 0.076880
0.498547 0.160304 0.075312
0.498294 0.159150 0.072694
0.498040 0.157998 0.070082
0.497788 0.156848 0.067474
0.496672 0.156848 0.065911
0.496421 0.155700 0.063310
0.496170 0.154555 0.060715
0.495057 0.154555 0.059154
0.494808 0.153412 0.056566
0.493695 0.153412 0.055007
0.493448 0.152272 0.052425
0.493201 0.151134 0.049848
0.492091 0.151134 0.048292
0.491845 0.149998 0.045722
0.490736 0.149998 0.044168
0.490493 0.148864 0.041605
0.490249 0.147732 0.039046
0.489143 0.147732 0.037495
0.488036 0.147732 0.035944
0.486929 0.147732 0.034393
0.485822 0.147732 0.032842
0.484715 0.147732 0.031291
0.483608 0.147732 0.029740
0.483372 0.146603 0.027196
0.482266 0.146603 0.025647
0.481161 0.146603 0.024097
0.479181 0.147732 0.023536
0.478074 0.147732 0.021985
0.476967 0.147732 0.020434
0.475860 0.147732 0.018883
0.473873 0.148864 0.018316
0.472765 0.148864 0.016764
0.471657 0.148864 0.015211
0.470549 0.148864 0.013659
0.469441 0.148864 0.012106
0.467446 0.149998 0.011532
0.466337 0.149998 0.009978
0.465227 0.149998 0.008423
0.464118 0.149998 0.006869
0.463901 0.148864 0.004343
0.461900 0.149998 0.003761
0.460791 0.149998 0.002207
0.459682 0.149998 0.000653
0.458573 0.149998 -0.000901
0.456565 0.151134 -0.001489
0.455454 0.151134 -0.003045
0.454344 0.151134 -0.004600
0.453234 0.151134 -0.006156
0.451218 0.152272 -0.006750
0.450107 0.152272 -0.008307
0.448086 0.153412 -0.008903
0.446974 0.153412 -0.010462
0.445861 0.153412 -0.012021
0.443834 0.154555 -0.012622
0.441803 0.155700 -0.013224
0.439768 0.156848 -0.013827
0.437728 0.157998 -0.014431
0.444868 0.147732 -0.024545
0.453665 0.135433 -0.036323
0.457888 0.128836 -0.043333
0.462063 0.122316 -0.050262
0.464460 0.118012 -0.055339
0.465976 0.114805 -0.059498
0.466625 0.112678 -0.062759
0.467271 0.110559 -0.066006
0.467058 0.109502 -0.068375
0.466846 0.108448 -0.070739
0.467489 0.106345 -0.073959
0.467277 0.105296 -0.076311
0.467066 0.104250 -0.078658
0.467706 0.102163 -0.081851
0.467495 0.101123 -0.084186
0.467284 0.100084 -0.086517
0.467073 0.099048 -0.088843
0.467710 0.096981 -0.092001
0.467500 0.095950 -0.094316
0.467290 0.094922 -0.096626
0.467924 0.092870 -0.099757
0.467714 0.091848 -0.102056
0.468346 0.089808 -0.105168
0.468137 0.088791 -0.107454
0.467927 0.087776 -0.109737
0.467718 0.086763 -0.112015
0.467510 0.085752 -0.114289
0.467302 0.084742 -0.116559
0.467094 0.083735 -0.118824
0.466887 0.082729 -0.121085
0.466680 0.081726 -0.123342
0.466473 0.080724 -0.125595
0.466267 0.079724 -0.127843
0.466062 0.078726 -0.130088
0.465856 0.077730 -0.132328
0.465651 0.076736 -0.134564
0.465447 0.075743 -0.136795
0.465242 0.074752 -0.139023
0.464207 0.074752 -0.140474
0.464004 0.073764 -0.142696
0.462969 0.073764 -0.144146
0.461934 0.073764 -0.145596
0.461734 0.072777 -0.147811
0.460700 0.072777 -0.149260
0.460501 0.071792 -0.151470
0.459468 0.071792 -0.152917
0.459270 0.070809 -0.155121
0.458238 0.070809 -0.156567
0.458042 0.069827 -0.158766
0.457011 0.069827 -0.160210
0.455980 0.069827 -0.161655
0.455786 0.068848 -0.163847
0.454756 0.068848 -0.165290
0.454563 0.067870 -0.167477
0.453534 0.067870 -0.168919
0.453342 0.066894 -0.171100
0.451476 0.067870 -0.171803
0.451286 0.066894 -0.173981
0.450258 0.066894 -0.175422
0.450069 0.065920 -0.177595
0.449042 0.065920 -0.179034
0.448855 0.064947 -0.181202
0.448668 0.063977 -0.183366
0.447643 0.063977 -0.184803
0.447458 0.063008 -0.186961
0.446433 0.063008 -0.188397
0.445409 0.063008 -0.189832
0.445226 0.062041 -0.191984
0.444203 0.062041 -0.193418
0.443179 0.062041 -0.194852
0.442998 0.061076 -0.196997
0.441976 0.061076 -0.198430
0.440953 0.061076 -0.199862
0.439931 0.061076 -0.201295
0.439753 0.060112 -0.203433
0.438732 0.060112 -0.204864
0.436864 0.061076 -0.205593
0.435842 0.061076 -0.207025
0.434819 0.061076 -0.208458
0.433797 0.061076 -0.209891
0.432775 0.061076 -0.211323
0.431752 0.061076 -0.212756
0.430730 0.061076 -0.214188
0.429707 0.061076 -0.215621
0.428685 0.061076 -0.217053
0.427663 0.061076 -0.218486
0.426640 0.061076 -0.219919
0.425618 0.061076 -0.221351
0.424596 0.061076 -0.222784
0.423573 0.061076 -0.224216
0.422551 0.061076 -0.225649
0.421529 0.061076 -0.227082
0.420506 0.061076 -0.228514
0.419484 0.061076 -0.229947
0.418462 0.061076 -0.231379
0.417439 0.061076 -0.232812
0.416417 0.061076 -0.234245
0.415394 0.061076 -0.235677
0.414372 0.061076 -0.237110
0.413350 0.061076 -0.238542
0.412327 0.061076 -0.239975
0.411305 0.061076 -0.241407
0.411153 0.060112 -0.243508
0.409260 0.061076 -0.244273
0.409110 0.060112 -0.246371
0.407216 0.061076 -0.247138
0.405317 0.062041 -0.247906
0.404294 0.062041 -0.249340
0.403271 0.062041 -0.250774
0.402247 0.062041 -0.252208
0.401224 0.062041 -0.253642
0.400201 0.062041 -0.255076
0.399177 0.062041 -0.256510
0.398154 0.062041 -0.257944
0.396245 0.063008 -0.258723
0.395221 0.063008 -0.260158
0.394197 0.063008 -0.261593
0.393173 0.063008 -0.263029
0.391258 0.063977 -0.263813
0.390233 0.063977 -0.265250
0.389207 0.063977 -0.266686
0.388182 0.063977 -0.268123
0.386261 0.064947 -0.268913
0.385235 0.064947 -0.270351
0.384209 0.064947 -0.271789
0.383183 0.064947 -0.273227
0.381255 0.065920 -0.274022
0.380228 0.065920 -0.275461
0.378296 0.066894 -0.276260
0.377268 0.066894 -0.277700
0.376240 0.066894 -0.279141
0.375212 0.066894 -0.280581
0.374183 0.066894 -0.282022
0.372244 0.067870 -0.282827
0.371215 0.067870 -0.284269
0.370186 0.067870 -0.285711
0.369157 0.067870 -0.287153
0.367211 0.068848 -0.287963
0.366181 0.068848 -0.289406
0.365151 0.068848 -0.290850
0.364121 0.068848 -0.292293
0.362169 0.069827 -0.293109
0.361138 0.069827 -0.294553
0.360107 0.069827 -0.295998
0.359076 0.069827 -0.297443
0.358045 0.069827 -0.298887
0.356085 0.070809 -0.299710
0.354121 0.071792 -0.300535
0.353089 0.071792 -0.301982
0.351120 0.072777 -0.302809
0.350087 0.072777 -0.304258
0.349053 0.072777 -0.305706
0.347079 0.073764 -0.306538
0.346044 0.073764 -0.307988
0.344066 0.074752 -0.308823
0.343030 0.074752 -0.310274
0.341047 0.075743 -0.311111
0.340010 0.075743 -0.312564
0.338974 0.075743 -0.314017
0.336985 0.076736 -0.314858
0.335947 0.076736 -0.316312
0.333954 0.077730 -0.317157
0.332915 0.077730 -0.318612
0.330917 0.078726 -0.319460
0.329878 0.078726 -0.320917
0.327875 0.079724 -0.321767
0.326834 0.079724 -0.323225
0.324827 0.080724 -0.324079
0.323785 0.080724 -0.325538
0.321773 0.081726 -0.326395
0.319757 0.082729 -0.327253
0.318713 0.082729 -0.328715
0.316692 0.083735 -0.329576
0.314668 0.084742 -0.330439
0.312639 0.085752 -0.331303
0.311593 0.085752 -0.332770
0.309559 0.086763 -0.333637
0.307522 0.087776 -0.334506
0.306474 0.087776 -0.335975
0.304432 0.088791 -0.336847
0.302386 0.089808 -0.337721
0.301336 0.089808 -0.339193
0.299285 0.090827 -0.340070
0.297230 0.091848 -0.340948
0.296178 0.091848 -0.342423
0.294118 0.092870 -0.343304
0.292055 0.093895 -0.344187
0.291001 0.093895 -0.345665
0.288932 0.094922 -0.346551
0.286860 0.095950 -0.347439
0.284784 0.096981 -0.348328
0.283726 0.096981 -0.349810
0.281645 0.098013 -0.350703
0.279560 0.099048 -0.351597
0.278501 0.099048 -0.353081
0.276411 0.100084 -0.353979
0.274317 0.101123 -0.354878
0.273255 0.101123 -0.356365
0.271156 0.102163 -0.357268
0.269053 0.103206 -0.358172
0.267990 0.103206 -0.359662
0.265881 0.104250 -0.360569
0.263769 0.105296 -0.361478
0.262704 0.105296 -0.362971
0.260586 0.106345 -0.363883
0.258465 0.107395 -0.364797
0.256340 0.108448 -0.365713
0.255271 0.108448 -0.367210
0.253140 0.109502 -0.368129
0.251006 0.110559 -0.369050
0.249935 0.110559 -0.370550
0.247795 0.111617 -0.371474
0.275931 0.082729 -0.388665
0.294845 0.063008 -0.400811
0.314020 0.043068 -0.413021
0.325151 0.031099 -0.420880
0.326921 0.028377 -0.423735
0.329596 0.024769 -0.427058
0.331343 0.022080 -0.429879
0.333081 0.019406 -0.432685
0.334810 0.016745 -0.435477
0.335632 0.014979 -0.437786
0.336451 0.013220 -0.440087
0.337267 0.011466 -0.442380
0.338971 0.008847 -0.445125
0.338890 0.007977 -0.446943
0.339698 0.006242 -0.449212
0.339616 0.005377 -0.451022
0.340420 0.003651 -0.453278
0.340339 0.002790 -0.455080
0.341140 0.001073 -0.457323
0.341057 0.000216 -0.459116
0.341855 -0.001492 -0.461347
0.341772 -0.002344 -0.463132
0.341690 -0.003194 -0.464914
0.342483 -0.004891 -0.467127
0.342401 -0.005737 -0.468901
0.342318 -0.006581 -0.470672
0.342235 -0.007425 -0.472440
0.343025 -0.009106 -0.474631
0.342942 -0.009945 -0.476391
0.342859 -0.010783 -0.478148
0.342776 -0.011619 -0.479902
0.341825 -0.011619 -0.481235
0.340873 -0.011619 -0.482569
0.340792 -0.012453 -0.484317
0.339842 -0.012453 -0.485650
0.338891 -0.012453 -0.486982
0.337067 -0.011619 -0.487902
0.336116 -0.011619 -0.489235
0.334288 -0.010783 -0.490158
0.331578 -0.009106 -0.490671
0.329741 -0.008266 -0.491597
0.326128 -0.005737 -0.491703
0.323389 -0.004043 -0.492222
0.320641 -0.002344 -0.492742
0.317883 -0.000638 -0.493264
0.314211 0.001931 -0.493376
0.310519 0.004513 -0.493487
0.306809 0.007109 -0.493599
0.303078 0.009719 -0.493712
0.298399 0.013220 -0.493407
0.294624 0.015861 -0.493520
0.290828 0.018517 -0.493634
0.287012 0.021187 -0.493748
0.283177 0.023871 -0.493863
0.279320 0.026570 -0.493978
0.275443 0.029283 -0.494094
0.271545 0.032010 -0.494211
0.267626 0.034752 -0.494328
0.262701 0.038432 -0.494018
0.258734 0.041208 -0.494135
0.254745 0.044000 -0.494254
0.250734 0.046807 -0.494372
0.245689 0.050574 -0.494059
0.240608 0.054368 -0.493743
0.236518 0.057232 -0.493862
0.232405 0.060112 -0.493981
0.228270 0.063008 -0.494101
0.223063 0.066894 -0.493781
0.218874 0.069827 -0.493901
0.214663 0.072777 -0.494022
0.210427 0.075743 -0.494143
0.206168 0.078726 -0.494265
0.200800 0.082729 -0.493942
0.196486 0.085752 -0.494064
0.192147 0.088791 -0.494187
0.186675 0.092870 -0.493860
0.182279 0.095950 -0.493983
0.177858 0.099048 -0.494107
0.172279 0.103206 -0.493777
0.167800 0.106345 -0.493901
0.163295 0.109502 -0.494026
0.157605 0.113740 -0.493692
0.153040 0.116941 -0.493817
0.148448 0.120160 -0.493943
0.141459 0.125567 -0.493141
0.136797 0.128836 -0.493266
0.130902 0.133225 -0.492923
0.126177 0.136540 -0.493048
0.120200 0.140990 -0.492702
0.112938 0.146603 -0.491878
0.108102 0.149998 -0.492002
0.103237 0.153412 -0.492126
0.097077 0.157998 -0.491771
0.092145 0.161461 -0.491895
0.085897 0.166111 -0.491537
0.079598 0.170799 -0.491176
0.074557 0.174340 -0.491300
0.068166 0.179096 -0.490935
0.063053 0.182688 -0.491059
0.056569 0.187512 -0.490690
0.050031 0.192376 -0.490319
0.044804 0.196051 -0.490443
0.038169 0.200986 -0.490067
0.032866 0.204714 -0.490191
0.026133 0.209722 -0.489812
0.019342 0.214772 -0.489430
0.012494 0.219865 -0.489044
0.005588 0.225001 -0.488655
0.000073 0.228882 -0.488777
-0.006938 0.234096 -0.488384
-0.014010 0.239354 -0.487988
-0.019653 0.243328 -0.488109
-0.026834 0.248666 -0.487708
-0.032563 0.252700 -0.487829
-0.041384 0.259483 -0.486897
-0.048754 0.264963 -0.486486
-0.054631 0.269104 -0.486604
-0.062118 0.274669 -0.486189
-0.069671 0.280283 -0.485770
-0.075690 0.284527 -0.485887
-0.083363 0.290230 -0.485463
-0.091106 0.295984 -0.485036
0.467458 0.238901 0.191070
0.471987 0.231025 0.181946
0.474579 0.225830 0.175375
0.476213 0.221963 0.170069
0.475969 0.220680 0.167206
0.476660 0.218121 0.163148
0.477348 0.215573 0.159107
0.478033 0.213035 0.155082
0.478715 0.210508 0.151075
0.479394 0.207992 0.147085
0.480070 0.205487 0.143111
0.480743 0.202992 0.139154
0.484149 0.196799 0.131764
0.488420 0.189453 0.123320
0.491748 0.183401 0.116095
0.493272 0.179799 0.111157
0.494787 0.176219 0.106249
0.497170 0.171481 0.100281
0.496915 0.170302 0.097608
0.497535 0.167952 0.093860
0.497280 0.166780 0.091202
0.497897 0.164444 0.087478
0.498511 0.162118 0.083769
0.498256 0.160958 0.081135
0.498868 0.158646 0.077450
0.498614 0.157493 0.074830
0.498361 0.156343 0.072215
0.498107 0.155195 0.069606
0.497855 0.154049 0.067001
0.496740 0.154049 0.065439
0.496489 0.152905 0.062842
0.496239 0.151764 0.060249
0.495127 0.151764 0.058691
0.494878 0.150625 0.056105
0.493766 0.150625 0.054548
0.493519 0.149489 0.051969
0.493273 0.148354 0.049395
0.492163 0.148354 0.047841
0.491918 0.147222 0.045274
0.490810 0.147222 0.043721
0.490567 0.146092 0.041161
0.489460 0.146092 0.039610
0.489218 0.144965 0.037056
0.488112 0.144965 0.035507
0.487007 0.144965 0.033957
0.485901 0.144965 0.032408
0.484795 0.144965 0.030858
0.483689 0.144965 0.029309
0.482583 0.144965 0.027759
0.483218 0.142716 0.024232
0.482114 0.142716 0.022685
0.479266 0.144965 0.023111
0.478160 0.144965 0.021561
0.477055 0.144965 0.020012
0.475071 0.146092 0.019447
0.473964 0.146092 0.017896
0.472857 0.146092 0.016345
0.471750 0.146092 0.014794
0.470643 0.146092 0.013242
0.468651 0.147222 0.012670
0.467543 0.147222 0.011117
0.466435 0.147222 0.009565
0.465327 0.147222 0.008012
0.464219 0.147222 0.006460
0.463111 0.147222 0.004907
0.462003 0.147222 0.003355
0.460895 0.147222 0.001802
0.459787 0.147222 0.000249
0.457782 0.148354 -0.000337
0.456673 0.148354 -0.001891
0.455564 0.148354 -0.003445
0.454455 0.148354 -0.004999
0.453345 0.148354 -0.006553
0.451332 0.149489 -0.007147
0.450222 0.149489 -0.008702
0.448203 0.150625 -0.009298
0.447092 0.150625 -0.010856
0.445980 0.150625 -0.012413
0.443955 0.151764 -0.013013
0.441926 0.152905 -0.013615
0.439893 0.154049 -0.014218
0.441535 0.150625 -0.018642
0.450403 0.138246 -0.030530
0.456435 0.129410 -0.039432
0.459750 0.123958 -0.045495
0.462163 0.119635 -0.050606
0.464557 0.115345 -0.055677
0.466072 0.112149 -0.059831
0.466720 0.110029 -0.063088
0.466507 0.108972 -0.065461
0.467152 0.106864 -0.068698
0.466940 0.105813 -0.071059
0.466729 0.104764 -0.073416
0.467371 0.102673 -0.076625
0.467159 0.101630 -0.078969
0.466948 0.100589 -0.081310
0.466737 0.099550 -0.083646
0.467377 0.097478 -0.086819
0.467166 0.096445 -0.089143
0.466956 0.095414 -0.091463
0.467592 0.093358 -0.094610
0.467382 0.092333 -0.096918
0.467173 0.091310 -0.099221
0.467806 0.089269 -0.102341
0.467597 0.088252 -0.104633
0.467388 0.087236 -0.106920
0.467179 0.086222 -0.109203
0.466971 0.085211 -0.111482
0.466764 0.084201 -0.113757
0.466556 0.083193 -0.116027
0.466349 0.082187 -0.118293
0.466143 0.081183 -0.120554
0.465936 0.080181 -0.122812
0.465731 0.079181 -0.125065
0.465525 0.078182 -0.127314
0.465320 0.077186 -0.129559
0.465115 0.076191 -0.131799
0.464911 0.075198 -0.134035
0.464707 0.074207 -0.136268
0.464504 0.073218 -0.138496
0.464301 0.072231 -0.140720
0.463266 0.072231 -0.142169
0.463064 0.071245 -0.144388
0.462030 0.071245 -0.145836
0.460996 0.071245 -0.147285
0.460797 0.070261 -0.149497
0.459764 0.070261 -0.150944
0.459566 0.069280 -0.153150
0.458534 0.069280 -0.154596
0.458337 0.068300 -0.156797
0.457306 0.068300 -0.158241
0.457111 0.067321 -0.160436
0.456081 0.067321 -0.161880
0.455051 0.067321 -0.163323
0.454021 0.067321 -0.164766
0.453829 0.066345 -0.166953
0.452800 0.066345 -0.168395
0.452609 0.065370 -0.170577
0.451581 0.065370 -0.172017
0.451391 0.064398 -0.174194
0.450364 0.064398 -0.175633
0.450176 0.063427 -0.177804
0.449149 0.063427 -0.179242
0.448962 0.062458 -0.181408
0.447937 0.062458 -0.182844
0.447751 0.061490 -0.185005
0.446727 0.061490 -0.186440
0.446543 0.060525 -0.188595
0.445519 0.060525 -0.190029
0.444496 0.060525 -0.191463
0.443473 0.060525 -0.192897
0.443291 0.059561 -0.195044
0.442269 0.059561 -0.196477
0.441247 0.059561 -0.197909
0.441067 0.058599 -0.200050
0.440046 0.058599 -0.201481
0.439025 0.058599 -0.202913
0.438003 0.058599 -0.204344
0.436982 0.058599 -0.205775
0.435960 0.058599 -0.207206
0.434939 0.058599 -0.208638
0.433917 0.058599 -0.210069
0.432896 0.058599 -0.211500
0.431875 0.058599 -0.212931
0.430853 0.058599 -0.214363
0.429832 0.058599 -0.215794
0.428810 0.058599 -0.217225
0.427789 0.058599 -0.218657
0.426767 0.058599 -0.220088
0.425746 0.058599 -0.221519
0.424725 0.058599 -0.222950
0.423703 0.058599 -0.224382
0.422682 0.058599 -0.225813
0.421660 0.058599 -0.227244
0.420639 0.058599 -0.228675
0.419618 0.058599 -0.230107
0.418596 0.058599 -0.231538
0.417575 0.058599 -0.232969
0.416553 0.058599 -0.234401
0.415532 0.058599 -0.235832
0.414510 0.058599 -0.237263
0.413489 0.058599 -0.238694
0.412468 0.058599 -0.240126
0.411446 0.058599 -0.241557
0.410425 0.058599 -0.242988
0.409403 0.058599 -0.244419
0.408382 0.058599 -0.245851
0.407360 0.058599 -0.247282
0.406339 0.058599 -0.248713
0.404442 0.059561 -0.249483
0.403419 0.059561 -0.250915
0.401517 0.060525 -0.251687
0.401375 0.059561 -0.253780
0.400352 0.059561 -0.255213
0.398447 0.060525 -0.255989
0.397424 0.060525 -0.257423
0.396401 0.060525 -0.258857
0.395378 0.060525 -0.260291
0.393466 0.061490 -0.261072
0.392442 0.061490 -0.262507
0.391418 0.061490 -0.263942
0.390394 0.061490 -0.265378
0.388476 0.062458 -0.266164
0.387451 0.062458 -0.267601
0.386426 0.062458 -0.269038
0.385401 0.062458 -0.270474
0.384375 0.062458 -0.271911
0.382451 0.063427 -0.272704
0.381425 0.063427 -0.274142
0.380398 0.063427 -0.275580
0.378468 0.064398 -0.276378
0.377441 0.064398 -0.277817
0.376414 0.064398 -0.279256
0.375387 0.064398 -0.280695
0.373450 0.065370 -0.281498
0.372422 0.065370 -0.282939
0.371394 0.065370 -0.284380
0.370366 0.065370 -0.285820
0.368423 0.066345 -0.286629
0.367394 0.066345 -0.288071
0.366365 0.066345 -0.289512
0.365336 0.066345 -0.290954
0.364307 0.066345 -0.292396
0.362357 0.067321 -0.293212
0.361327 0.067321 -0.294655
0.360297 0.067321 -0.296098
0.358341 0.068300 -0.296918
0.357310 0.068300 -0.298362
0.356279 0.068300 -0.299807
0.354317 0.069280 -0.300631
0.353285 0.069280 -0.302077
0.351319 0.070261 -0.302903
0.350286 0.070261 -0.304351
0.348315 0.071245 -0.305180
0.347282 0.071245 -0.306629
0.345306 0.072231 -0.307461
0.344271 0.072231 -0.308911
0.343237 0.072231 -0.310361
0.341256 0.073218 -0.311198
0.340220 0.073218 -0.312649
0.338234 0.074207 -0.313489
0.337198 0.074207 -0.314942
0.335207 0.075198 -0.315784
0.334170 0.075198 -0.317238
0.333132 0.075198 -0.318692
0.331136 0.076191 -0.319539
0.330097 0.076191 -0.320994
0.328096 0.077186 -0.321844
0.327057 0.077186 -0.323301
0.325051 0.078182 -0.324154
0.324011 0.078182 -0.325612
0.322001 0.079181 -0.326468
0.319987 0.080181 -0.327325
0.318944 0.080181 -0.328786
0.316925 0.081183 -0.329646
0.314903 0.082187 -0.330508
0.312876 0.083193 -0.331372
0.311831 0.083193 -0.332837
0.309800 0.084201 -0.333703
0.307765 0.085211 -0.334572
0.306717 0.085211 -0.336039
0.304678 0.086222 -0.336911
0.302634 0.087236 -0.337784
0.301584 0.087236 -0.339254
0.299536 0.088252 -0.340130
0.297484 0.089269 -0.341008
0.296432 0.089269 -0.342481
0.294375 0.090288 -0.343361
0.292314 0.091310 -0.344244
0.291260 0.091310 -0.345720
0.289194 0.092333 -0.346605
0.287124 0.093358 -0.347492
0.285050 0.094385 -0.348381
0.283994 0.094385 -0.349861
0.281915 0.095414 -0.350753
0.279832 0.096445 -0.351647
0.278774 0.096445 -0.353130
0.276686 0.097478 -0.354027
0.274594 0.098513 -0.354925
0.273534 0.098513 -0.356411
0.271437 0.099550 -0.357312
0.269336 0.100589 -0.358216
0.268273 0.100589 -0.359704
0.266168 0.101630 -0.360611
0.264058 0.102673 -0.361519
0.262993 0.102673 -0.363011
0.260878 0.103718 -0.363922
0.258759 0.104764 -0.364835
0.256636 0.105813 -0.365750
0.255568 0.105813 -0.367246
0.253440 0.106864 -0.368164
0.251308 0.107917 -0.369084
0.250238 0.107917 -0.370582
0.248101 0.108972 -0.371505
0.276202 0.080181 -0.388679
0.295094 0.060525 -0.400814
0.314247 0.040650 -0.413013
0.324443 0.029628 -0.420374
0.326215 0.026909 -0.423231
0.327977 0.024205 -0.426072
0.329731 0.021515 -0.428899
0.331475 0.018840 -0.431710
0.333209 0.016178 -0.434507
0.334035 0.014412 -0.436820
0.334857 0.012652 -0.439125
0.335676 0.010898 -0.441422
0.336493 0.009150 -0.443710
0.338198 0.006539 -0.446449
0.338118 0.005672 -0.448264
0.338926 0.003942 -0.450529
0.338845 0.003080 -0.452336
0.339650 0.001359 -0.454588
0.339569 0.000501 -0.456387
0.340370 -0.001211 -0.458626
0.340289 -0.002064 -0.460417
0.341087 -0.003767 -0.462643
0.341005 -0.004616 -0.464426
0.340924 -0.005464 -0.466205
0.341718 -0.007155 -0.468414
0.341636 -0.007998 -0.470186
0.341554 -0.008840 -0.471954
0.341472 -0.009681 -0.473719
0.342262 -0.011358 -0.475906
0.342180 -0.012194 -0.477663
0.342098 -0.013028 -0.479418
0.341146 -0.013028 -0.480751
0.340195 -0.013028 -0.482084
0.340114 -0.013862 -0.483834
0.339164 -0.013862 -0.485166
0.338213 -0.013862 -0.486498
0.337262 -0.013862 -0.487830
0.335437 -0.013028 -0.488751
0.334486 -0.013028 -0.490084
0.331778 -0.011358 -0.490597
0.329060 -0.009681 -0.491111
0.326334 -0.007998 -0.491628
0.323598 -0.006310 -0.492146
0.320852 -0.004616 -0.492666
0.318097 -0.002916 -0.493187
0.314428 -0.000355 -0.493298
0.310741 0.002219 -0.493409
0.307034 0.004807 -0.493521
0.303307 0.007408 -0.493634
0.299561 0.010023 -0.493747
0.294861 0.013531 -0.493442
0.291070 0.016178 -0.493555
0.287258 0.018840 -0.493669
0.283426 0.021515 -0.493783
0.279574 0.024205 -0.493898
0.275701 0.026909 -0.494014
0.271807 0.029628 -0.494130
0.267893 0.032361 -0.494247
0.262973 0.036028 -0.493937
0.259010 0.038796 -0.494054
0.255025 0.041579 -0.494172
0.251019 0.044377 -0.494290
0.246990 0.047190 -0.494409
0.240904 0.051913 -0.493661
0.236819 0.054768 -0.493779
0.232710 0.057638 -0.493898
0.228580 0.060525 -0.494018
0.224426 0.063427 -0.494138
0.219195 0.067321 -0.493818
0.214988 0.070261 -0.493938
0.210758 0.073218 -0.494059
0.206504 0.076191 -0.494181
0.202226 0.079181 -0.494303
0.196832 0.083193 -0.493979
0.192499 0.086222 -0.494102
0.188141 0.089269 -0.494225
0.182643 0.093358 -0.493898
0.178227 0.096445 -0.494022
0.173786 0.099550 -0.494146
0.168181 0.103718 -0.493815
0.163681 0.106864 -0.493940
0.159155 0.110029 -0.494065
0.153439 0.114278 -0.493730
0.148853 0.117486 -0.493856
0.143057 0.121793 -0.493519
0.137216 0.126133 -0.493178
0.132532 0.129410 -0.493304
0.126609 0.133811 -0.492960
0.120640 0.138246 -0.492614
0.115856 0.141595 -0.492739
0.109801 0.146092 -0.492390
0.103699 0.150625 -0.492038
0.098811 0.154049 -0.492162
0.092621 0.158646 -0.491807
0.086381 0.163280 -0.491449
0.081386 0.166780 -0.491573
0.075056 0.171481 -0.491211
0.069991 0.175031 -0.491335
0.063568 0.179799 -0.490970
0.057093 0.184606 -0.490601
0.051914 0.188238 -0.490725
0.045344 0.193115 -0.490353
0.040091 0.196799 -0.490477
0.033422 0.201748 -0.490101
0.026698 0.206738 -0.489722
0.021325 0.210508 -0.489845
0.013079 0.216845 -0.488954
0.007617 0.220680 -0.489076
0.000676 0.225830 -0.488687
-0.004867 0.229722 -0.488809
-0.011914 0.234951 -0.488415
-0.019023 0.240224 -0.488018
-0.024695 0.244209 -0.488139
-0.031913 0.249563 -0.487738
-0.040721 0.256321 -0.486806
-0.046539 0.260411 -0.486925
-0.053949 0.265907 -0.486513
-0.061424 0.271452 -0.486098
-0.067382 0.275642 -0.486216
-0.074976 0.281274 -0.485796
-0.082637 0.286955 -0.485372
-0.088741 0.291250 -0.485489
-0.096525 0.297022 -0.485061
0.464916 0.241098 0.197130
0.471379 0.230566 0.185456
0.474919 0.224075 0.177638
0.475615 0.221498 0.173540
0.476308 0.218932 0.169460
0.476997 0.216376 0.165397
0.477685 0.213832 0.161351
0.478369 0.211298 0.157322
0.478124 0.210035 0.154493
0.478805 0.207518 0.150492
0.479483 0.205010 0.146507
0.480159 0.202514 0.142538
0.480831 0.200027 0.138587
0.486045 0.191407 0.128923
0.489396 0.185325 0.121647
0.491823 0.180505 0.115560
0.494230 0.175725 0.109523
0.495739 0.172165 0.104630
0.497239 0.168627 0.099768
0.496984 0.167452 0.097098
0.497603 0.165110 0.093355
0.498219 0.162778 0.089627
0.497964 0.161615 0.086981
0.498578 0.159297 0.083277
0.499189 0.156987 0.079588
0.498935 0.155836 0.076966
0.498681 0.154688 0.074349
0.498427 0.153541 0.071737
0.498174 0.152397 0.069131
0.497922 0.151255 0.066529
0.496809 0.151255 0.064969
0.496558 0.150116 0.062374
0.496308 0.148979 0.059785
0.495196 0.148979 0.058228
0.494948 0.147844 0.055645
0.493838 0.147844 0.054090
0.493591 0.146711 0.051514
0.493344 0.145580 0.048943
0.492236 0.145580 0.047390
0.491991 0.144452 0.044826
0.490884 0.144452 0.043275
0.490641 0.143326 0.040718
0.489535 0.143326 0.039168
0.490156 0.141081 0.035618
0.489052 0.141081 0.034072
0.487948 0.141081 0.032525
0.486845 0.141081 0.030979
0.485741 0.141081 0.029433
0.484638 0.141081 0.027886
0.483534 0.141081 0.026340
0.482431 0.141081 0.024793
0.481327 0.141081 0.023247
0.480223 0.141081 0.021701
0.479120 0.141081 0.020154
0.476266 0.143326 0.020575
0.475160 0.143326 0.019025
0.474054 0.143326 0.017476
0.472948 0.143326 0.015926
0.471843 0.143326 0.014377
0.469854 0.144452 0.013806
0.468747 0.144452 0.012255
0.467640 0.144452 0.010704
0.466533 0.144452 0.009153
0.465426 0.144452 0.007602
0.464319 0.144452 0.006051
0.463212 0.144452 0.004500
0.462105 0.144452 0.002949
0.460999 0.144452 0.001398
0.459892 0.144452 -0.000153
0.457889 0.145580 -0.000739
0.456781 0.145580 -0.002292
0.455673 0.145580 -0.003844
0.454565 0.145580 -0.005397
0.452554 0.146711 -0.005989
0.451445 0.146711 -0.007543
0.450336 0.146711 -0.009097
0.448320 0.147844 -0.009693
0.447209 0.147844 -0.011248
0.446099 0.147844 -0.012804
0.444076 0.148979 -0.013404
0.442049 0.150116 -0.014006
0.440019 0.151255 -0.014609
0.448019 0.139962 -0.025629
0.454088 0.131087 -0.034595
0.458305 0.124522 -0.041609
0.460728 0.120188 -0.046745
0.463132 0.115887 -0.051841
0.464654 0.112684 -0.056015
0.466167 0.109499 -0.060163
0.465955 0.108441 -0.062542
0.466602 0.106332 -0.065787
0.466390 0.105281 -0.068154
0.467034 0.103184 -0.071379
0.466823 0.102139 -0.073733
0.466612 0.101095 -0.076083
0.467253 0.099015 -0.079280
0.467042 0.097977 -0.081618
0.466831 0.096942 -0.083951
0.466621 0.095908 -0.086280
0.467259 0.093847 -0.089443
0.467049 0.092820 -0.091760
0.466840 0.091794 -0.094073
0.467475 0.089749 -0.097209
0.467265 0.088729 -0.099510
0.467898 0.086695 -0.102626
0.467689 0.085681 -0.104916
0.467480 0.084669 -0.107201
0.467272 0.083659 -0.109481
0.467064 0.082650 -0.111758
0.466856 0.081644 -0.114030
0.466649 0.080639 -0.116297
0.466442 0.079637 -0.118561
0.466235 0.078636 -0.120820
0.466029 0.077637 -0.123075
0.465824 0.076640 -0.125326
0.465618 0.075645 -0.127573
0.465413 0.074652 -0.129815
0.465209 0.073660 -0.132053
0.465004 0.072671 -0.134287
0.464801 0.071683 -0.136517
0.464597 0.070697 -0.138743
0.463562 0.070697 -0.140193
0.463360 0.069713 -0.142413
0.462327 0.069713 -0.143862
0.462126 0.068731 -0.146076
0.461093 0.068731 -0.147524
0.460060 0.068731 -0.148971
0.459862 0.067751 -0.151179
0.458830 0.067751 -0.152625
0.458633 0.066772 -0.154827
0.457602 0.066772 -0.156272
0.456571 0.066772 -0.157716
0.456376 0.065795 -0.159912
0.455346 0.065795 -0.161355
0.455153 0.064820 -0.163546
0.454124 0.064820 -0.164988
0.453095 0.064820 -0.166429
0.452903 0.063847 -0.168613
0.451875 0.063847 -0.170054
0.451686 0.062876 -0.172232
0.450658 0.062876 -0.173671
0.450470 0.061906 -0.175844
0.449444 0.061906 -0.177282
0.449256 0.060939 -0.179449
0.448231 0.060939 -0.180886
0.448045 0.059972 -0.183048
0.447021 0.059972 -0.184483
0.446836 0.059008 -0.186640
0.445813 0.059008 -0.188074
0.444789 0.059008 -0.189508
0.444607 0.058046 -0.191659
0.443584 0.058046 -0.193091
0.442562 0.058046 -0.194524
0.442382 0.057085 -0.196668
0.441360 0.057085 -0.198099
0.440339 0.057085 -0.199530
0.440161 0.056126 -0.201667
0.439140 0.056126 -0.203097
0.438120 0.056126 -0.204527
0.437099 0.056126 -0.205957
0.436079 0.056126 -0.207387
0.435058 0.056126 -0.208817
0.434038 0.056126 -0.210247
0.433017 0.056126 -0.211677
0.431997 0.056126 -0.213107
0.430976 0.056126 -0.214537
0.429956 0.056126 -0.215967
0.428935 0.056126 -0.217397
0.427915 0.056126 -0.218827
0.426894 0.056126 -0.220257
0.425874 0.056126 -0.221687
0.424853 0.056126 -0.223117
0.423833 0.056126 -0.224547
0.422812 0.056126 -0.225977
0.421792 0.056126 -0.227407
0.420772 0.056126 -0.228837
0.419751 0.056126 -0.230266
0.418731 0.056126 -0.231696
0.417710 0.056126 -0.233126
0.416690 0.056126 -0.234556
0.415669 0.056126 -0.235986
0.414649 0.056126 -0.237416
0.413628 0.056126 -0.238846
0.412608 0.056126 -0.240276
0.411587 0.056126 -0.241706
0.410567 0.056126 -0.243136
0.409546 0.056126 -0.244566
0.408526 0.056126 -0.245996
0.406632 0.057085 -0.246762
0.405611 0.057085 -0.248193
0.404589 0.057085 -0.249625
0.403568 0.057085 -0.251056
0.402546 0.057085 -0.252487
0.400645 0.058046 -0.253260
0.399623 0.058046 -0.254693
0.398601 0.058046 -0.256125
0.397578 0.058046 -0.257558
0.395671 0.059008 -0.258336
0.394648 0.059008 -0.259770
0.393624 0.059008 -0.261204
0.392601 0.059008 -0.262638
0.391578 0.059008 -0.264071
0.389663 0.059972 -0.264856
0.388639 0.059972 -0.266292
0.387615 0.059972 -0.267727
0.386590 0.059972 -0.269162
0.384669 0.060939 -0.269952
0.383644 0.060939 -0.271389
0.382619 0.060939 -0.272825
0.380693 0.061906 -0.273620
0.379666 0.061906 -0.275058
0.378640 0.061906 -0.276496
0.377614 0.061906 -0.277933
0.375681 0.062876 -0.278733
0.374654 0.062876 -0.280173
0.373627 0.062876 -0.281612
0.372600 0.062876 -0.283051
0.371573 0.062876 -0.284490
0.369633 0.063847 -0.285297
0.368605 0.063847 -0.286737
0.367577 0.063847 -0.288178
0.366549 0.063847 -0.289618
0.364602 0.064820 -0.290431
0.363573 0.064820 -0.291872
0.362544 0.064820 -0.293314
0.360592 0.065795 -0.294131
0.359562 0.065795 -0.295574
0.358532 0.065795 -0.297017
0.357502 0.065795 -0.298460
0.355543 0.066772 -0.299282
0.354513 0.066772 -0.300727
0.352549 0.067751 -0.301551
0.351517 0.067751 -0.302997
0.350486 0.067751 -0.304443
0.348517 0.068731 -0.305272
0.347484 0.068731 -0.306719
0.345511 0.069713 -0.307551
0.344477 0.069713 -0.309000
0.342499 0.070697 -0.309834
0.341464 0.070697 -0.311284
0.339481 0.071683 -0.312122
0.338446 0.071683 -0.313573
0.337410 0.071683 -0.315025
0.335421 0.072671 -0.315867
0.334385 0.072671 -0.317319
0.332392 0.073660 -0.318164
0.331354 0.073660 -0.319618
0.329356 0.074652 -0.320466
0.328318 0.074652 -0.321921
0.327279 0.074652 -0.323376
0.325276 0.075645 -0.324229
0.324236 0.075645 -0.325685
0.322228 0.076640 -0.326540
0.320216 0.077637 -0.327397
0.319175 0.077637 -0.328856
0.317158 0.078636 -0.329716
0.315138 0.079637 -0.330577
0.314094 0.079637 -0.332039
0.312069 0.080639 -0.332904
0.310040 0.081644 -0.333770
0.308994 0.081644 -0.335235
0.306961 0.082650 -0.336103
0.304923 0.083659 -0.336974
0.303875 0.083659 -0.338442
0.301833 0.084669 -0.339315
0.299787 0.085681 -0.340190
0.297736 0.086695 -0.341067
0.296686 0.086695 -0.342539
0.294631 0.087711 -0.343419
0.292572 0.088729 -0.344300
0.291519 0.088729 -0.345775
0.289456 0.089749 -0.346660
0.287388 0.090770 -0.347546
0.286333 0.090770 -0.349023
0.284261 0.091794 -0.349913
0.282184 0.092820 -0.350804
0.281128 0.092820 -0.352284
0.279046 0.093847 -0.353178
0.276960 0.094877 -0.354074
0.275902 0.094877 -0.355557
0.273811 0.095908 -0.356456
0.271717 0.096942 -0.357357
0.269618 0.097977 -0.358259
0.268557 0.097977 -0.359747
0.266453 0.099015 -0.360652
0.264346 0.100054 -0.361560
0.263282 0.100054 -0.363050
0.261169 0.101095 -0.363960
0.259053 0.102139 -0.364873
0.257987 0.102139 -0.366366
0.255865 0.103184 -0.367281
0.253739 0.104232 -0.368198
0.252672 0.104232 -0.369694
0.250541 0.105281 -0.370615
0.248406 0.106332 -0.371537
0.277485 0.076640 -0.389238
0.296319 0.057085 -0.401339
0.315414 0.037311 -0.413506
0.322809 0.029064 -0.419377
0.324588 0.026345 -0.422239
0.326356 0.023640 -0.425086
0.328115 0.020949 -0.427917
0.329865 0.018273 -0.430734
0.331605 0.015610 -0.433535
0.332434 0.013843 -0.435852
0.333260 0.012083 -0.438161
0.334083 0.010328 -0.440461
0.335799 0.007708 -0.443215
0.336614 0.005968 -0.445497
0.337426 0.004235 -0.447770
0.338235 0.002508 -0.450036
0.338155 0.001647 -0.451844
0.338961 -0.000071 -0.454097
0.338881 -0.000928 -0.455896
0.339684 -0.002638 -0.458136
0.339603 -0.003490 -0.459927
0.340402 -0.005190 -0.462154
0.340321 -0.006038 -0.463937
0.340240 -0.006885 -0.465717
0.340159 -0.007730 -0.467494
0.340954 -0.009416 -0.469699
0.340872 -0.010256 -0.471468
0.340791 -0.011096 -0.473233
0.340710 -0.011933 -0.474996
0.341500 -0.013605 -0.477179
0.341419 -0.014438 -0.478934
0.340467 -0.014438 -0.480267
0.340387 -0.015270 -0.482018
0.339436 -0.015270 -0.483350
0.338486 -0.015270 -0.484682
0.337535 -0.015270 -0.486014
0.336584 -0.015270 -0.487346
0.335634 -0.015270 -0.488678
0.333807 -0.014438 -0.489599
0.331978 -0.013605 -0.490522
0.329263 -0.011933 -0.491036
0.326539 -0.010256 -0.491552
0.323806 -0.008573 -0.492070
0.321063 -0.006885 -0.492589
0.318310 -0.005190 -0.493110
0.314646 -0.002638 -0.493221
0.310962 -0.000071 -0.493332
0.307258 0.002508 -0.493443
0.303536 0.005101 -0.493555
0.299793 0.007708 -0.493668
0.296032 0.010328 -0.493781
0.292250 0.012962 -0.493895
0.287504 0.016496 -0.493590
0.283676 0.019163 -0.493704
0.279827 0.021844 -0.493818
0.275958 0.024540 -0.493934
0.272069 0.027250 -0.494050
0.268158 0.029974 -0.494166
0.264227 0.032713 -0.494283
0.259286 0.036389 -0.493973
0.255305 0.039162 -0.494090
0.251303 0.041951 -0.494209
0.247279 0.044755 -0.494327
0.243233 0.047575 -0.494447
0.237119 0.052308 -0.493697
0.233015 0.055169 -0.493816
0.228889 0.058046 -0.493935
0.224740 0.060939 -0.494055
0.220568 0.063847 -0.494175
0.215313 0.067751 -0.493855
0.211088 0.070697 -0.493975
0.206838 0.073660 -0.494097
0.202565 0.076640 -0.494219
0.197178 0.080639 -0.493895
0.192850 0.083659 -0.494017
0.188497 0.086695 -0.494140
0.183005 0.090770 -0.493813
0.178595 0.093847 -0.493936
0.174160 0.096942 -0.494060
0.168561 0.101095 -0.493729
0.164066 0.104232 -0.493853
0.159546 0.107386 -0.493978
0.153837 0.111620 -0.493644
0.149256 0.114817 -0.493769
0.144649 0.118033 -0.493895
0.138825 0.122350 -0.493557
0.132956 0.126701 -0.493216
0.127041 0.131087 -0.492873
0.122299 0.134398 -0.492998
0.116301 0.138844 -0.492651
0.110254 0.143326 -0.492302
0.105411 0.146711 -0.492427
0.099278 0.151255 -0.492074
0.093096 0.155836 -0.491719
0.088147 0.159297 -0.491843
0.081876 0.163943 -0.491484
0.076857 0.167452 -0.491609
0.070496 0.172165 -0.491246
0.064082 0.176916 -0.490881
0.058951 0.180505 -0.491005
0.052444 0.185325 -0.490636
0.047240 0.188967 -0.490760
0.040636 0.193857 -0.490387
0.033977 0.198788 -0.490011
0.028655 0.202514 -0.490135
0.021897 0.207518 -0.489755
0.015082 0.212564 -0.489372
0.008208 0.217653 -0.488986
0.002719 0.221498 -0.489108
-0.004258 0.226663 -0.488718
-0.011295 0.231872 -0.488325
-0.016912 0.235809 -0.488446
-0.024058 0.241098 -0.488049
-0.031265 0.246432 -0.487647
-0.037015 0.250463 -0.487768
-0.045870 0.257241 -0.486835
-0.053268 0.262717 -0.486423
-0.059167 0.266856 -0.486541
-0.066681 0.272417 -0.486125
-0.072671 0.276620 -0.486243
-0.080305 0.282268 -0.485822
-0.088007 0.287967 -0.485398
-0.094143 0.292275 -0.485515
0.469818 0.231413 0.190218
0.474317 0.223610 0.181128
0.475954 0.219746 0.175799
0.476646 0.217184 0.171713
0.476402 0.215906 0.168852
0.477091 0.213360 0.164794
0.477777 0.210825 0.160754
0.478460 0.208300 0.156730
0.479140 0.205786 0.152724
0.479818 0.203283 0.148734
0.480493 0.200789 0.144761
0.481164 0.198307 0.140805
0.482746 0.194602 0.135713
0.487930 0.186048 0.126100
0.491260 0.180013 0.118861
0.492786 0.176421 0.113914
0.495184 0.171667 0.107896
0.496688 0.168127 0.103018
0.497308 0.165779 0.099255
0.497926 0.163440 0.095508
0.497671 0.162274 0.092851
0.498287 0.159950 0.089128
0.499765 0.156481 0.084356
0.499510 0.155329 0.081726
0.499255 0.154180 0.079102
0.499001 0.153033 0.076482
0.498747 0.151888 0.073868
0.498494 0.150746 0.071260
0.498241 0.149605 0.068656
0.497989 0.148467 0.066058
0.496877 0.148467 0.064499
0.496626 0.147332 0.061908
0.496376 0.146198 0.059322
0.495266 0.146198 0.057766
0.495018 0.145067 0.055186
0.493909 0.145067 0.053632
0.493662 0.143939 0.051060
0.492554 0.143939 0.049507
0.492308 0.142812 0.046941
0.492064 0.141688 0.044380
0.490958 0.141688 0.042830
0.491576 0.139446 0.039273
0.490472 0.139446 0.037726
0.490230 0.138328 0.035182
0.489127 0.138328 0.033637
0.488025 0.138328 0.032092
0.486922 0.138328 0.030548
0.485820 0.138328 0.029003
0.484717 0.138328 0.027458
0.483615 0.138328 0.025913
0.482512 0.138328 0.024368
0.481410 0.138328 0.022823
0.480307 0.138328 0.021278
0.478333 0.139446 0.020716
0.477229 0.139446 0.019170
0.476125 0.139446 0.017623
0.475022 0.139446 0.016077
0.473918 0.139446 0.014530
0.471054 0.141688 0.014940
0.469948 0.141688 0.013390
0.468842 0.141688 0.011841
0.467737 0.141688 0.010291
0.466631 0.141688 0.008742
0.465525 0.141688 0.007192
0.463530 0.142812 0.006614
0.463314 0.141688 0.004093
0.462208 0.141688 0.002544
0.461102 0.141688 0.000994
0.459996 0.141688 -0.000555
0.457995 0.142812 -0.001141
0.456888 0.142812 -0.002692
0.455781 0.142812 -0.004243
0.453774 0.143939 -0.004833
0.452666 0.143939 -0.006385
0.451558 0.143939 -0.007938
0.450450 0.143939 -0.009491
0.449342 0.143939 -0.011043
0.447327 0.145067 -0.011640
0.446218 0.145067 -0.013195
0.444197 0.146198 -0.013795
0.442172 0.147332 -0.014396
0.444713 0.142812 -0.019753
0.452620 0.131668 -0.030657
0.455970 0.126178 -0.036793
0.459287 0.120742 -0.042869
0.461702 0.116431 -0.047990
0.463231 0.113220 -0.052183
0.465614 0.108967 -0.057234
0.465402 0.107909 -0.059617
0.466051 0.105799 -0.062871
0.466697 0.103698 -0.066112
0.466485 0.102650 -0.068476
0.466274 0.101604 -0.070836
0.466917 0.099518 -0.074049
0.466706 0.098478 -0.076397
0.466495 0.097440 -0.078739
0.467135 0.095370 -0.081926
0.466925 0.094339 -0.084256
0.466715 0.093309 -0.086583
0.466505 0.092281 -0.088905
0.467142 0.090230 -0.092057
0.466933 0.089208 -0.094367
0.466723 0.088188 -0.096672
0.467358 0.086153 -0.099798
0.467149 0.085139 -0.102092
0.466940 0.084126 -0.104381
0.466732 0.083115 -0.106667
0.466525 0.082107 -0.108948
0.466317 0.081100 -0.111225
0.466110 0.080095 -0.113497
0.465904 0.079092 -0.115766
0.465697 0.078091 -0.118030
0.465492 0.077091 -0.120290
0.465286 0.076094 -0.122545
0.465081 0.075098 -0.124796
0.464877 0.074105 -0.127043
0.464672 0.073113 -0.129286
0.464468 0.072123 -0.131525
0.464265 0.071135 -0.133760
0.464062 0.070148 -0.135990
0.463859 0.069164 -0.138216
