ply
format ascii 1.0
element vertex 1654
property float x
property float y
property float z
end_header
-0.446213 -0.010149 -0.313664
-0.445472 -0.010138 -0.310293
-0.444732 -0.010127 -0.306929
-0.443994 -0.010117 -0.303573
-0.443258 -0.010106 -0.300224
-0.441631 -0.010106 -0.298859
-0.440899 -0.010096 -0.295519
-0.440167 -0.010085 -0.292186
-0.439438 -0.010074 -0.288861
-0.438710 -0.010064 -0.285543
-0.437984 -0.010053 -0.282233
-0.436366 -0.010053 -0.280875
-0.435643 -0.010043 -0.277574
-0.434027 -0.010043 -0.276218
-0.432411 -0.010043 -0.274862
-0.431694 -0.010032 -0.271571
-0.430080 -0.010032 -0.270216
-0.429365 -0.010022 -0.266934
-0.427753 -0.010022 -0.265581
-0.426141 -0.010022 -0.264228
-0.425431 -0.010012 -0.260955
-0.423821 -0.010012 -0.259604
-0.423115 -0.010001 -0.256340
-0.421506 -0.010001 -0.254990
-0.419898 -0.010001 -0.253640
-0.419197 -0.009991 -0.250387
-0.417590 -0.009991 -0.249038
-0.415983 -0.009991 -0.247690
-0.414376 -0.009991 -0.246341
-0.413682 -0.009981 -0.243099
-0.411162 -0.009991 -0.243645
-0.409555 -0.009991 -0.242296
-0.407028 -0.010001 -0.242841
-0.405419 -0.010001 -0.241492
-0.403811 -0.010001 -0.240142
-0.402202 -0.010001 -0.238792
-0.400593 -0.010001 -0.237442
-0.398985 -0.010001 -0.236092
-0.397376 -0.010001 -0.234742
-0.395767 -0.010001 -0.233393
-0.393222 -0.010012 -0.233929
-0.390672 -0.010022 -0.234466
-0.388115 -0.010032 -0.235004
-0.388391 -0.010012 -0.229875
-0.388665 -0.009991 -0.224768
-0.388938 -0.009970 -0.219683
-0.390144 -0.009939 -0.212768
-0.389480 -0.009929 -0.209580
-0.389750 -0.009909 -0.204561
-0.390018 -0.009889 -0.199564
-0.390285 -0.009868 -0.194589
-0.390551 -0.009848 -0.189636
-0.390815 -0.009828 -0.184703
-0.391998 -0.009798 -0.178005
-0.392258 -0.009778 -0.173124
-0.391603 -0.009769 -0.170033
-0.391863 -0.009749 -0.165185
-0.392122 -0.009729 -0.160357
-0.391471 -0.009719 -0.157296
-0.391730 -0.009700 -0.152501
-0.391988 -0.009681 -0.147726
-0.391341 -0.009671 -0.144694
-0.390694 -0.009661 -0.141670
-0.390050 -0.009652 -0.138651
-0.389406 -0.009642 -0.135639
-0.388764 -0.009632 -0.132633
-0.388123 -0.009623 -0.129634
-0.387484 -0.009613 -0.126641
-0.386846 -0.009604 -0.123654
-0.386209 -0.009594 -0.120673
-0.385573 -0.009585 -0.117699
-0.384939 -0.009575 -0.114731
-0.384306 -0.009566 -0.111769
-0.383675 -0.009556 -0.108813
-0.383045 -0.009547 -0.105864
-0.381514 -0.009547 -0.104579
-0.380886 -0.009538 -0.101637
-0.380260 -0.009528 -0.098701
-0.379636 -0.009519 -0.095772
-0.379012 -0.009510 -0.092848
-0.378390 -0.009500 -0.089930
-0.377770 -0.009491 -0.087019
-0.377150 -0.009482 -0.084113
-0.376532 -0.009472 -0.081214
-0.375013 -0.009472 -0.079940
-0.374398 -0.009463 -0.077048
-0.373784 -0.009454 -0.074161
-0.373171 -0.009445 -0.071281
-0.372560 -0.009436 -0.068407
-0.371950 -0.009426 -0.065539
-0.371341 -0.009417 -0.062676
-0.369831 -0.009417 -0.061410
-0.369225 -0.009408 -0.058555
-0.368620 -0.009399 -0.055706
-0.367114 -0.009399 -0.054442
-0.366512 -0.009390 -0.051600
-0.365007 -0.009390 -0.050337
-0.363503 -0.009390 -0.049074
-0.362905 -0.009381 -0.046241
-0.361402 -0.009381 -0.044980
-0.359899 -0.009381 -0.043718
-0.359305 -0.009372 -0.040893
-0.357804 -0.009372 -0.039633
-0.356302 -0.009372 -0.038373
-0.355713 -0.009363 -0.035556
-0.354213 -0.009363 -0.034297
-0.353626 -0.009354 -0.031487
-0.352128 -0.009354 -0.030230
-0.351544 -0.009345 -0.027427
-0.350047 -0.009345 -0.026171
-0.349466 -0.009336 -0.023375
-0.347971 -0.009336 -0.022120
-0.346475 -0.009336 -0.020865
-0.345899 -0.009327 -0.018078
-0.344405 -0.009327 -0.016824
-0.343831 -0.009318 -0.014044
-0.342338 -0.009318 -0.012791
-0.340846 -0.009318 -0.011539
-0.340276 -0.009309 -0.008767
-0.338785 -0.009309 -0.007516
-0.337294 -0.009309 -0.006265
-0.336729 -0.009300 -0.003500
-0.335239 -0.009300 -0.002251
-0.334676 -0.009291 0.000507
-0.333188 -0.009291 0.001755
-0.332628 -0.009282 0.004506
-0.331142 -0.009282 0.005753
-0.329655 -0.009282 0.007000
-0.328169 -0.009282 0.008247
-0.326683 -0.009282 0.009494
-0.325196 -0.009282 0.010742
-0.324645 -0.009274 0.013480
-0.323160 -0.009274 0.014726
-0.321675 -0.009274 0.015972
-0.320190 -0.009274 0.017218
-0.319644 -0.009265 0.019947
-0.318161 -0.009265 0.021192
-0.316677 -0.009265 0.022437
-0.315194 -0.009265 0.023681
-0.313711 -0.009265 0.024926
-0.313172 -0.009256 0.027645
-0.311690 -0.009256 0.028888
-0.310208 -0.009256 0.030132
-0.309673 -0.009247 0.032842
-0.308193 -0.009247 0.034085
-0.305763 -0.009256 0.033862
-0.305232 -0.009247 0.036569
-0.303752 -0.009247 0.037811
-0.302272 -0.009247 0.039053
-0.300791 -0.009247 0.040295
-0.299311 -0.009247 0.041537
-0.297831 -0.009247 0.042779
-0.296350 -0.009247 0.044022
-0.294870 -0.009247 0.045264
-0.293390 -0.009247 0.046506
-0.291909 -0.009247 0.047748
-0.290429 -0.009247 0.048990
-0.288949 -0.009247 0.050232
-0.287468 -0.009247 0.051474
-0.285017 -0.009256 0.051269
-0.283535 -0.009256 0.052513
-0.282054 -0.009256 0.053756
-0.280572 -0.009256 0.054999
-0.279090 -0.009256 0.056243
-0.277608 -0.009256 0.057486
-0.276126 -0.009256 0.058730
-0.274644 -0.009256 0.059973
-0.273163 -0.009256 0.061216
-0.271681 -0.009256 0.062460
-0.270199 -0.009256 0.063703
-0.268717 -0.009256 0.064947
-0.267235 -0.009256 0.066190
-0.265754 -0.009256 0.067433
-0.265263 -0.009247 0.070106
-0.263783 -0.009247 0.071349
-0.261308 -0.009256 0.071164
-0.259826 -0.009256 0.072407
-0.257345 -0.009265 0.072223
-0.255861 -0.009265 0.073467
-0.254378 -0.009265 0.074712
-0.252895 -0.009265 0.075957
-0.251411 -0.009265 0.077201
-0.248919 -0.009274 0.077022
-0.247434 -0.009274 0.078268
-0.245949 -0.009274 0.079514
-0.244464 -0.009274 0.080760
-0.241962 -0.009282 0.080584
-0.240476 -0.009282 0.081831
-0.238989 -0.009282 0.083078
-0.237503 -0.009282 0.084325
-0.236017 -0.009282 0.085572
-0.233503 -0.009291 0.085401
-0.232015 -0.009291 0.086649
-0.230528 -0.009291 0.087898
-0.228006 -0.009300 0.087729
-0.226517 -0.009300 0.088978
-0.225027 -0.009300 0.090228
-0.223538 -0.009300 0.091478
-0.221007 -0.009309 0.091312
-0.219516 -0.009309 0.092563
-0.218025 -0.009309 0.093814
-0.216534 -0.009309 0.095065
-0.213993 -0.009318 0.094903
-0.212501 -0.009318 0.096155
-0.211009 -0.009318 0.097407
-0.209516 -0.009318 0.098659
-0.206966 -0.009327 0.098501
-0.205472 -0.009327 0.099754
-0.203978 -0.009327 0.101008
-0.202484 -0.009327 0.102261
-0.200990 -0.009327 0.103515
-0.199496 -0.009327 0.104768
-0.196933 -0.009336 0.104616
-0.195437 -0.009336 0.105870
-0.192867 -0.009345 0.105719
-0.191370 -0.009345 0.106975
-0.189873 -0.009345 0.108231
-0.187295 -0.009354 0.108081
-0.185796 -0.009354 0.109339
-0.183211 -0.009363 0.109190
-0.181711 -0.009363 0.110449
-0.179119 -0.009372 0.110302
-0.177617 -0.009372 0.111561
-0.175018 -0.009381 0.111415
-0.173515 -0.009381 0.112676
-0.170909 -0.009390 0.112531
-0.169404 -0.009390 0.113793
-0.167900 -0.009390 0.115056
-0.165285 -0.009399 0.114913
-0.163779 -0.009399 0.116176
-0.161158 -0.009408 0.116034
-0.159650 -0.009408 0.117299
-0.158143 -0.009408 0.118565
-0.155513 -0.009417 0.118425
-0.152877 -0.009426 0.118284
-0.150237 -0.009436 0.118144
-0.147591 -0.009445 0.118003
-0.144939 -0.009454 0.117862
-0.141138 -0.009472 0.116305
-0.139619 -0.009472 0.117579
-0.136951 -0.009482 0.117437
-0.134278 -0.009491 0.117295
-0.131599 -0.009500 0.117153
-0.128914 -0.009510 0.117010
-0.126223 -0.009519 0.116867
-0.123527 -0.009528 0.116723
-0.120826 -0.009538 0.116580
-0.118119 -0.009547 0.116436
-0.116587 -0.009547 0.117721
-0.113873 -0.009556 0.117578
-0.111152 -0.009566 0.117434
-0.108426 -0.009575 0.117291
-0.105695 -0.009585 0.117147
-0.102957 -0.009594 0.117003
-0.100214 -0.009604 0.116858
-0.098673 -0.009604 0.118151
-0.095923 -0.009613 0.118008
-0.093166 -0.009623 0.117864
-0.089184 -0.009642 0.116277
-0.086412 -0.009652 0.116131
-0.083634 -0.009661 0.115985
-0.080850 -0.009671 0.115839
-0.078060 -0.009681 0.115692
-0.075264 -0.009690 0.115544
-0.072462 -0.009700 0.115397
-0.069655 -0.009710 0.115249
-0.066841 -0.009719 0.115101
-0.064021 -0.009729 0.114952
-0.061196 -0.009739 0.114804
-0.058364 -0.009749 0.114654
-0.055526 -0.009759 0.114505
-0.053959 -0.009759 0.115820
-0.051113 -0.009769 0.115672
-0.046976 -0.009788 0.114055
-0.044114 -0.009798 0.113904
-0.041246 -0.009808 0.113753
-0.038371 -0.009818 0.113601
-0.035491 -0.009828 0.113450
-0.032604 -0.009838 0.113298
-0.029711 -0.009848 0.113145
-0.026811 -0.009858 0.112993
-0.023905 -0.009868 0.112840
-0.020993 -0.009878 0.112686
-0.018075 -0.009889 0.112533
-0.015151 -0.009899 0.112379
-0.012220 -0.009909 0.112224
-0.009282 -0.009919 0.112070
-0.006338 -0.009929 0.111914
-0.003388 -0.009939 0.111759
0.002294 -0.009970 0.108600
0.005267 -0.009981 0.108440
0.008246 -0.009991 0.108280
0.011232 -0.010001 0.108120
0.014224 -0.010012 0.107959
0.017223 -0.010022 0.107798
0.020228 -0.010032 0.107637
0.023240 -0.010043 0.107475
0.026259 -0.010053 0.107313
0.029284 -0.010064 0.107150
0.032316 -0.010074 0.106987
0.035355 -0.010085 0.106824
0.038400 -0.010096 0.106661
0.041453 -0.010106 0.106497
0.043079 -0.010106 0.107861
0.046140 -0.010117 0.107699
0.049208 -0.010127 0.107535
0.052282 -0.010138 0.107372
0.055363 -0.010149 0.107208
0.059909 -0.010170 0.105505
0.063010 -0.010181 0.105339
0.066117 -0.010192 0.105172
0.069231 -0.010203 0.105004
0.072352 -0.010213 0.104837
0.075480 -0.010224 0.104669
0.078615 -0.010235 0.104500
0.081757 -0.010246 0.104332
0.084907 -0.010257 0.104162
0.088063 -0.010268 0.103993
0.091227 -0.010279 0.103823
0.095916 -0.010301 0.102089
0.099099 -0.010312 0.101916
0.102289 -0.010323 0.101743
0.105487 -0.010334 0.101570
0.108692 -0.010345 0.101396
0.111904 -0.010356 0.101222
0.115124 -0.010368 0.101047
0.118351 -0.010379 0.100872
0.121585 -0.010390 0.100697
0.124827 -0.010401 0.100521
0.126503 -0.010401 0.101928
0.128180 -0.010401 0.103335
0.131433 -0.010413 0.103162
0.133112 -0.010413 0.104570
0.134791 -0.010413 0.105979
0.138055 -0.010424 0.105809
0.141327 -0.010435 0.105638
0.143009 -0.010435 0.107050
0.144692 -0.010435 0.108462
0.147975 -0.010447 0.108294
0.149660 -0.010447 0.109708
0.151344 -0.010447 0.111121
0.153029 -0.010447 0.112535
0.156325 -0.010458 0.112371
0.158012 -0.010458 0.113786
0.159698 -0.010458 0.115202
0.163006 -0.010469 0.115041
0.164694 -0.010469 0.116458
0.166383 -0.010469 0.117875
0.169702 -0.010481 0.117717
0.171393 -0.010481 0.119136
0.173083 -0.010481 0.120554
0.174773 -0.010481 0.121972
0.178106 -0.010492 0.121819
0.179799 -0.010492 0.123239
0.181491 -0.010492 0.124659
0.184836 -0.010504 0.124509
0.186530 -0.010504 0.125931
0.188224 -0.010504 0.127353
0.191581 -0.010515 0.127206
0.193277 -0.010515 0.128629
0.194973 -0.010515 0.130052
0.198341 -0.010527 0.129908
0.200039 -0.010527 0.131333
0.201737 -0.010527 0.132758
0.205117 -0.010538 0.132617
0.206817 -0.010538 0.134043
0.208517 -0.010538 0.135470
0.210218 -0.010538 0.136897
0.213611 -0.010550 0.136760
0.215313 -0.010550 0.138188
0.217015 -0.010550 0.139617
0.220421 -0.010562 0.139483
0.223834 -0.010573 0.139349
0.222122 -0.010550 0.143901
0.036167 -0.009274 0.316237
0.036352 -0.009265 0.318664
0.036537 -0.009256 0.321086
0.038019 -0.009256 0.322329
0.038202 -0.009247 0.324745
0.039683 -0.009247 0.325987
0.041163 -0.009247 0.327229
0.041343 -0.009238 0.329637
0.042822 -0.009238 0.330878
0.043000 -0.009230 0.333280
0.044477 -0.009230 0.334520
0.045954 -0.009230 0.335759
0.046129 -0.009221 0.338154
0.047605 -0.009221 0.339393
0.049080 -0.009221 0.340631
0.049252 -0.009212 0.343018
0.050726 -0.009212 0.344256
0.052201 -0.009212 0.345493
0.052369 -0.009203 0.347873
0.053841 -0.009203 0.349109
0.054008 -0.009195 0.351483
0.055479 -0.009195 0.352718
0.056950 -0.009195 0.353952
0.057113 -0.009186 0.356319
0.058583 -0.009186 0.357553
0.060053 -0.009186 0.358786
0.061523 -0.009186 0.360020
0.062993 -0.009186 0.361253
0.063150 -0.009177 0.363610
0.064618 -0.009177 0.364842
0.066087 -0.009177 0.366075
0.066240 -0.009169 0.368425
0.067707 -0.009169 0.369656
0.069174 -0.009169 0.370887
0.069324 -0.009160 0.373230
0.070790 -0.009160 0.374459
0.070938 -0.009152 0.376796
0.072402 -0.009152 0.378025
0.073866 -0.009152 0.379253
0.074011 -0.009143 0.381583
0.075474 -0.009143 0.382811
0.076937 -0.009143 0.384038
0.077079 -0.009134 0.386360
0.078540 -0.009134 0.387587
0.080001 -0.009134 0.388813
0.080140 -0.009126 0.391128
0.081599 -0.009126 0.392353
0.081736 -0.009117 0.394663
0.083195 -0.009117 0.395887
0.084653 -0.009117 0.397110
0.083465 -0.009100 0.400490
0.084921 -0.009100 0.401711
0.086376 -0.009100 0.402933
0.086508 -0.009092 0.405225
0.087962 -0.009092 0.406445
0.089416 -0.009092 0.407665
0.089544 -0.009083 0.409951
0.092323 -0.009092 0.410105
0.092449 -0.009083 0.412388
0.093902 -0.009083 0.413607
0.095354 -0.009083 0.414826
0.095477 -0.009075 0.417102
0.096928 -0.009075 0.418319
0.097049 -0.009067 0.420590
0.101164 -0.009083 0.419701
0.103954 -0.009092 0.419865
0.109443 -0.009117 0.417911
0.112253 -0.009126 0.418074
0.117788 -0.009152 0.416108
0.121985 -0.009169 0.415201
0.127578 -0.009195 0.413216
0.134594 -0.009230 0.410137
0.141668 -0.009265 0.407034
0.150218 -0.009309 0.402806
0.160293 -0.009363 0.397425
0.189717 -0.009538 0.377156
0.299335 -0.010213 0.295298
0.299245 -0.010203 0.298009
0.300888 -0.010203 0.299388
0.302531 -0.010203 0.300766
0.304174 -0.010203 0.302145
0.305817 -0.010203 0.303523
0.307460 -0.010203 0.304902
0.309103 -0.010203 0.306281
0.310746 -0.010203 0.307659
0.312388 -0.010203 0.309038
0.314031 -0.010203 0.310417
0.315674 -0.010203 0.311795
0.317317 -0.010203 0.313174
0.318960 -0.010203 0.314552
0.322362 -0.010213 0.314620
0.324007 -0.010213 0.316000
0.327417 -0.010224 0.316069
0.329064 -0.010224 0.317451
0.332484 -0.010235 0.317522
0.334133 -0.010235 0.318905
0.337563 -0.010246 0.318978
0.339213 -0.010246 0.320363
0.342653 -0.010257 0.320437
0.347899 -0.010279 0.319197
0.351360 -0.010290 0.319270
0.354829 -0.010301 0.319344
0.358306 -0.010312 0.319417
0.363618 -0.010334 0.318168
0.370796 -0.010368 0.315581
0.381748 -0.010424 0.310291
-0.433728 -0.012563 -0.362377
-0.437593 -0.012481 -0.348421
-0.441406 -0.012400 -0.334655
-0.444271 -0.012334 -0.323094
-0.445320 -0.012295 -0.315671
-0.444579 -0.012282 -0.312293
-0.443840 -0.012268 -0.308924
-0.442208 -0.012268 -0.307554
-0.441472 -0.012255 -0.304193
-0.440737 -0.012242 -0.300840
-0.440005 -0.012229 -0.297494
-0.439274 -0.012216 -0.294156
-0.437649 -0.012216 -0.292792
-0.436922 -0.012204 -0.289463
-0.436196 -0.012191 -0.286141
-0.435471 -0.012178 -0.282826
-0.434748 -0.012165 -0.279518
-0.433131 -0.012165 -0.278161
-0.432411 -0.012152 -0.274862
-0.430796 -0.012152 -0.273506
-0.429180 -0.012152 -0.272151
-0.428466 -0.012139 -0.268862
-0.426852 -0.012139 -0.267508
-0.426141 -0.012127 -0.264228
-0.424529 -0.012127 -0.262875
-0.422916 -0.012127 -0.261522
-0.422210 -0.012114 -0.258253
-0.420600 -0.012114 -0.256901
-0.418990 -0.012114 -0.255550
-0.418289 -0.012101 -0.252290
-0.416680 -0.012101 -0.250941
-0.415071 -0.012101 -0.249591
-0.413463 -0.012101 -0.248241
-0.411854 -0.012101 -0.246891
-0.411162 -0.012089 -0.243645
-0.408637 -0.012101 -0.244191
-0.407028 -0.012101 -0.242841
-0.405419 -0.012101 -0.241492
-0.403811 -0.012101 -0.240142
-0.402202 -0.012101 -0.238792
-0.400593 -0.012101 -0.237442
-0.398985 -0.012101 -0.236092
-0.397376 -0.012101 -0.234742
-0.395767 -0.012101 -0.233393
-0.393222 -0.012114 -0.233929
-0.390672 -0.012127 -0.234466
-0.388115 -0.012139 -0.235004
-0.387447 -0.012127 -0.231760
-0.387724 -0.012101 -0.226643
-0.387999 -0.012076 -0.221549
-0.388273 -0.012051 -0.216477
-0.388546 -0.012026 -0.211427
-0.388818 -0.012001 -0.206399
-0.389088 -0.011976 -0.201392
-0.389358 -0.011951 -0.196408
-0.389626 -0.011926 -0.191445
-0.389893 -0.011902 -0.186503
-0.390159 -0.011877 -0.181583
-0.391342 -0.011841 -0.174902
-0.390687 -0.011829 -0.171806
-0.390950 -0.011805 -0.166949
-0.391211 -0.011781 -0.162112
-0.391471 -0.011757 -0.157296
-0.390821 -0.011745 -0.154242
-0.391082 -0.011721 -0.149458
-0.390434 -0.011709 -0.146422
-0.389788 -0.011697 -0.143392
-0.390050 -0.011674 -0.138651
-0.388500 -0.011674 -0.137351
-0.388764 -0.011650 -0.132633
-0.388123 -0.011639 -0.129634
-0.387484 -0.011627 -0.126641
-0.386846 -0.011615 -0.123654
-0.386209 -0.011604 -0.120673
-0.385573 -0.011592 -0.117699
-0.384036 -0.011592 -0.116409
-0.383403 -0.011581 -0.113442
-0.382772 -0.011569 -0.110481
-0.382142 -0.011558 -0.107527
-0.381514 -0.011546 -0.104579
-0.380886 -0.011535 -0.101637
-0.380260 -0.011523 -0.098701
-0.378732 -0.011523 -0.097419
-0.379012 -0.011500 -0.092848
-0.378390 -0.011489 -0.089930
-0.376867 -0.011489 -0.088652
-0.376248 -0.011478 -0.085742
-0.375630 -0.011466 -0.082838
-0.375013 -0.011455 -0.079940
-0.374398 -0.011444 -0.077048
-0.373784 -0.011432 -0.074161
-0.372269 -0.011432 -0.072890
-0.371657 -0.011421 -0.070011
-0.371048 -0.011410 -0.067138
-0.370439 -0.011399 -0.064271
-0.369831 -0.011388 -0.061410
-0.369225 -0.011376 -0.058555
-0.368620 -0.011365 -0.055706
-0.367114 -0.011365 -0.054442
-0.365608 -0.011365 -0.053178
-0.365007 -0.011354 -0.050337
-0.363503 -0.011354 -0.049074
-0.361998 -0.011354 -0.047812
-0.361402 -0.011343 -0.044980
-0.359899 -0.011343 -0.043718
-0.358396 -0.011343 -0.042457
-0.357804 -0.011332 -0.039633
-0.356302 -0.011332 -0.038373
-0.354801 -0.011332 -0.037113
-0.354213 -0.011321 -0.034297
-0.352713 -0.011321 -0.033039
-0.352128 -0.011310 -0.030230
-0.350630 -0.011310 -0.028973
-0.350047 -0.011299 -0.026171
-0.348550 -0.011299 -0.024915
-0.347971 -0.011288 -0.022120
-0.346475 -0.011288 -0.020865
-0.344980 -0.011288 -0.019611
-0.344405 -0.011277 -0.016824
-0.342911 -0.011277 -0.015571
-0.342338 -0.011266 -0.012791
-0.340846 -0.011266 -0.011539
-0.339353 -0.011266 -0.010287
-0.338785 -0.011255 -0.007516
-0.337294 -0.011255 -0.006265
-0.336729 -0.011244 -0.003500
-0.335239 -0.011244 -0.002251
-0.333750 -0.011244 -0.001001
-0.333188 -0.011234 0.001755
-0.331700 -0.011234 0.003004
-0.331142 -0.011223 0.005753
-0.329655 -0.011223 0.007000
-0.328169 -0.011223 0.008247
-0.326683 -0.011223 0.009494
-0.325196 -0.011223 0.010742
-0.323710 -0.011223 0.011989
-0.322224 -0.011223 0.013236
-0.321675 -0.011212 0.015972
-0.320190 -0.011212 0.017218
-0.318705 -0.011212 0.018464
-0.317220 -0.011212 0.019710
-0.316677 -0.011201 0.022437
-0.315194 -0.011201 0.023681
-0.313711 -0.011201 0.024926
-0.312227 -0.011201 0.026171
-0.310744 -0.011201 0.027415
-0.310208 -0.011190 0.030132
-0.308726 -0.011190 0.031375
-0.308193 -0.011180 0.034085
-0.306712 -0.011180 0.035327
-0.305232 -0.011180 0.036569
-0.303752 -0.011180 0.037811
-0.302272 -0.011180 0.039053
-0.300791 -0.011180 0.040295
-0.299311 -0.011180 0.041537
-0.297831 -0.011180 0.042779
-0.295390 -0.011190 0.042566
-0.293908 -0.011190 0.043809
-0.292426 -0.011190 0.045052
-0.290944 -0.011190 0.046296
-0.289463 -0.011190 0.047539
-0.287981 -0.011190 0.048783
-0.286499 -0.011190 0.050026
-0.285017 -0.011190 0.051269
-0.283535 -0.011190 0.052513
-0.282054 -0.011190 0.053756
-0.280572 -0.011190 0.054999
-0.279090 -0.011190 0.056243
-0.277608 -0.011190 0.057486
-0.276126 -0.011190 0.058730
-0.274644 -0.011190 0.059973
-0.272178 -0.011201 0.059776
-0.270694 -0.011201 0.061021
-0.269211 -0.011201 0.062266
-0.267728 -0.011201 0.063510
-0.266245 -0.011201 0.064755
-0.264761 -0.011201 0.066000
-0.264272 -0.011190 0.068677
-0.262790 -0.011190 0.069920
-0.260311 -0.011201 0.069733
-0.258828 -0.011201 0.070978
-0.257345 -0.011201 0.072223
-0.255861 -0.011201 0.073467
-0.254378 -0.011201 0.074712
-0.251888 -0.011212 0.074530
-0.250404 -0.011212 0.075776
-0.248919 -0.011212 0.077022
-0.247434 -0.011212 0.078268
-0.244935 -0.011223 0.078089
-0.243448 -0.011223 0.079336
-0.241962 -0.011223 0.080584
-0.240476 -0.011223 0.081831
-0.237967 -0.011234 0.081655
-0.236479 -0.011234 0.082904
-0.234991 -0.011234 0.084152
-0.233503 -0.011234 0.085401
-0.230985 -0.011244 0.085229
-0.229496 -0.011244 0.086479
-0.228006 -0.011244 0.087729
-0.226517 -0.011244 0.088978
-0.223989 -0.011255 0.088810
-0.222498 -0.011255 0.090061
-0.221007 -0.011255 0.091312
-0.219516 -0.011255 0.092563
-0.216978 -0.011266 0.092398
-0.215486 -0.011266 0.093650
-0.213993 -0.011266 0.094903
-0.212501 -0.011266 0.096155
-0.209954 -0.011277 0.095994
-0.208460 -0.011277 0.097247
-0.206966 -0.011277 0.098501
-0.205472 -0.011277 0.099754
-0.202915 -0.011288 0.099596
-0.202484 -0.011277 0.102261
-0.199924 -0.011288 0.102106
-0.198428 -0.011288 0.103361
-0.196933 -0.011288 0.104616
-0.194364 -0.011299 0.104463
-0.192867 -0.011299 0.105719
-0.190292 -0.011310 0.105567
-0.188793 -0.011310 0.106824
-0.187295 -0.011310 0.108081
-0.184711 -0.011321 0.107932
-0.182122 -0.011332 0.107782
-0.180620 -0.011332 0.109042
-0.179119 -0.011332 0.110302
-0.176521 -0.011343 0.110154
-0.175018 -0.011343 0.111415
-0.172414 -0.011354 0.111268
-0.170909 -0.011354 0.112531
-0.168298 -0.011365 0.112385
-0.166792 -0.011365 0.113649
-0.164173 -0.011376 0.113504
-0.162666 -0.011376 0.114769
-0.161158 -0.011376 0.116034
-0.158531 -0.011388 0.115892
-0.157022 -0.011388 0.117158
-0.154388 -0.011399 0.117017
-0.151749 -0.011410 0.116875
-0.149105 -0.011421 0.116733
-0.146455 -0.011432 0.116591
-0.143799 -0.011444 0.116448
-0.141138 -0.011455 0.116305
-0.138472 -0.011466 0.116162
-0.135800 -0.011478 0.116018
-0.133122 -0.011489 0.115874
-0.130439 -0.011500 0.115730
-0.127750 -0.011512 0.115586
-0.125056 -0.011523 0.115441
-0.123527 -0.011523 0.116723
-0.120826 -0.011535 0.116580
-0.118119 -0.011546 0.116436
-0.115406 -0.011558 0.116291
-0.112687 -0.011569 0.116147
-0.109963 -0.011581 0.116002
-0.107233 -0.011592 0.115857
-0.104497 -0.011604 0.115711
-0.101755 -0.011615 0.115565
-0.100214 -0.011615 0.116858
-0.097465 -0.011627 0.116714
-0.094711 -0.011639 0.116569
-0.091950 -0.011650 0.116423
-0.090404 -0.011650 0.117720
-0.086412 -0.011674 0.116131
-0.083634 -0.011686 0.115985
-0.080850 -0.011697 0.115839
-0.078060 -0.011709 0.115692
-0.075264 -0.011721 0.115544
-0.072462 -0.011733 0.115397
-0.069655 -0.011745 0.115249
-0.066841 -0.011757 0.115101
-0.064021 -0.011769 0.114952
-0.061196 -0.011781 0.114804
-0.057094 -0.011805 0.113190
-0.054251 -0.011817 0.113039
-0.052682 -0.011817 0.114355
-0.049832 -0.011829 0.114205
-0.046976 -0.011841 0.114055
-0.044114 -0.011853 0.113904
-0.041246 -0.011865 0.113753
-0.038371 -0.011877 0.113601
-0.035491 -0.011890 0.113450
-0.032604 -0.011902 0.113298
-0.029711 -0.011914 0.113145
-0.026811 -0.011926 0.112993
-0.023905 -0.011939 0.112840
-0.020993 -0.011951 0.112686
-0.018075 -0.011963 0.112533
-0.015151 -0.011976 0.112379
-0.010877 -0.012001 0.110731
-0.007935 -0.012013 0.110575
-0.004986 -0.012026 0.110418
-0.000672 -0.012051 0.108759
0.002294 -0.012063 0.108600
0.005267 -0.012076 0.108440
0.008246 -0.012089 0.108280
0.011232 -0.012101 0.108120
0.014224 -0.012114 0.107959
0.017223 -0.012127 0.107798
0.020228 -0.012139 0.107637
0.023240 -0.012152 0.107475
0.026259 -0.012165 0.107313
0.029284 -0.012178 0.107150
0.032316 -0.012191 0.106987
0.035355 -0.012204 0.106824
0.039826 -0.012229 0.105132
0.042883 -0.012242 0.104966
0.044512 -0.012242 0.106332
0.047578 -0.012255 0.106168
0.050650 -0.012268 0.106003
0.053730 -0.012282 0.105837
0.056816 -0.012295 0.105671
0.059909 -0.012308 0.105505
0.063010 -0.012321 0.105339
0.066117 -0.012334 0.105172
0.069231 -0.012347 0.105004
0.072352 -0.012361 0.104837
0.075480 -0.012374 0.104669
0.078615 -0.012387 0.104500
0.081757 -0.012400 0.104332
0.084907 -0.012414 0.104162
0.088063 -0.012427 0.103993
0.092740 -0.012454 0.102261
0.095916 -0.012468 0.102089
0.099099 -0.012481 0.101916
0.102289 -0.012495 0.101743
0.105487 -0.012508 0.101570
0.108692 -0.012522 0.101396
0.111904 -0.012535 0.101222
0.115124 -0.012549 0.101047
0.119910 -0.012576 0.099291
0.123150 -0.012590 0.099114
0.126397 -0.012604 0.098936
0.126503 -0.012590 0.101928
0.129755 -0.012604 0.101753
0.131433 -0.012604 0.103162
0.133112 -0.012604 0.104570
0.136374 -0.012618 0.104399
0.138055 -0.012618 0.105809
0.141327 -0.012632 0.105638
0.143009 -0.012632 0.107050
0.144692 -0.012632 0.108462
0.146375 -0.012632 0.109874
0.149660 -0.012646 0.109708
0.151344 -0.012646 0.111121
0.154639 -0.012659 0.110956
0.156325 -0.012659 0.112371
0.158012 -0.012659 0.113786
0.161318 -0.012673 0.113624
0.163006 -0.012673 0.115041
0.164694 -0.012673 0.116458
0.166383 -0.012673 0.117875
0.169702 -0.012687 0.117717
0.171393 -0.012687 0.119136
0.173083 -0.012687 0.120554
0.176414 -0.012701 0.120399
0.178106 -0.012701 0.121819
0.179799 -0.012701 0.123239
0.183142 -0.012715 0.123088
0.184836 -0.012715 0.124509
0.186530 -0.012715 0.125931
0.189884 -0.012730 0.125782
0.191581 -0.012730 0.127206
0.193277 -0.012730 0.128629
0.196643 -0.012744 0.128483
0.198341 -0.012744 0.129908
0.200039 -0.012744 0.131333
0.203417 -0.012758 0.131190
0.205117 -0.012758 0.132617
0.206817 -0.012758 0.134043
0.210207 -0.012772 0.133904
0.211909 -0.012772 0.135332
0.213611 -0.012772 0.136760
0.215313 -0.012772 0.138188
0.218717 -0.012786 0.138053
0.220421 -0.012786 0.139483
0.222125 -0.012786 0.140913
0.034682 -0.011212 0.314991
0.033574 -0.011190 0.318599
0.033761 -0.011180 0.321018
0.033949 -0.011169 0.323433
0.035427 -0.011169 0.324674
0.036906 -0.011169 0.325914
0.037090 -0.011158 0.328322
0.038568 -0.011158 0.329561
0.040045 -0.011158 0.330801
0.040225 -0.011147 0.333201
0.041701 -0.011147 0.334439
0.041880 -0.011137 0.336833
0.043354 -0.011137 0.338070
0.044829 -0.011137 0.339307
0.045004 -0.011126 0.341694
0.046477 -0.011126 0.342929
0.047950 -0.011126 0.344165
0.048122 -0.011116 0.346544
0.049593 -0.011116 0.347779
0.051065 -0.011116 0.349014
0.051234 -0.011105 0.351386
0.052704 -0.011105 0.352619
0.052871 -0.011094 0.354985
0.054339 -0.011094 0.356217
0.055807 -0.011094 0.357449
0.055971 -0.011084 0.359808
0.058744 -0.011094 0.359914
0.058905 -0.011084 0.362270
0.060372 -0.011084 0.363501
0.061839 -0.011084 0.364732
0.061997 -0.011073 0.367081
0.063462 -0.011073 0.368311
0.064928 -0.011073 0.369540
0.065082 -0.011063 0.371882
0.066546 -0.011063 0.373111
0.068010 -0.011063 0.374339
0.068161 -0.011052 0.376674
0.069624 -0.011052 0.377901
0.069773 -0.011042 0.380230
0.071234 -0.011042 0.381456
0.072695 -0.011042 0.382682
0.072841 -0.011031 0.385004
0.074301 -0.011031 0.386229
0.075761 -0.011031 0.387454
0.075904 -0.011021 0.389769
0.077362 -0.011021 0.390992
0.078820 -0.011021 0.392216
0.077644 -0.011000 0.395606
0.079099 -0.011000 0.396827
0.080555 -0.011000 0.398048
0.080692 -0.010990 0.400345
0.082146 -0.010990 0.401565
0.082282 -0.010979 0.403857
0.083735 -0.010979 0.405076
0.085187 -0.010979 0.406294
0.085320 -0.010969 0.408579
0.086771 -0.010969 0.409797
0.088222 -0.010969 0.411014
0.089673 -0.010969 0.412232
0.091124 -0.010969 0.413449
0.091251 -0.010959 0.415725
0.092700 -0.010959 0.416941
0.092825 -0.010949 0.419211
0.094274 -0.010949 0.420426
0.094397 -0.010938 0.422690
0.098498 -0.010959 0.421806
0.101281 -0.010969 0.421972
0.105408 -0.010990 0.421085
0.108206 -0.011000 0.421250
0.113712 -0.011031 0.419299
0.119252 -0.011063 0.417336
0.124825 -0.011094 0.415362
0.131816 -0.011137 0.412298
0.138864 -0.011180 0.409210
0.145969 -0.011223 0.406096
0.155988 -0.011288 0.400751
0.185235 -0.011500 0.380612
0.299335 -0.012361 0.295298
0.300979 -0.012361 0.296678
0.300888 -0.012347 0.299388
0.302531 -0.012347 0.300766
0.304174 -0.012347 0.302145
0.305817 -0.012347 0.303523
0.307460 -0.012347 0.304902
0.309103 -0.012347 0.306281
0.310746 -0.012347 0.307659
0.312388 -0.012347 0.309038
0.314031 -0.012347 0.310417
0.315674 -0.012347 0.311795
0.317317 -0.012347 0.313174
0.318960 -0.012347 0.314552
0.322362 -0.012361 0.314620
0.324007 -0.012361 0.316000
0.327417 -0.012374 0.316069
0.329064 -0.012374 0.317451
0.332484 -0.012387 0.317522
0.334133 -0.012387 0.318905
0.337563 -0.012400 0.318978
0.339213 -0.012400 0.320363
0.342653 -0.012414 0.320437
0.346100 -0.012427 0.320512
0.351360 -0.012454 0.319270
0.354829 -0.012468 0.319344
0.358306 -0.012481 0.319417
0.361791 -0.012495 0.319491
0.368954 -0.012535 0.316912
0.381748 -0.012618 0.310291
-0.434090 -0.014682 -0.351189
-0.437935 -0.014586 -0.337372
-0.441729 -0.014492 -0.323742
-0.442788 -0.014445 -0.316308
-0.442049 -0.014430 -0.312926
-0.441311 -0.014414 -0.309552
-0.440576 -0.014399 -0.306185
-0.438944 -0.014399 -0.304815
-0.438211 -0.014383 -0.301458
-0.437481 -0.014368 -0.298107
-0.436752 -0.014353 -0.294764
-0.436024 -0.014337 -0.291429
-0.435299 -0.014322 -0.288101
-0.433676 -0.014322 -0.286739
-0.432953 -0.014307 -0.283420
-0.432232 -0.014292 -0.280108
-0.431513 -0.014277 -0.276804
-0.430796 -0.014261 -0.273506
-0.429180 -0.014261 -0.272151
-0.427564 -0.014261 -0.270795
-0.425948 -0.014261 -0.269439
-0.425238 -0.014246 -0.266153
-0.423624 -0.014246 -0.264799
-0.422010 -0.014246 -0.263445
-0.421304 -0.014231 -0.260169
-0.419692 -0.014231 -0.258817
-0.418080 -0.014231 -0.257464
-0.417379 -0.014216 -0.254199
-0.415769 -0.014216 -0.252847
-0.414158 -0.014216 -0.251496
-0.413463 -0.014201 -0.248241
-0.411854 -0.014201 -0.246891
-0.410245 -0.014201 -0.245541
-0.408637 -0.014201 -0.244191
-0.407028 -0.014201 -0.242841
-0.404495 -0.014216 -0.243388
-0.402885 -0.014216 -0.242037
-0.401275 -0.014216 -0.240685
-0.399664 -0.014216 -0.239334
-0.398054 -0.014216 -0.237983
-0.396443 -0.014216 -0.236631
-0.394833 -0.014216 -0.235280
-0.393222 -0.014216 -0.233929
-0.391612 -0.014216 -0.232577
-0.388115 -0.014246 -0.235004
-0.386501 -0.014246 -0.233650
-0.386780 -0.014216 -0.228523
-0.387058 -0.014186 -0.223419
-0.387334 -0.014156 -0.218337
-0.386671 -0.014142 -0.215133
-0.387884 -0.014097 -0.208240
-0.388157 -0.014068 -0.203224
-0.388428 -0.014038 -0.198231
-0.388699 -0.014009 -0.193258
-0.388968 -0.013980 -0.188308
-0.389236 -0.013951 -0.183378
-0.389503 -0.013922 -0.178470
-0.390687 -0.013879 -0.171806
-0.390034 -0.013865 -0.168716
-0.390297 -0.013837 -0.163871
-0.390560 -0.013808 -0.159046
-0.390821 -0.013780 -0.154242
-0.390173 -0.013766 -0.151194
-0.389526 -0.013752 -0.148152
-0.389788 -0.013724 -0.143392
-0.389144 -0.013710 -0.140368
-0.388500 -0.013696 -0.137351
-0.387859 -0.013682 -0.134340
-0.387218 -0.013668 -0.131336
-0.386579 -0.013655 -0.128338
-0.385941 -0.013641 -0.125346
-0.385305 -0.013627 -0.122361
-0.384669 -0.013613 -0.119381
-0.384036 -0.013600 -0.116409
-0.383403 -0.013586 -0.113442
-0.382772 -0.013572 -0.110481
-0.381237 -0.013572 -0.109194
-0.380609 -0.013559 -0.106241
-0.379982 -0.013545 -0.103294
-0.379357 -0.013532 -0.100353
-0.378732 -0.013518 -0.097419
-0.378109 -0.013505 -0.094491
-0.377488 -0.013491 -0.091568
-0.376867 -0.013478 -0.088652
-0.376248 -0.013464 -0.085742
-0.375630 -0.013451 -0.082838
-0.374110 -0.013451 -0.081562
-0.373495 -0.013437 -0.078665
-0.372881 -0.013424 -0.075775
-0.372269 -0.013411 -0.072890
-0.371657 -0.013397 -0.070011
-0.371048 -0.013384 -0.067138
-0.369535 -0.013384 -0.065869
-0.368928 -0.013371 -0.063003
-0.368322 -0.013358 -0.060144
-0.367718 -0.013345 -0.057290
-0.367114 -0.013331 -0.054442
-0.365608 -0.013331 -0.053178
-0.364102 -0.013331 -0.051914
-0.363503 -0.013318 -0.049074
-0.361998 -0.013318 -0.047812
-0.360494 -0.013318 -0.046549
-0.359899 -0.013305 -0.043718
-0.358396 -0.013305 -0.042457
-0.356893 -0.013305 -0.041196
-0.356302 -0.013292 -0.038373
-0.354801 -0.013292 -0.037113
-0.353299 -0.013292 -0.035853
-0.352713 -0.013279 -0.033039
-0.351213 -0.013279 -0.031780
-0.350630 -0.013266 -0.028973
-0.349131 -0.013266 -0.027715
-0.347633 -0.013266 -0.026458
-0.347053 -0.013253 -0.023659
-0.346475 -0.013240 -0.020865
-0.344980 -0.013240 -0.019611
-0.343485 -0.013240 -0.018356
-0.342911 -0.013227 -0.015571
-0.341417 -0.013227 -0.014317
-0.340846 -0.013214 -0.011539
-0.339353 -0.013214 -0.010287
-0.337861 -0.013214 -0.009035
-0.337294 -0.013201 -0.006265
-0.335803 -0.013201 -0.005014
-0.335239 -0.013189 -0.002251
-0.333750 -0.013189 -0.001001
-0.332260 -0.013189 0.000249
-0.331700 -0.013176 0.003004
-0.330213 -0.013176 0.004252
-0.328725 -0.013176 0.005501
-0.327237 -0.013176 0.006749
-0.325749 -0.013176 0.007997
-0.325196 -0.013163 0.010742
-0.323710 -0.013163 0.011989
-0.322224 -0.013163 0.013236
-0.320737 -0.013163 0.014483
-0.319251 -0.013163 0.015730
-0.318705 -0.013150 0.018464
-0.317220 -0.013150 0.019710
-0.315736 -0.013150 0.020956
-0.314251 -0.013150 0.022202
-0.312766 -0.013150 0.023448
-0.312227 -0.013137 0.026171
-0.310744 -0.013137 0.027415
-0.310208 -0.013125 0.030132
-0.308726 -0.013125 0.031375
-0.307244 -0.013125 0.032618
-0.305763 -0.013125 0.033862
-0.304281 -0.013125 0.035105
-0.302799 -0.013125 0.036349
-0.301317 -0.013125 0.037592
-0.299835 -0.013125 0.038835
-0.298354 -0.013125 0.040079
-0.296872 -0.013125 0.041322
-0.295390 -0.013125 0.042566
-0.293908 -0.013125 0.043809
-0.292426 -0.013125 0.045052
-0.290944 -0.013125 0.046296
-0.289463 -0.013125 0.047539
-0.287981 -0.013125 0.048783
-0.286499 -0.013125 0.050026
-0.284044 -0.013137 0.049819
-0.282561 -0.013137 0.051064
-0.281078 -0.013137 0.052308
-0.279594 -0.013137 0.053553
-0.278111 -0.013137 0.054798
-0.276628 -0.013137 0.056042
-0.275144 -0.013137 0.057287
-0.273661 -0.013137 0.058532
-0.272178 -0.013137 0.059776
-0.270694 -0.013137 0.061021
-0.269211 -0.013137 0.062266
-0.267728 -0.013137 0.063510
-0.266245 -0.013137 0.064755
-0.264761 -0.013137 0.066000
-0.263278 -0.013137 0.067244
-0.262790 -0.013125 0.069920
-0.260311 -0.013137 0.069733
-0.258828 -0.013137 0.070978
-0.256343 -0.013150 0.070792
-0.254858 -0.013150 0.072038
-0.253373 -0.013150 0.073284
-0.251888 -0.013150 0.074530
-0.250404 -0.013150 0.075776
-0.247907 -0.013163 0.075595
-0.246421 -0.013163 0.076842
-0.244935 -0.013163 0.078089
-0.243448 -0.013163 0.079336
-0.240942 -0.013176 0.079159
-0.239455 -0.013176 0.080407
-0.237967 -0.013176 0.081655
-0.236479 -0.013176 0.082904
-0.233964 -0.013189 0.082730
-0.232474 -0.013189 0.083979
-0.230985 -0.013189 0.085229
-0.229496 -0.013189 0.086479
-0.226970 -0.013201 0.086308
-0.225480 -0.013201 0.087559
-0.223989 -0.013201 0.088810
-0.222498 -0.013201 0.090061
-0.219963 -0.013214 0.089894
-0.218471 -0.013214 0.091146
-0.216978 -0.013214 0.092398
-0.215486 -0.013214 0.093650
-0.212941 -0.013227 0.093486
-0.211447 -0.013227 0.094740
-0.209954 -0.013227 0.095994
-0.208460 -0.013227 0.097247
-0.205905 -0.013240 0.097087
-0.204410 -0.013240 0.098342
-0.203978 -0.013227 0.101008
-0.201419 -0.013240 0.100851
-0.199924 -0.013240 0.102106
-0.198428 -0.013240 0.103361
-0.195861 -0.013253 0.103207
-0.194364 -0.013253 0.104463
-0.191790 -0.013266 0.104309
-0.190292 -0.013266 0.105567
-0.187711 -0.013279 0.105414
-0.186211 -0.013279 0.106673
-0.183623 -0.013292 0.106522
-0.182122 -0.013292 0.107782
-0.179527 -0.013305 0.107631
-0.178024 -0.013305 0.108893
-0.176521 -0.013305 0.110154
-0.173918 -0.013318 0.110006
-0.172414 -0.013318 0.111268
-0.169804 -0.013331 0.111121
-0.168298 -0.013331 0.112385
-0.165681 -0.013345 0.112239
-0.164173 -0.013345 0.113504
-0.161550 -0.013358 0.113359
-0.160041 -0.013358 0.114625
-0.158531 -0.013358 0.115892
-0.155899 -0.013371 0.115749
-0.153262 -0.013384 0.115606
-0.150619 -0.013397 0.115463
-0.147970 -0.013411 0.115319
-0.145316 -0.013424 0.115175
-0.142657 -0.013437 0.115031
-0.139992 -0.013451 0.114886
-0.137321 -0.013464 0.114741
-0.134645 -0.013478 0.114596
-0.131964 -0.013491 0.114451
-0.130439 -0.013491 0.115730
-0.127750 -0.013505 0.115586
-0.125056 -0.013518 0.115441
-0.122356 -0.013532 0.115296
-0.119650 -0.013545 0.115151
-0.116939 -0.013559 0.115005
-0.114222 -0.013572 0.114859
-0.111499 -0.013586 0.114713
-0.108770 -0.013600 0.114566
-0.107233 -0.013600 0.115857
-0.104497 -0.013613 0.115711
-0.101755 -0.013627 0.115565
-0.099008 -0.013641 0.115419
-0.096255 -0.013655 0.115273
-0.093496 -0.013668 0.115126
-0.090731 -0.013682 0.114979
-0.089184 -0.013682 0.116277
-0.086412 -0.013696 0.116131
-0.082402 -0.013724 0.114536
-0.079614 -0.013738 0.114388
-0.076820 -0.013752 0.114239
-0.074020 -0.013766 0.114090
-0.071214 -0.013780 0.113941
-0.068402 -0.013794 0.113791
-0.065584 -0.013808 0.113641
-0.062760 -0.013822 0.113491
-0.059930 -0.013837 0.113341
-0.057094 -0.013851 0.113190
-0.054251 -0.013865 0.113039
-0.051403 -0.013879 0.112887
-0.048549 -0.013894 0.112735
-0.045688 -0.013908 0.112583
-0.042822 -0.013922 0.112431
-0.039949 -0.013937 0.112278
-0.037070 -0.013951 0.112125
-0.034185 -0.013966 0.111971
-0.031293 -0.013980 0.111817
-0.028395 -0.013995 0.111663
-0.025491 -0.014009 0.111509
-0.022581 -0.014024 0.111354
-0.019665 -0.014038 0.111199
-0.016742 -0.014053 0.111043
-0.013812 -0.014068 0.110888
-0.010877 -0.014082 0.110731
-0.007935 -0.014097 0.110575
-0.002273 -0.014142 0.107415
0.000691 -0.014156 0.107255
0.003662 -0.014171 0.107094
0.006639 -0.014186 0.106932
0.009623 -0.014201 0.106770
0.012613 -0.014216 0.106608
0.015610 -0.014231 0.106445
0.018614 -0.014246 0.106282
0.021624 -0.014261 0.106119
0.024641 -0.014277 0.105955
0.027665 -0.014292 0.105792
0.030695 -0.014307 0.105627
0.033732 -0.014322 0.105462
0.036776 -0.014337 0.105297
0.039826 -0.014353 0.105132
0.042883 -0.014368 0.104966
0.045947 -0.014383 0.104800
0.049018 -0.014399 0.104633
0.052096 -0.014414 0.104466
0.055180 -0.014430 0.104299
0.058272 -0.014445 0.104131
0.061370 -0.014461 0.103963
0.064476 -0.014476 0.103795
0.067588 -0.014492 0.103626
0.070707 -0.014508 0.103457
0.073833 -0.014523 0.103287
0.076967 -0.014539 0.103117
0.080107 -0.014555 0.102947
0.083255 -0.014571 0.102776
0.086409 -0.014586 0.102605
0.089571 -0.014602 0.102433
0.092740 -0.014618 0.102261
0.095916 -0.014634 0.102089
0.099099 -0.014650 0.101916
0.102289 -0.014666 0.101743
0.107025 -0.014698 0.099997
0.110235 -0.014714 0.099821
0.113453 -0.014730 0.099645
0.116678 -0.014747 0.099468
0.119910 -0.014763 0.099291
0.123150 -0.014779 0.099114
0.126397 -0.014795 0.098936
0.128076 -0.014795 0.100345
0.129755 -0.014795 0.101753
0.131433 -0.014795 0.103162
0.134694 -0.014812 0.102988
0.136374 -0.014812 0.104399
0.138055 -0.014812 0.105809
0.141327 -0.014828 0.105638
0.143009 -0.014828 0.107050
0.144692 -0.014828 0.108462
0.147975 -0.014845 0.108294
0.149660 -0.014845 0.109708
0.151344 -0.014845 0.111121
0.154639 -0.014861 0.110956
0.156325 -0.014861 0.112371
0.158012 -0.014861 0.113786
0.161318 -0.014877 0.113624
0.163006 -0.014877 0.115041
0.166322 -0.014894 0.114881
0.168012 -0.014894 0.116299
0.169702 -0.014894 0.117717
0.173030 -0.014911 0.117559
0.174722 -0.014911 0.118979
0.176414 -0.014911 0.120399
0.178106 -0.014911 0.121819
0.181447 -0.014927 0.121666
0.183142 -0.014927 0.123088
0.184836 -0.014927 0.124509
0.188188 -0.014944 0.124359
0.189884 -0.014944 0.125782
0.191581 -0.014944 0.127206
0.194945 -0.014960 0.127058
0.196643 -0.014960 0.128483
0.198341 -0.014960 0.129908
0.201717 -0.014977 0.129764
0.203417 -0.014977 0.131190
0.205117 -0.014977 0.132617
0.208505 -0.014994 0.132475
0.210207 -0.014994 0.133904
0.211909 -0.014994 0.135332
0.215309 -0.015011 0.135193
0.217013 -0.015011 0.136623
0.218717 -0.015011 0.138053
0.222128 -0.015028 0.137918
0.034495 -0.013163 0.312558
0.030801 -0.013112 0.318534
0.030991 -0.013099 0.320951
0.032470 -0.013099 0.322192
0.032658 -0.013087 0.324603
0.034135 -0.013087 0.325842
0.034322 -0.013074 0.328247
0.035798 -0.013074 0.329486
0.037274 -0.013074 0.330724
0.037457 -0.013061 0.333121
0.038931 -0.013061 0.334358
0.039113 -0.013049 0.336750
0.040585 -0.013049 0.337986
0.040765 -0.013036 0.340371
0.042236 -0.013036 0.341606
0.043708 -0.013036 0.342840
0.043884 -0.013024 0.345219
0.045354 -0.013024 0.346452
0.046824 -0.013024 0.347685
0.046997 -0.013011 0.350056
0.048465 -0.013011 0.351288
0.049934 -0.013011 0.352521
0.050103 -0.012999 0.354884
0.051570 -0.012999 0.356115
0.053037 -0.012999 0.357346
0.053204 -0.012986 0.359703
0.054669 -0.012986 0.360932
0.056135 -0.012986 0.362162
0.057600 -0.012986 0.363392
0.057762 -0.012974 0.365740
0.059226 -0.012974 0.366968
0.060690 -0.012974 0.368197
0.060848 -0.012962 0.370538
0.062311 -0.012962 0.371765
0.063773 -0.012962 0.372992
0.063928 -0.012949 0.375326
0.065390 -0.012949 0.376552
0.066851 -0.012949 0.377778
0.067003 -0.012937 0.380105
0.068462 -0.012937 0.381330
0.069922 -0.012937 0.382555
0.070071 -0.012925 0.384874
0.071529 -0.012925 0.386098
0.070367 -0.012900 0.389500
0.071823 -0.012900 0.390721
0.071969 -0.012888 0.393026
0.074733 -0.012900 0.393163
0.074877 -0.012888 0.395466
0.076331 -0.012888 0.396686
0.076472 -0.012875 0.398982
0.077925 -0.012875 0.400201
0.078065 -0.012863 0.402491
0.079516 -0.012863 0.403709
0.080967 -0.012863 0.404927
0.081104 -0.012851 0.407210
0.082553 -0.012851 0.408427
0.082688 -0.012839 0.410705
0.084137 -0.012839 0.411920
0.085585 -0.012839 0.413135
0.087033 -0.012839 0.414350
0.088481 -0.012839 0.415565
0.088610 -0.012827 0.417834
0.090057 -0.012827 0.419048
0.091504 -0.012827 0.420262
0.091630 -0.012815 0.422524
0.093075 -0.012815 0.423736
0.095844 -0.012827 0.423904
0.099948 -0.012851 0.423023
0.102732 -0.012863 0.423190
0.105521 -0.012875 0.423357
0.108316 -0.012888 0.423525
0.116529 -0.012949 0.419464
0.122083 -0.012986 0.417499
0.129049 -0.013036 0.414450
0.136072 -0.013087 0.411377
0.144559 -0.013150 0.407189
0.154558 -0.013227 0.401855
0.180780 -0.013451 0.384046
0.299335 -0.014508 0.295298
0.300979 -0.014508 0.296678
0.302624 -0.014508 0.298058
0.304269 -0.014508 0.299438
0.304174 -0.014492 0.302145
0.305817 -0.014492 0.303523
0.307460 -0.014492 0.304902
0.309103 -0.014492 0.306281
0.310746 -0.014492 0.307659
0.312388 -0.014492 0.309038
0.314031 -0.014492 0.310417
0.315674 -0.014492 0.311795
0.317317 -0.014492 0.313174
0.318960 -0.014492 0.314552
0.322362 -0.014508 0.314620
0.324007 -0.014508 0.316000
0.327417 -0.014523 0.316069
0.329064 -0.014523 0.317451
0.330711 -0.014523 0.318833
0.334133 -0.014539 0.318905
0.335781 -0.014539 0.320288
0.339213 -0.014555 0.320363
0.342653 -0.014571 0.320437
0.346100 -0.014586 0.320512
0.349555 -0.014602 0.320586
0.354829 -0.014634 0.319344
0.356489 -0.014634 0.320736
0.361791 -0.014666 0.319491
0.368954 -0.014714 0.316912
0.381748 -0.014812 0.310291
-0.430571 -0.016893 -0.353969
-0.434449 -0.016782 -0.340102
-0.438274 -0.016673 -0.326422
-0.439347 -0.016619 -0.318963
-0.439513 -0.016583 -0.313560
-0.438777 -0.016565 -0.310181
-0.438044 -0.016547 -0.306810
-0.437312 -0.016529 -0.303446
-0.436581 -0.016511 -0.300090
-0.434951 -0.016511 -0.298722
-0.434224 -0.016494 -0.295375
-0.433499 -0.016476 -0.292035
-0.432775 -0.016458 -0.288702
-0.432053 -0.016441 -0.285377
-0.430430 -0.016441 -0.284016
-0.429711 -0.016423 -0.280699
-0.428994 -0.016406 -0.277391
-0.428278 -0.016388 -0.274089
-0.426661 -0.016388 -0.272732
-0.425043 -0.016388 -0.271374
-0.424333 -0.016371 -0.268083
-0.422717 -0.016371 -0.266727
-0.421101 -0.016371 -0.265371
-0.420396 -0.016353 -0.262090
-0.418782 -0.016353 -0.260736
-0.417168 -0.016353 -0.259382
-0.416467 -0.016336 -0.256111
-0.414855 -0.016336 -0.254758
-0.414158 -0.016319 -0.251496
-0.412548 -0.016319 -0.250145
-0.410937 -0.016319 -0.248793
-0.409327 -0.016319 -0.247442
-0.407716 -0.016319 -0.246091
-0.406106 -0.016319 -0.244739
-0.404495 -0.016319 -0.243388
-0.402885 -0.016319 -0.242037
-0.401275 -0.016319 -0.240685
-0.399664 -0.016319 -0.239334
-0.398054 -0.016319 -0.237983
-0.396443 -0.016319 -0.236631
-0.394833 -0.016319 -0.235280
-0.393222 -0.016319 -0.233929
-0.390672 -0.016336 -0.234466
-0.389059 -0.016336 -0.233113
-0.386501 -0.016353 -0.233650
-0.385835 -0.016336 -0.230407
-0.386115 -0.016301 -0.225293
-0.386394 -0.016267 -0.220202
-0.385731 -0.016250 -0.216992
-0.386948 -0.016198 -0.210086
-0.387223 -0.016164 -0.205061
-0.387497 -0.016130 -0.200057
-0.387770 -0.016096 -0.195076
-0.388041 -0.016063 -0.190116
-0.388312 -0.016029 -0.185177
-0.388581 -0.015996 -0.180259
-0.388849 -0.015963 -0.175363
-0.390034 -0.015913 -0.168716
-0.389382 -0.015897 -0.165633
-0.389647 -0.015864 -0.160800
-0.389910 -0.015832 -0.155987
-0.389262 -0.015815 -0.152934
-0.389526 -0.015783 -0.148152
-0.388880 -0.015767 -0.145118
-0.389144 -0.015735 -0.140368
-0.388500 -0.015719 -0.137351
-0.386951 -0.015719 -0.136051
-0.386311 -0.015703 -0.133042
-0.385672 -0.015687 -0.130039
-0.385941 -0.015655 -0.125346
-0.385305 -0.015639 -0.122361
-0.384669 -0.015623 -0.119381
-0.383130 -0.015623 -0.118090
-0.382498 -0.015607 -0.115118
-0.381867 -0.015591 -0.112153
-0.381237 -0.015576 -0.109194
-0.380609 -0.015560 -0.106241
-0.379982 -0.015544 -0.103294
-0.378451 -0.015544 -0.102009
-0.377827 -0.015529 -0.099070
-0.378109 -0.015497 -0.094491
-0.376583 -0.015497 -0.093210
-0.375963 -0.015482 -0.090289
-0.375344 -0.015466 -0.087374
-0.374726 -0.015451 -0.084465
-0.374110 -0.015435 -0.081562
-0.373495 -0.015420 -0.078665
-0.371976 -0.015420 -0.077391
-0.371364 -0.015405 -0.074502
-0.370753 -0.015389 -0.071618
-0.370144 -0.015374 -0.068741
-0.369535 -0.015359 -0.065869
-0.368928 -0.015343 -0.063003
-0.368322 -0.015328 -0.060144
-0.366813 -0.015328 -0.058877
-0.366210 -0.015313 -0.056025
-0.364702 -0.015313 -0.054759
-0.364102 -0.015298 -0.051914
-0.362596 -0.015298 -0.050650
-0.361998 -0.015283 -0.047812
-0.360494 -0.015283 -0.046549
-0.358989 -0.015283 -0.045287
-0.358396 -0.015267 -0.042457
-0.356893 -0.015267 -0.041196
-0.355390 -0.015267 -0.039935
-0.353886 -0.015267 -0.038673
-0.353299 -0.015252 -0.035853
-0.351797 -0.015252 -0.034593
-0.351213 -0.015237 -0.031780
-0.349713 -0.015237 -0.030521
-0.349131 -0.015222 -0.027715
-0.347633 -0.015222 -0.026458
-0.347053 -0.015207 -0.023659
-0.345556 -0.015207 -0.022403
-0.344980 -0.015192 -0.019611
-0.343485 -0.015192 -0.018356
-0.341989 -0.015192 -0.017101
-0.341417 -0.015177 -0.014317
-0.339923 -0.015177 -0.013064
-0.338429 -0.015177 -0.011810
-0.337861 -0.015163 -0.009035
-0.336369 -0.015163 -0.007782
-0.335803 -0.015148 -0.005014
-0.334312 -0.015148 -0.003763
-0.333750 -0.015133 -0.001001
-0.332260 -0.015133 0.000249
-0.330771 -0.015133 0.001498
-0.330213 -0.015118 0.004252
-0.327792 -0.015133 0.003998
-0.327237 -0.015118 0.006749
-0.325749 -0.015118 0.007997
-0.324261 -0.015118 0.009246
-0.322773 -0.015118 0.010494
-0.321286 -0.015118 0.011743
-0.320737 -0.015103 0.014483
-0.319251 -0.015103 0.015730
-0.317765 -0.015103 0.016978
-0.316278 -0.015103 0.018225
-0.315736 -0.015088 0.020956
-0.314251 -0.015088 0.022202
-0.312766 -0.015088 0.023448
-0.312227 -0.015074 0.026171
-0.310744 -0.015074 0.027415
-0.309261 -0.015074 0.028660
-0.307777 -0.015074 0.029905
-0.307244 -0.015059 0.032618
-0.305763 -0.015059 0.033862
-0.304281 -0.015059 0.035105
-0.302799 -0.015059 0.036349
-0.301317 -0.015059 0.037592
-0.299835 -0.015059 0.038835
-0.298354 -0.015059 0.040079
-0.295911 -0.015074 0.039862
-0.294428 -0.015074 0.041106
-0.292944 -0.015074 0.042351
-0.291461 -0.015074 0.043596
-0.289978 -0.015074 0.044840
-0.288494 -0.015074 0.046085
-0.287011 -0.015074 0.047330
-0.285528 -0.015074 0.048574
-0.283070 -0.015088 0.048366
-0.281585 -0.015088 0.049612
-0.280100 -0.015088 0.050858
-0.278615 -0.015088 0.052104
-0.277130 -0.015088 0.053350
-0.275645 -0.015088 0.054595
-0.274161 -0.015088 0.055841
-0.272676 -0.015088 0.057087
-0.271191 -0.015088 0.058333
-0.269706 -0.015088 0.059579
-0.268221 -0.015088 0.060825
-0.266737 -0.015088 0.062071
-0.265252 -0.015088 0.063317
-0.263767 -0.015088 0.064563
-0.262282 -0.015088 0.065809
-0.260797 -0.015088 0.067055
-0.259312 -0.015088 0.068301
-0.257828 -0.015088 0.069546
-0.256343 -0.015088 0.070792
-0.254858 -0.015088 0.072038
-0.253373 -0.015088 0.073284
-0.250880 -0.015103 0.073100
-0.249394 -0.015103 0.074348
-0.247907 -0.015103 0.075595
-0.246421 -0.015103 0.076842
-0.243918 -0.015118 0.076662
-0.242430 -0.015118 0.077910
-0.240942 -0.015118 0.079159
-0.239455 -0.015118 0.080407
-0.236942 -0.015133 0.080230
-0.235453 -0.015133 0.081480
-0.233964 -0.015133 0.082730
-0.231443 -0.015148 0.082555
-0.229952 -0.015148 0.083806
-0.228461 -0.015148 0.085057
-0.226970 -0.015148 0.086308
-0.225480 -0.015148 0.087559
-0.222948 -0.015163 0.087389
-0.221455 -0.015163 0.088641
-0.219963 -0.015163 0.089894
-0.218471 -0.015163 0.091146
-0.215929 -0.015177 0.090979
-0.214435 -0.015177 0.092233
-0.212941 -0.015177 0.093486
-0.211447 -0.015177 0.094740
-0.208896 -0.015192 0.094577
-0.207401 -0.015192 0.095832
-0.205905 -0.015192 0.097087
