ply
format ascii 1.0
element vertex 1652
property float x
property float y
property float z
end_header
-0.383459 0.203743 -0.408924
-0.385132 0.204370 -0.408125
-0.386023 0.204370 -0.406876
-0.386914 0.204370 -0.405627
-0.387805 0.204370 -0.404379
-0.389473 0.204997 -0.403584
-0.390364 0.204997 -0.402336
-0.391254 0.204997 -0.401088
-0.392918 0.205622 -0.400297
-0.393808 0.205622 -0.399050
-0.394698 0.205622 -0.397803
-0.395588 0.205622 -0.396556
-0.397247 0.206246 -0.395769
-0.398136 0.206246 -0.394523
-0.399025 0.206246 -0.393278
-0.399914 0.206246 -0.392032
-0.400803 0.206246 -0.390786
-0.402457 0.206870 -0.390004
-0.403345 0.206870 -0.388759
-0.404233 0.206870 -0.387515
-0.405122 0.206870 -0.386270
-0.406010 0.206870 -0.385025
-0.406898 0.206870 -0.383780
-0.407787 0.206870 -0.382535
-0.409434 0.207492 -0.381761
-0.410321 0.207492 -0.380517
-0.411209 0.207492 -0.379273
-0.412096 0.207492 -0.378029
-0.412984 0.207492 -0.376785
-0.413872 0.207492 -0.375542
-0.414759 0.207492 -0.374298
-0.414893 0.206870 -0.372577
-0.415782 0.206870 -0.371332
-0.416670 0.206870 -0.370088
-0.417558 0.206870 -0.368843
-0.418447 0.206870 -0.367598
-0.418584 0.206246 -0.365871
-0.419473 0.206246 -0.364625
-0.420362 0.206246 -0.363379
-0.421251 0.206246 -0.362133
-0.422140 0.206246 -0.360887
-0.422280 0.205622 -0.359153
-0.423918 0.206246 -0.358396
-0.424807 0.206246 -0.357150
-0.424950 0.205622 -0.355413
-0.425839 0.205622 -0.354166
-0.426729 0.205622 -0.352919
-0.427619 0.205622 -0.351673
-0.428509 0.205622 -0.350426
-0.429398 0.205622 -0.349179
-0.429545 0.204997 -0.347434
-0.430435 0.204997 -0.346186
-0.431325 0.204997 -0.344938
-0.432216 0.204997 -0.343691
-0.432364 0.204370 -0.341940
-0.433256 0.204370 -0.340691
-0.433405 0.203743 -0.338936
-0.434297 0.203743 -0.337687
-0.435189 0.203743 -0.336437
-0.435340 0.203115 -0.334677
-0.436233 0.203115 -0.333427
-0.437125 0.203115 -0.332176
-0.438018 0.203115 -0.330925
-0.438172 0.202485 -0.329160
-0.439065 0.202485 -0.327908
-0.439219 0.201855 -0.326139
-0.440114 0.201855 -0.324886
-0.441008 0.201855 -0.323633
-0.441164 0.201224 -0.321859
-0.442059 0.201224 -0.320605
-0.442216 0.200591 -0.318828
-0.443111 0.200591 -0.317573
-0.443269 0.199958 -0.315791
-0.443428 0.199323 -0.314006
-0.443587 0.198688 -0.312219
-0.444484 0.198688 -0.310961
-0.444644 0.198051 -0.309170
-0.444804 0.197414 -0.307375
-0.444964 0.196775 -0.305578
-0.445864 0.196775 -0.304317
-0.446025 0.196136 -0.302516
-0.446187 0.195495 -0.300712
-0.446348 0.194853 -0.298905
-0.447250 0.194853 -0.297641
-0.447413 0.194210 -0.295830
-0.447576 0.193567 -0.294016
-0.447739 0.192922 -0.292199
-0.448643 0.192922 -0.290932
-0.448808 0.192276 -0.289111
-0.448972 0.191629 -0.287287
-0.449137 0.190981 -0.285461
-0.450043 0.190981 -0.284191
-0.449467 0.189682 -0.281798
-0.448889 0.188379 -0.279398
-0.448309 0.187071 -0.276990
-0.447728 0.185759 -0.274574
-0.447144 0.184443 -0.272150
-0.447309 0.183783 -0.270294
-0.446723 0.182460 -0.267857
-0.446135 0.181133 -0.265412
-0.445545 0.179801 -0.262959
-0.444954 0.178465 -0.260498
-0.444360 0.177125 -0.258028
-0.444524 0.176453 -0.256144
-0.439341 0.171038 -0.250069
-0.431749 0.163472 -0.242074
-0.405346 0.139173 -0.219227
-0.405483 0.138437 -0.217220
-0.405621 0.137699 -0.215210
-0.405760 0.136960 -0.213196
-0.405898 0.136220 -0.211179
-0.406037 0.135479 -0.209158
-0.406176 0.134736 -0.207134
-0.406315 0.133991 -0.205106
-0.406454 0.133246 -0.203075
-0.406594 0.132499 -0.201040
-0.406734 0.131751 -0.199002
-0.406874 0.131002 -0.196960
-0.407014 0.130251 -0.194914
-0.407155 0.129499 -0.192865
-0.407296 0.128746 -0.190812
-0.406599 0.127235 -0.188067
-0.406740 0.126478 -0.186005
-0.406881 0.125719 -0.183939
-0.406181 0.124198 -0.181172
-0.406322 0.123435 -0.179096
-0.405620 0.121906 -0.176314
-0.405760 0.121139 -0.174228
-0.405901 0.120371 -0.172139
-0.406043 0.119601 -0.170046
-0.405336 0.118058 -0.167235
-0.405478 0.117284 -0.165132
-0.404768 0.115733 -0.162305
-0.404909 0.114955 -0.160191
-0.404197 0.113396 -0.157348
-0.404338 0.112614 -0.155225
-0.403623 0.111045 -0.152364
-0.403764 0.110259 -0.150231
-0.403046 0.108683 -0.147354
-0.403187 0.107892 -0.145210
-0.402466 0.106307 -0.142317
-0.402606 0.105512 -0.140162
-0.401882 0.103919 -0.137252
-0.402022 0.103120 -0.135087
-0.401295 0.101517 -0.132159
-0.401436 0.100714 -0.129984
-0.400706 0.099103 -0.127039
-0.400846 0.098295 -0.124853
-0.399237 0.095863 -0.121117
-0.399377 0.095049 -0.118917
-0.398638 0.093417 -0.115933
-0.398777 0.092599 -0.113723
-0.397153 0.090135 -0.109932
-0.397291 0.089311 -0.107708
-0.396544 0.087658 -0.104684
-0.395794 0.085999 -0.101649
-0.395041 0.084334 -0.098602
-0.394286 0.082662 -0.095544
-0.393528 0.080985 -0.092475
-0.392766 0.079301 -0.089394
-0.392003 0.077611 -0.086302
-0.391236 0.075914 -0.083198
-0.390466 0.074212 -0.080083
-0.389694 0.072502 -0.076956
-0.388918 0.070787 -0.073817
-0.388140 0.069065 -0.070667
-0.386443 0.066470 -0.066653
-0.384736 0.063860 -0.062617
-0.383943 0.062111 -0.059421
-0.382221 0.059476 -0.055345
-0.379556 0.055940 -0.050369
-0.376871 0.052376 -0.045355
-0.375110 0.049686 -0.041195
-0.372390 0.046074 -0.036112
-0.370604 0.043347 -0.031897
-0.362044 0.034140 -0.021218
-0.336180 0.008361 0.006030
0.215764 -0.106123 -0.491835
0.205774 -0.100049 -0.492761
0.197615 -0.095238 -0.493149
0.191236 -0.091657 -0.493008
0.184900 -0.088100 -0.492869
0.178605 -0.084567 -0.492730
0.169014 -0.078729 -0.493632
0.162825 -0.075257 -0.493492
0.156677 -0.071808 -0.493353
0.148942 -0.067243 -0.493729
0.142885 -0.063845 -0.493590
0.136867 -0.060469 -0.493452
0.130887 -0.057115 -0.493314
0.124946 -0.053782 -0.493178
0.119043 -0.050471 -0.493043
0.113177 -0.047180 -0.492908
0.105804 -0.042825 -0.493277
0.100023 -0.039583 -0.493142
0.094278 -0.036361 -0.493009
0.088570 -0.033159 -0.492876
0.082896 -0.029977 -0.492744
0.077259 -0.026816 -0.492613
0.071656 -0.023673 -0.492483
0.066088 -0.020550 -0.492354
0.060554 -0.017447 -0.492225
0.055054 -0.014362 -0.492097
0.048152 -0.010279 -0.492458
0.042729 -0.007238 -0.492330
0.037339 -0.004216 -0.492204
0.031982 -0.001212 -0.492077
0.026658 0.001773 -0.491952
0.021365 0.004741 -0.491828
0.016104 0.007691 -0.491704
0.010875 0.010623 -0.491581
0.005677 0.013538 -0.491458
-0.000838 0.017397 -0.491811
-0.005965 0.020271 -0.491689
-0.011062 0.023129 -0.491568
-0.017447 0.026912 -0.491917
-0.022475 0.029731 -0.491796
-0.027474 0.032532 -0.491675
-0.032443 0.035318 -0.491555
-0.038665 0.039006 -0.491900
-0.043568 0.041754 -0.491780
-0.048443 0.044486 -0.491661
-0.053290 0.047202 -0.491543
-0.058109 0.049902 -0.491425
-0.062901 0.052587 -0.491308
-0.067665 0.055257 -0.491192
-0.072401 0.057911 -0.491076
-0.077111 0.060550 -0.490961
-0.081794 0.063175 -0.490847
-0.086451 0.065784 -0.490734
-0.091082 0.068379 -0.490620
-0.095686 0.070959 -0.490508
-0.100264 0.073525 -0.490396
-0.104817 0.076076 -0.490285
-0.109345 0.078613 -0.490175
-0.115000 0.081974 -0.490509
-0.119470 0.084479 -0.490398
-0.123915 0.086969 -0.490289
-0.127205 0.088622 -0.489739
-0.131609 0.091090 -0.489631
-0.135989 0.093544 -0.489524
-0.141454 0.096795 -0.489855
-0.145778 0.099218 -0.489748
-0.150080 0.101628 -0.489642
-0.154358 0.104025 -0.489537
-0.158613 0.106409 -0.489431
-0.162845 0.108780 -0.489327
-0.167054 0.111138 -0.489223
-0.171241 0.113484 -0.489119
-0.175405 0.115817 -0.489017
-0.178499 0.117365 -0.488487
-0.182625 0.119678 -0.488386
-0.186730 0.121978 -0.488286
-0.190813 0.124266 -0.488186
-0.194874 0.126541 -0.488087
-0.198914 0.128805 -0.487988
-0.202933 0.131057 -0.487890
-0.206930 0.133298 -0.487792
-0.209907 0.134784 -0.487275
-0.213869 0.137005 -0.487180
-0.217810 0.139214 -0.487085
-0.221731 0.141412 -0.486990
-0.225632 0.143598 -0.486896
-0.229513 0.145773 -0.486802
-0.233373 0.147937 -0.486709
-0.236253 0.149373 -0.486203
-0.239123 0.150805 -0.485698
-0.242936 0.152943 -0.485608
-0.245783 0.154362 -0.485106
-0.248620 0.155777 -0.484606
-0.251447 0.157186 -0.484108
-0.255200 0.159292 -0.484023
-0.258004 0.160690 -0.483528
-0.260799 0.162083 -0.483034
-0.264506 0.164163 -0.482952
-0.267278 0.165545 -0.482462
-0.270041 0.166921 -0.481973
-0.272794 0.168293 -0.481486
-0.274633 0.168978 -0.480591
-0.275563 0.168978 -0.479288
-0.278300 0.170343 -0.478807
-0.280129 0.171024 -0.477917
-0.281955 0.171704 -0.477028
-0.283778 0.172382 -0.476141
-0.286491 0.173736 -0.475667
-0.288305 0.174411 -0.474783
-0.290117 0.175085 -0.473901
-0.291926 0.175758 -0.473020
-0.293731 0.176430 -0.472140
-0.296414 0.177771 -0.471675
-0.298211 0.178439 -0.470799
-0.300006 0.179107 -0.469924
-0.301797 0.179773 -0.469051
-0.303586 0.180438 -0.468179
-0.305371 0.181102 -0.467309
-0.307154 0.181766 -0.466440
-0.308934 0.182428 -0.465573
-0.310711 0.183088 -0.464707
-0.311625 0.183088 -0.463426
-0.313398 0.183748 -0.462563
-0.315168 0.184407 -0.461701
-0.316935 0.185065 -0.460840
-0.318700 0.185721 -0.459981
-0.320461 0.186377 -0.459123
-0.322220 0.187031 -0.458266
-0.323976 0.187684 -0.457411
-0.325729 0.188337 -0.456557
-0.327479 0.188988 -0.455705
-0.328386 0.188988 -0.454434
-0.329293 0.188988 -0.453163
-0.331039 0.189638 -0.452314
-0.333617 0.190935 -0.451888
-0.334522 0.190935 -0.450620
-0.336259 0.191582 -0.449776
-0.337994 0.192228 -0.448932
-0.338897 0.192228 -0.447666
-0.340628 0.192873 -0.446825
-0.342356 0.193517 -0.445986
-0.344081 0.194159 -0.445148
-0.344982 0.194159 -0.443885
-0.346704 0.194801 -0.443049
-0.348423 0.195442 -0.442214
-0.349323 0.195442 -0.440954
-0.351038 0.196081 -0.440121
-0.351938 0.196081 -0.438862
-0.353649 0.196720 -0.438032
-0.354548 0.196720 -0.436773
-0.356256 0.197358 -0.435946
-0.357154 0.197358 -0.434688
-0.358859 0.197994 -0.433863
-0.359756 0.197994 -0.432606
-0.361457 0.198630 -0.431783
-0.362353 0.198630 -0.430527
-0.364051 0.199264 -0.429707
-0.364947 0.199264 -0.428452
-0.366641 0.199898 -0.427634
-0.367536 0.199898 -0.426380
-0.369227 0.200530 -0.425565
-0.370121 0.200530 -0.424312
-0.371809 0.201162 -0.423499
-0.372702 0.201162 -0.422247
-0.373596 0.201162 -0.420995
-0.375279 0.201792 -0.420185
-0.376172 0.201792 -0.418934
-0.377064 0.201792 -0.417683
-0.377957 0.201792 -0.416433
-0.379636 0.202421 -0.415627
-0.380528 0.202421 -0.414377
-0.381419 0.202421 -0.413127
-0.382311 0.202421 -0.411878
-0.383985 0.203050 -0.411076
-0.384876 0.203050 -0.409827
-0.385767 0.203050 -0.408579
-0.386659 0.203050 -0.407330
-0.387550 0.203050 -0.406081
-0.389218 0.203677 -0.405285
-0.390109 0.203677 -0.404037
-0.390999 0.203677 -0.402789
-0.391890 0.203677 -0.401542
-0.393553 0.204304 -0.400750
-0.394443 0.204304 -0.399503
-0.395333 0.204304 -0.398256
-0.396992 0.204929 -0.397468
-0.397881 0.204929 -0.396222
-0.398770 0.204929 -0.394976
-0.399659 0.204929 -0.393730
-0.401314 0.205553 -0.392946
-0.402202 0.205553 -0.391701
-0.403090 0.205553 -0.390456
-0.403979 0.205553 -0.389211
-0.404867 0.205553 -0.387967
-0.405755 0.205553 -0.386722
-0.406644 0.205553 -0.385477
-0.408291 0.206177 -0.384700
-0.409179 0.206177 -0.383456
-0.410067 0.206177 -0.382212
-0.410954 0.206177 -0.380969
-0.411842 0.206177 -0.379725
-0.412730 0.206177 -0.378481
-0.413617 0.206177 -0.377237
-0.414505 0.206177 -0.375993
-0.415392 0.206177 -0.374750
-0.416280 0.206177 -0.373506
-0.417168 0.206177 -0.372262
-0.418055 0.206177 -0.371018
-0.418192 0.205553 -0.369295
-0.419080 0.205553 -0.368050
-0.419969 0.205553 -0.366805
-0.420857 0.205553 -0.365561
-0.421745 0.205553 -0.364316
-0.421885 0.204929 -0.362586
-0.422774 0.204929 -0.361340
-0.423663 0.204929 -0.360094
-0.424552 0.204929 -0.358848
-0.425441 0.204929 -0.357603
-0.426330 0.204929 -0.356357
-0.427219 0.204929 -0.355111
-0.428108 0.204929 -0.353865
-0.428997 0.204929 -0.352619
-0.429143 0.204304 -0.350879
-0.430033 0.204304 -0.349632
-0.430923 0.204304 -0.348385
-0.431813 0.204304 -0.347138
-0.432702 0.204304 -0.345892
-0.432851 0.203677 -0.344144
-0.433742 0.203677 -0.342896
-0.434632 0.203677 -0.341648
-0.434782 0.203050 -0.339896
-0.435674 0.203050 -0.338647
-0.435825 0.202421 -0.336891
-0.436717 0.202421 -0.335641
-0.437609 0.202421 -0.334391
-0.438501 0.202421 -0.333142
-0.438655 0.201792 -0.331379
-0.439547 0.201792 -0.330129
-0.440440 0.201792 -0.328878
-0.440595 0.201162 -0.327111
-0.441489 0.201162 -0.325859
-0.441645 0.200530 -0.324088
-0.442539 0.200530 -0.322836
-0.443433 0.200530 -0.321583
-0.443592 0.199898 -0.319807
-0.444486 0.199898 -0.318553
-0.444646 0.199264 -0.316774
-0.444805 0.198630 -0.314991
-0.444965 0.197994 -0.313206
-0.445125 0.197358 -0.311418
-0.446022 0.197358 -0.310160
-0.446183 0.196720 -0.308368
-0.446344 0.196081 -0.306573
-0.446506 0.195442 -0.304775
-0.447406 0.195442 -0.303514
-0.447568 0.194801 -0.301713
-0.447731 0.194159 -0.299908
-0.447894 0.193517 -0.298100
-0.448796 0.193517 -0.296836
-0.448960 0.192873 -0.295025
-0.449124 0.192228 -0.293210
-0.449288 0.191582 -0.291392
-0.450193 0.191582 -0.290125
-0.450358 0.190935 -0.288304
-0.450524 0.190287 -0.286479
-0.451430 0.190287 -0.285210
-0.450856 0.188988 -0.282821
-0.450281 0.187684 -0.280425
-0.449704 0.186377 -0.278021
-0.449125 0.185065 -0.275608
-0.449291 0.184407 -0.273760
-0.448710 0.183088 -0.271334
-0.448127 0.181766 -0.268901
-0.447542 0.180438 -0.266460
-0.446955 0.179107 -0.264011
-0.446366 0.177771 -0.261553
-0.446531 0.177101 -0.259676
-0.445940 0.175758 -0.257205
-0.443065 0.172382 -0.252939
-0.437082 0.166234 -0.246215
-0.405206 0.137005 -0.219066
-0.405344 0.136266 -0.217058
-0.405482 0.135526 -0.215046
-0.406450 0.135526 -0.213689
-0.405759 0.134042 -0.211011
-0.405897 0.133298 -0.208988
-0.406036 0.132552 -0.206962
-0.406176 0.131805 -0.204932
-0.406315 0.131057 -0.202899
-0.406455 0.130308 -0.200862
-0.406595 0.129557 -0.198822
-0.406735 0.128805 -0.196778
-0.406875 0.128052 -0.194730
-0.407016 0.127297 -0.192679
-0.407157 0.126541 -0.190624
-0.407298 0.125784 -0.188566
-0.407439 0.125026 -0.186504
-0.406741 0.123504 -0.183744
-0.406882 0.122742 -0.181672
-0.406181 0.121212 -0.178897
-0.406322 0.120446 -0.176816
-0.406464 0.119678 -0.174730
-0.406605 0.118908 -0.172641
-0.405901 0.117365 -0.169838
-0.406042 0.116592 -0.167739
-0.405335 0.115040 -0.164919
-0.405476 0.114263 -0.162810
-0.404766 0.112703 -0.159973
-0.404907 0.111921 -0.157854
-0.404194 0.110353 -0.155001
-0.404335 0.109567 -0.152872
-0.403618 0.107991 -0.150003
-0.403760 0.107201 -0.147863
-0.403040 0.105616 -0.144977
-0.403181 0.104821 -0.142827
-0.402459 0.103227 -0.139924
-0.402599 0.102428 -0.137764
-0.401874 0.100826 -0.134843
-0.402015 0.100023 -0.132673
-0.401286 0.098412 -0.129735
-0.401427 0.097604 -0.127554
-0.400695 0.095984 -0.124599
-0.399961 0.094359 -0.121633
-0.399225 0.092727 -0.118657
-0.399364 0.091909 -0.116451
-0.398624 0.090269 -0.113457
-0.397881 0.088622 -0.110452
-0.397136 0.086969 -0.107435
-0.396388 0.085310 -0.104408
-0.395637 0.083645 -0.101369
-0.394883 0.081974 -0.098319
-0.394127 0.080297 -0.095258
-0.393368 0.078613 -0.092185
-0.392606 0.076923 -0.089101
-0.391841 0.075227 -0.086006
-0.391073 0.073525 -0.082898
-0.390302 0.071816 -0.079780
-0.389529 0.070101 -0.076649
-0.388752 0.068379 -0.073507
-0.387973 0.066651 -0.070353
-0.386273 0.064046 -0.066335
-0.384564 0.061427 -0.062294
-0.382846 0.058793 -0.058229
-0.381117 0.056143 -0.054142
-0.379379 0.053479 -0.050031
-0.377630 0.050799 -0.045897
-0.374927 0.047202 -0.040846
-0.372203 0.043577 -0.035757
-0.369458 0.039924 -0.030628
-0.356951 0.026912 -0.016183
0.206633 -0.103092 -0.492860
0.200189 -0.099465 -0.492719
0.192073 -0.094668 -0.493107
0.185727 -0.091097 -0.492967
0.179422 -0.087550 -0.492827
0.171486 -0.082856 -0.493210
0.163618 -0.078204 -0.493590
0.157461 -0.074741 -0.493450
0.151343 -0.071301 -0.493311
0.143647 -0.066748 -0.493686
0.137620 -0.063359 -0.493548
0.131632 -0.059992 -0.493410
0.125682 -0.056646 -0.493273
0.119770 -0.053322 -0.493137
0.113896 -0.050019 -0.493002
0.108059 -0.046737 -0.492868
0.100723 -0.042393 -0.493236
0.094970 -0.039159 -0.493102
0.089253 -0.035945 -0.492969
0.083572 -0.032751 -0.492837
0.077926 -0.029577 -0.492705
0.072316 -0.026423 -0.492575
0.066740 -0.023289 -0.492445
0.061198 -0.020173 -0.492316
0.055691 -0.017077 -0.492188
0.050217 -0.014000 -0.492060
0.043348 -0.009927 -0.492420
0.037951 -0.006893 -0.492293
0.032587 -0.003878 -0.492167
0.027255 -0.000881 -0.492041
0.021956 0.002097 -0.491916
0.016688 0.005058 -0.491792
0.011452 0.008001 -0.491668
0.006247 0.010926 -0.491546
-0.000277 0.014800 -0.491899
-0.005411 0.017685 -0.491776
-0.010514 0.020553 -0.491654
-0.016908 0.024350 -0.492003
-0.021943 0.027179 -0.491882
-0.026948 0.029990 -0.491761
-0.031924 0.032786 -0.491641
-0.036871 0.035565 -0.491521
-0.043063 0.039246 -0.491865
-0.047944 0.041987 -0.491746
-0.052797 0.044713 -0.491627
-0.057622 0.047424 -0.491509
-0.062420 0.050118 -0.491392
-0.067190 0.052797 -0.491275
-0.071932 0.055461 -0.491159
-0.076648 0.058110 -0.491044
-0.081337 0.060744 -0.490929
-0.085999 0.063363 -0.490815
-0.090635 0.065967 -0.490702
-0.095245 0.068556 -0.490589
-0.099829 0.071131 -0.490477
-0.104387 0.073691 -0.490366
-0.108920 0.076237 -0.490255
-0.113428 0.078769 -0.490145
-0.119057 0.082123 -0.490478
-0.123508 0.084623 -0.490368
-0.127934 0.087108 -0.490259
-0.131211 0.088758 -0.489710
-0.135596 0.091221 -0.489602
-0.141067 0.094483 -0.489934
-0.145397 0.096915 -0.489826
-0.149703 0.099333 -0.489720
-0.153986 0.101739 -0.489614
-0.158246 0.104131 -0.489508
-0.162483 0.106510 -0.489404
-0.166697 0.108877 -0.489299
-0.170888 0.111230 -0.489196
-0.175057 0.113571 -0.489092
-0.178154 0.115125 -0.488562
-0.182285 0.117446 -0.488461
-0.186394 0.119754 -0.488360
-0.190482 0.122050 -0.488260
-0.194547 0.124333 -0.488161
-0.198592 0.126605 -0.488062
-0.202615 0.128865 -0.487964
-0.205609 0.130365 -0.487444
-0.209596 0.132605 -0.487348
-0.213563 0.134833 -0.487252
-0.217508 0.137050 -0.487157
-0.221434 0.139255 -0.487062
-0.225338 0.141449 -0.486967
-0.229223 0.143631 -0.486874
-0.233088 0.145802 -0.486780
-0.235971 0.147244 -0.486273
-0.238844 0.148680 -0.485768
-0.242661 0.150825 -0.485678
-0.245510 0.152249 -0.485175
-0.248350 0.153669 -0.484675
-0.251180 0.155083 -0.484176
-0.254937 0.157196 -0.484091
-0.257744 0.158598 -0.483595
-0.260541 0.159996 -0.483101
-0.265173 0.162777 -0.483429
-0.267027 0.163470 -0.482528
-0.270706 0.165540 -0.482448
-0.272549 0.166228 -0.481551
-0.274389 0.166914 -0.480655
-0.276226 0.167600 -0.479762
-0.278060 0.168284 -0.478869
-0.279891 0.168967 -0.477978
-0.282616 0.170330 -0.477500
-0.284439 0.171010 -0.476612
-0.286258 0.171689 -0.475726
-0.288075 0.172366 -0.474842
-0.290775 0.173718 -0.474370
-0.292583 0.174392 -0.473489
-0.294388 0.175065 -0.472609
-0.296191 0.175737 -0.471731
-0.297990 0.176408 -0.470854
-0.299786 0.177077 -0.469979
-0.301579 0.177746 -0.469105
-0.303369 0.178413 -0.468232
-0.305157 0.179080 -0.467361
-0.307807 0.180409 -0.466906
-0.308722 0.180409 -0.465624
-0.310501 0.181072 -0.464757
-0.312276 0.181734 -0.463891
-0.314049 0.182395 -0.463028
-0.315819 0.183055 -0.462165
-0.317586 0.183714 -0.461304
-0.319350 0.184371 -0.460444
-0.321111 0.185028 -0.459586
-0.322869 0.185683 -0.458729
-0.323778 0.185683 -0.457455
-0.325533 0.186338 -0.456600
-0.327284 0.186991 -0.455747
-0.329033 0.187643 -0.454896
-0.329940 0.187643 -0.453624
-0.331686 0.188295 -0.452775
-0.333428 0.188945 -0.451927
-0.335167 0.189594 -0.451081
-0.336904 0.190242 -0.450236
-0.337808 0.190242 -0.448969
-0.339542 0.190889 -0.448126
-0.341272 0.191535 -0.447285
-0.342999 0.192180 -0.446445
-0.343901 0.192180 -0.445181
-0.345625 0.192824 -0.444343
-0.347347 0.193467 -0.443507
-0.348247 0.193467 -0.442245
-0.349965 0.194108 -0.441412
-0.351680 0.194749 -0.440579
-0.352579 0.194749 -0.439319
-0.354290 0.195389 -0.438489
-0.355189 0.195389 -0.437230
-0.356087 0.195389 -0.435971
-0.357794 0.196027 -0.435145
-0.359499 0.196665 -0.434319
-0.360395 0.196665 -0.433062
-0.362096 0.197302 -0.432239
-0.362993 0.197302 -0.430984
-0.364690 0.197937 -0.430163
-0.365586 0.197937 -0.428908
-0.367280 0.198572 -0.428090
-0.368174 0.198572 -0.426836
-0.369865 0.199205 -0.426020
-0.370759 0.199205 -0.424767
-0.372446 0.199838 -0.423953
-0.373340 0.199838 -0.422702
-0.374233 0.199838 -0.421450
-0.375916 0.200469 -0.420639
-0.376808 0.200469 -0.419389
-0.377701 0.200469 -0.418138
-0.379380 0.201100 -0.417331
-0.380272 0.201100 -0.416081
-0.381164 0.201100 -0.414831
-0.382056 0.201100 -0.413581
-0.383730 0.201729 -0.412779
-0.384621 0.201729 -0.411530
-0.385512 0.201729 -0.410281
-0.386403 0.201729 -0.409032
-0.387294 0.201729 -0.407783
-0.388963 0.202358 -0.406986
-0.389853 0.202358 -0.405738
-0.390744 0.202358 -0.404490
-0.391634 0.202358 -0.403243
-0.393298 0.202985 -0.402449
-0.394188 0.202985 -0.401203
-0.395077 0.202985 -0.399956
-0.396737 0.203612 -0.399166
-0.397626 0.203612 -0.397920
-0.398515 0.203612 -0.396674
-0.399404 0.203612 -0.395429
-0.401059 0.204237 -0.394643
-0.401947 0.204237 -0.393398
-0.402836 0.204237 -0.392153
-0.403724 0.204237 -0.390908
-0.404612 0.204237 -0.389664
-0.405501 0.204237 -0.388419
-0.407149 0.204862 -0.387639
-0.408037 0.204862 -0.386396
-0.408925 0.204862 -0.385152
-0.409812 0.204862 -0.383908
-0.410700 0.204862 -0.382664
-0.412343 0.205485 -0.381890
-0.413230 0.205485 -0.380647
-0.414117 0.205485 -0.379404
-0.415004 0.205485 -0.378162
-0.415138 0.204862 -0.376445
-0.416026 0.204862 -0.375202
-0.416913 0.204862 -0.373958
-0.417801 0.204862 -0.372714
-0.418688 0.204862 -0.371470
-0.419576 0.204862 -0.370226
-0.420464 0.204862 -0.368983
-0.421351 0.204862 -0.367739
-0.421491 0.204237 -0.366013
-0.422379 0.204237 -0.364768
-0.423267 0.204237 -0.363523
-0.424156 0.204237 -0.362278
-0.425044 0.204237 -0.361034
-0.425186 0.203612 -0.359301
-0.426821 0.204237 -0.358544
-0.427709 0.204237 -0.357299
-0.427854 0.203612 -0.355564
-0.428743 0.203612 -0.354318
-0.429632 0.203612 -0.353072
-0.430521 0.203612 -0.351826
-0.431410 0.203612 -0.350580
-0.432299 0.203612 -0.349335
-0.433188 0.203612 -0.348089
-0.433337 0.202985 -0.346345
-0.434227 0.202985 -0.345098
-0.435116 0.202985 -0.343851
-0.436006 0.202985 -0.342604
-0.436158 0.202358 -0.340854
-0.436309 0.201729 -0.339101
-0.437201 0.201729 -0.337852
-0.438092 0.201729 -0.336603
-0.438245 0.201100 -0.334845
-0.439137 0.201100 -0.333596
-0.440029 0.201100 -0.332346
-0.440921 0.201100 -0.331096
-0.441077 0.200469 -0.329332
-0.441969 0.200469 -0.328081
-0.442862 0.200469 -0.326831
-0.443019 0.199838 -0.325062
-0.443913 0.199838 -0.323810
-0.444071 0.199205 -0.322038
-0.444965 0.199205 -0.320785
-0.445859 0.199205 -0.319532
-0.445284 0.197937 -0.317230
-0.446180 0.197937 -0.315975
-0.446340 0.197302 -0.314192
-0.446501 0.196665 -0.312406
-0.447398 0.196665 -0.311149
-0.447560 0.196027 -0.309359
-0.447722 0.195389 -0.307567
-0.447885 0.194749 -0.305771
-0.448784 0.194749 -0.304511
-0.448947 0.194108 -0.302711
-0.449111 0.193467 -0.300909
-0.449275 0.192824 -0.299104
-0.450176 0.192824 -0.297841
-0.450341 0.192180 -0.296031
-0.450506 0.191535 -0.294219
-0.450672 0.190889 -0.292404
-0.450838 0.190242 -0.290586
-0.451742 0.190242 -0.289319
-0.451909 0.189594 -0.287496
-0.452814 0.189594 -0.286228
-0.452243 0.188295 -0.283843
-0.451670 0.186991 -0.281450
-0.451096 0.185683 -0.279049
-0.451263 0.185028 -0.277208
-0.450687 0.183714 -0.274795
-0.450108 0.182395 -0.272373
-0.449528 0.181072 -0.269944
-0.448946 0.179745 -0.267506
-0.448362 0.178413 -0.265060
-0.448528 0.177746 -0.263191
-0.447942 0.176408 -0.260732
-0.447354 0.175065 -0.258265
-0.446006 0.173043 -0.255197
-0.440829 0.167600 -0.249110
-0.430894 0.157898 -0.239249
-0.406034 0.134833 -0.217550
-0.406173 0.134092 -0.215538
-0.406311 0.133349 -0.213523
-0.406450 0.132605 -0.211505
-0.406590 0.131859 -0.209482
-0.406729 0.131113 -0.207457
-0.406869 0.130365 -0.205427
-0.407009 0.129615 -0.203394
-0.407149 0.128865 -0.201358
-0.407290 0.128113 -0.199318
-0.407431 0.127360 -0.197274
-0.407572 0.126605 -0.195227
-0.407713 0.125849 -0.193177
-0.407854 0.125092 -0.191122
-0.407158 0.123574 -0.188376
-0.407300 0.122812 -0.186312
-0.407441 0.122050 -0.184244
-0.406742 0.120520 -0.181476
-0.406883 0.119754 -0.179398
-0.407025 0.118986 -0.177317
-0.407167 0.118217 -0.175232
-0.406464 0.116674 -0.172436
-0.406606 0.115900 -0.170341
-0.405900 0.114349 -0.167528
-0.406042 0.113571 -0.165423
-0.405333 0.112012 -0.162594
-0.405475 0.111230 -0.160479
-0.404763 0.109663 -0.157634
-0.404905 0.108877 -0.155509
-0.404190 0.107300 -0.152647
-0.404331 0.106510 -0.150511
-0.403614 0.104925 -0.147632
-0.403755 0.104131 -0.145487
-0.403034 0.102537 -0.142591
-0.403175 0.101739 -0.140435
-0.402452 0.100137 -0.137522
-0.402593 0.099333 -0.135356
-0.401866 0.097723 -0.132426
-0.402007 0.096915 -0.130249
-0.401277 0.095295 -0.127302
-0.401418 0.094483 -0.125114
-0.399810 0.092039 -0.121375
-0.399950 0.091221 -0.119174
-0.399212 0.089580 -0.116188
-0.398471 0.087934 -0.113190
-0.397727 0.086281 -0.110182
-0.396981 0.084623 -0.107162
-0.396232 0.082958 -0.104131
-0.395480 0.081287 -0.101089
-0.394725 0.079610 -0.098036
-0.393968 0.077927 -0.094971
-0.394104 0.077083 -0.092711
-0.393344 0.075390 -0.089628
-0.392580 0.073691 -0.086533
-0.391814 0.071986 -0.083427
-0.391044 0.070274 -0.080309
-0.390272 0.068556 -0.077180
-0.388586 0.065967 -0.073196
-0.387805 0.064232 -0.070038
-0.386104 0.061618 -0.066015
-0.384393 0.058990 -0.061970
-0.382672 0.056346 -0.057901
-0.380941 0.053687 -0.053809
-0.379201 0.051013 -0.049693
-0.377450 0.048324 -0.045554
-0.375689 0.045618 -0.041390
-0.372016 0.041075 -0.035401
-0.365416 0.033714 -0.026607
-0.336656 0.005058 0.003334
0.210993 -0.108583 -0.491893
0.201040 -0.102501 -0.492818
0.194629 -0.098885 -0.492678
0.186555 -0.094100 -0.493065
0.180241 -0.090539 -0.492925
0.172292 -0.085827 -0.493308
0.164412 -0.081157 -0.493687
0.158246 -0.077681 -0.493547
0.152119 -0.074227 -0.493408
0.146033 -0.070796 -0.493269
0.138376 -0.066255 -0.493644
0.132379 -0.062875 -0.493506
0.126420 -0.059517 -0.493368
0.120499 -0.056180 -0.493232
0.114617 -0.052864 -0.493097
0.108771 -0.049569 -0.492962
0.102962 -0.046295 -0.492828
0.095663 -0.041962 -0.493196
0.089938 -0.038736 -0.493062
0.084249 -0.035531 -0.492930
0.078595 -0.032345 -0.492798
0.072977 -0.029179 -0.492667
0.067393 -0.026032 -0.492536
0.061844 -0.022905 -0.492407
0.056329 -0.019798 -0.492278
0.050848 -0.016709 -0.492150
0.045400 -0.013639 -0.492023
0.039986 -0.010589 -0.491897
0.033193 -0.006549 -0.492256
0.027854 -0.003542 -0.492130
0.022547 -0.000552 -0.492004
0.017272 0.002420 -0.491880
0.012029 0.005374 -0.491756
0.006817 0.008310 -0.491633
0.001637 0.011229 -0.491511
-0.004856 0.015093 -0.491863
-0.009966 0.017971 -0.491741
-0.016368 0.021783 -0.492090
-0.021409 0.024622 -0.491968
-0.026421 0.027444 -0.491847
-0.031403 0.030249 -0.491726
-0.036356 0.033039 -0.491606
-0.041281 0.035812 -0.491487
-0.046176 0.038569 -0.491368
-0.052303 0.042220 -0.491712
-0.057134 0.044940 -0.491593
-0.061938 0.047644 -0.491476
-0.066713 0.050333 -0.491359
-0.071462 0.053007 -0.491242
-0.076184 0.055665 -0.491127
-0.080878 0.058308 -0.491012
-0.085546 0.060936 -0.490897
-0.090188 0.063550 -0.490784
-0.094803 0.066148 -0.490670
-0.099393 0.068732 -0.490558
-0.103957 0.071302 -0.490446
-0.108495 0.073857 -0.490335
-0.113008 0.076398 -0.490225
-0.117496 0.078925 -0.490115
-0.121960 0.081438 -0.490005
-0.127531 0.084766 -0.490338
-0.131938 0.087247 -0.490229
-0.135202 0.088893 -0.489681
-0.139568 0.091351 -0.489574
-0.145015 0.094608 -0.489904
-0.149326 0.097034 -0.489798
-0.153614 0.099448 -0.489691
-0.157878 0.101849 -0.489586
-0.162120 0.104236 -0.489480
-0.166339 0.106611 -0.489376
-0.170535 0.108973 -0.489272
-0.174709 0.111322 -0.489168
-0.177809 0.112881 -0.488637
-0.181945 0.115210 -0.488536
-0.186058 0.117526 -0.488435
-0.190150 0.119830 -0.488335
-0.194220 0.122121 -0.488235
-0.198269 0.124401 -0.488136
-0.202297 0.126668 -0.488037
-0.205294 0.128173 -0.487517
-0.209286 0.130421 -0.487421
-0.213256 0.132657 -0.487324
-0.217206 0.134881 -0.487229
-0.221135 0.137094 -0.487134
-0.225044 0.139296 -0.487039
-0.228933 0.141485 -0.486945
-0.232802 0.143664 -0.486851
-0.236651 0.145831 -0.486758
-0.239523 0.147270 -0.486252
-0.242385 0.148704 -0.485747
-0.245237 0.150133 -0.485245
-0.248080 0.151557 -0.484744
-0.251854 0.153684 -0.484657
-0.254673 0.155096 -0.484159
-0.257483 0.156503 -0.483662
-0.260284 0.157906 -0.483168
-0.264920 0.160696 -0.483496
-0.267694 0.162085 -0.483004
-0.269544 0.162777 -0.482104
-0.272303 0.164158 -0.481616
-0.275053 0.165535 -0.481129
-0.275983 0.165535 -0.479825
-0.278722 0.166907 -0.479342
-0.280553 0.167592 -0.478451
-0.282380 0.168275 -0.477561
-0.284204 0.168957 -0.476673
-0.286918 0.170317 -0.476197
-0.288734 0.170996 -0.475312
-0.290547 0.171674 -0.474429
-0.292357 0.172350 -0.473547
-0.294163 0.173025 -0.472666
-0.296847 0.174373 -0.472200
-0.298646 0.175044 -0.471323
-0.300442 0.175715 -0.470447
-0.302234 0.176385 -0.469572
-0.304024 0.177054 -0.468700
-0.305811 0.177721 -0.467828
-0.307595 0.178387 -0.466958
-0.309375 0.179053 -0.466090
-0.311153 0.179717 -0.465222
-0.312928 0.180380 -0.464357
-0.313842 0.180380 -0.463076
-0.315614 0.181042 -0.462213
-0.317382 0.181703 -0.461351
-0.319148 0.182363 -0.460491
-0.320910 0.183022 -0.459632
-0.322670 0.183679 -0.458774
-0.324427 0.184336 -0.457918
-0.326181 0.184991 -0.457063
-0.327932 0.185646 -0.456210
-0.329680 0.186299 -0.455357
-0.330587 0.186299 -0.454086
-0.332332 0.186952 -0.453237
-0.334074 0.187603 -0.452388
-0.335813 0.188253 -0.451542
-0.337549 0.188902 -0.450696
-0.338453 0.188902 -0.449429
-0.340186 0.189550 -0.448586
-0.341916 0.190197 -0.447744
-0.342818 0.190197 -0.446479
-0.344545 0.190843 -0.445640
-0.346268 0.191488 -0.444802
-0.347170 0.191488 -0.443539
-0.348889 0.192132 -0.442704
-0.350607 0.192775 -0.441870
-0.352321 0.193417 -0.441037
-0.353220 0.193417 -0.439777
-0.354931 0.194058 -0.438946
-0.355829 0.194058 -0.437688
-0.356728 0.194058 -0.436429
-0.358434 0.194697 -0.435602
-0.359332 0.194697 -0.434344
-0.361035 0.195336 -0.433519
-0.361932 0.195336 -0.432262
-0.363632 0.195974 -0.431440
-0.365329 0.196610 -0.430619
-0.366224 0.196610 -0.429364
-0.367918 0.197246 -0.428545
-0.368813 0.197246 -0.427291
-0.370503 0.197881 -0.426475
-0.371397 0.197881 -0.425222
-0.373083 0.198514 -0.424408
-0.373977 0.198514 -0.423156
-0.375660 0.199147 -0.422345
-0.376553 0.199147 -0.421094
-0.377445 0.199147 -0.419843
-0.379124 0.199778 -0.419034
-0.380016 0.199778 -0.417785
-0.380908 0.199778 -0.416535
-0.381800 0.199778 -0.415285
-0.383474 0.200409 -0.414481
-0.384365 0.200409 -0.413232
-0.385256 0.200409 -0.411983
-0.386148 0.200409 -0.410735
-0.387039 0.200409 -0.409486
-0.388708 0.201038 -0.408687
-0.389598 0.201038 -0.407439
-0.390488 0.201038 -0.406191
-0.391379 0.201038 -0.404944
-0.393043 0.201667 -0.404149
-0.393933 0.201667 -0.402902
-0.394822 0.201667 -0.401656
-0.396482 0.202294 -0.400864
-0.397371 0.202294 -0.399618
-0.398260 0.202294 -0.398373
-0.399149 0.202294 -0.397127
-0.400804 0.202921 -0.396340
-0.401693 0.202921 -0.395095
-0.402581 0.202921 -0.393850
-0.403469 0.202921 -0.392605
-0.404358 0.202921 -0.391361
-0.406007 0.203546 -0.390579
-0.406895 0.203546 -0.389335
-0.407782 0.203546 -0.388091
-0.408670 0.203546 -0.386847
-0.409558 0.203546 -0.385604
-0.410445 0.203546 -0.384360
-0.411333 0.203546 -0.383116
-0.412976 0.204171 -0.382341
-0.413862 0.204171 -0.381099
-0.414749 0.204171 -0.379856
-0.415636 0.204171 -0.378613
-0.416523 0.204171 -0.377370
-0.417410 0.204171 -0.376127
-0.418297 0.204171 -0.374885
-0.419184 0.204171 -0.373642
-0.420071 0.204171 -0.372399
-0.420209 0.203546 -0.370678
-0.421097 0.203546 -0.369434
-0.421984 0.203546 -0.368191
-0.422872 0.203546 -0.366947
-0.423760 0.203546 -0.365703
-0.424647 0.203546 -0.364459
-0.424789 0.202921 -0.362731
-0.425678 0.202921 -0.361486
-0.426566 0.202921 -0.360241
-0.427454 0.202921 -0.358996
-0.428343 0.202921 -0.357752
-0.429231 0.202921 -0.356507
-0.430119 0.202921 -0.355262
-0.431008 0.202921 -0.354017
-0.431896 0.202921 -0.352772
-0.432784 0.202921 -0.351528
-0.432933 0.202294 -0.349787
-0.433822 0.202294 -0.348541
-0.434711 0.202294 -0.347296
-0.435600 0.202294 -0.346050
-0.436489 0.202294 -0.344804
-0.436641 0.201667 -0.343057
-0.437531 0.201667 -0.341810
-0.437683 0.201038 -0.340059
-0.438574 0.201038 -0.338812
-0.439464 0.201038 -0.337564
-0.439619 0.200409 -0.335808
-0.440510 0.200409 -0.334559
-0.441401 0.200409 -0.333311
-0.441557 0.199778 -0.331550
-0.442449 0.199778 -0.330300
-0.443341 0.199778 -0.329050
-0.443499 0.199147 -0.327285
-0.444391 0.199147 -0.326034
-0.445284 0.199147 -0.324784
-0.446176 0.199147 -0.323533
-0.446337 0.198514 -0.321762
-0.446497 0.197881 -0.319987
-0.446658 0.197246 -0.318210
-0.446819 0.196610 -0.316431
-0.447714 0.196610 -0.315176
-0.447876 0.195974 -0.313392
-0.448038 0.195336 -0.311606
-0.448935 0.195336 -0.310349
-0.449098 0.194697 -0.308558
-0.449262 0.194058 -0.306765
-0.449425 0.193417 -0.304969
-0.450324 0.193417 -0.303709
-0.450489 0.192775 -0.301909
-0.450654 0.192132 -0.300106
-0.450819 0.191488 -0.298299
-0.451720 0.191488 -0.297037
-0.451887 0.190843 -0.295227
-0.452053 0.190197 -0.293414
-0.452220 0.189550 -0.291598
-0.453123 0.189550 -0.290332
-0.453291 0.188902 -0.288512
-0.453459 0.188253 -0.286689
-0.454364 0.188253 -0.285421
-0.453058 0.186299 -0.282474
-0.453226 0.185646 -0.280640
-0.452654 0.184336 -0.278238
-0.452080 0.183022 -0.275828
-0.451505 0.181703 -0.273410
-0.450927 0.180380 -0.270984
-0.450348 0.179053 -0.268550
-0.450516 0.178387 -0.266689
-0.449934 0.177054 -0.264242
-0.449351 0.175715 -0.261787
-0.448765 0.174373 -0.259323
-0.448178 0.173025 -0.256852
-0.443788 0.168275 -0.251387
-0.438574 0.162777 -0.245249
-0.406724 0.133400 -0.218042
-0.406863 0.132657 -0.216031
-0.407002 0.131913 -0.214016
-0.407142 0.131168 -0.211998
-0.407282 0.130421 -0.209976
-0.407422 0.129673 -0.207951
-0.407563 0.128924 -0.205922
-0.407703 0.128173 -0.203890
-0.407844 0.127422 -0.201854
-0.407985 0.126668 -0.199814
-0.408127 0.125914 -0.197771
-0.408268 0.125158 -0.195724
-0.407574 0.123642 -0.192991
-0.407715 0.122883 -0.190935
-0.407857 0.122121 -0.188875
-0.407999 0.121359 -0.186811
-0.407301 0.119830 -0.184050
-0.407443 0.119063 -0.181976
-0.407585 0.118295 -0.179899
-0.406884 0.116755 -0.177116
-0.407026 0.115983 -0.175029
-0.406323 0.114435 -0.172230
-0.406464 0.113659 -0.170133
-0.406607 0.112881 -0.168032
-0.405899 0.111322 -0.165210
-0.406042 0.110541 -0.163100
-0.405331 0.108973 -0.160261
-0.405473 0.108187 -0.158141
-0.404760 0.106611 -0.155286
-0.404902 0.105821 -0.153155
-0.404186 0.104236 -0.150283
-0.404328 0.103442 -0.148142
-0.403609 0.101849 -0.145254
-0.403750 0.101050 -0.143102
-0.403028 0.099448 -0.140197
-0.403170 0.098645 -0.138035
-0.402445 0.097034 -0.135112
-0.402586 0.096227 -0.132940
-0.401858 0.094608 -0.130000
-0.401999 0.093796 -0.127817
-0.400394 0.091351 -0.124088
-0.400534 0.090533 -0.121892
-0.399798 0.088893 -0.118913
-0.399059 0.087247 -0.115924
-0.398317 0.085595 -0.112923
-0.397573 0.083937 -0.109911
-0.397711 0.083105 -0.107683
-0.396964 0.081438 -0.104653
-0.396213 0.079764 -0.101612
-0.395460 0.078084 -0.098560
-0.394704 0.076398 -0.095496
-0.393945 0.074706 -0.092421
-0.393183 0.073007 -0.089335
-0.392419 0.071302 -0.086237
-0.391651 0.069590 -0.083127
-0.390881 0.067873 -0.080006
-0.389198 0.065284 -0.076034
-0.388419 0.063550 -0.072884
-0.386721 0.060936 -0.068873
-0.385013 0.058308 -0.064840
-0.383296 0.055665 -0.060783
-0.382498 0.053894 -0.057571
-0.380765 0.051226 -0.053474
-0.378084 0.047644 -0.048472
-0.376327 0.044940 -0.044321
-0.374560 0.042220 -0.040147
-0.372782 0.039484 -0.035948
-0.359379 0.025564 -0.020689
0.203630 -0.106759 -0.492386
0.195471 -0.101913 -0.492776
0.187385 -0.097110 -0.493163
0.181061 -0.093535 -0.493023
0.174779 -0.089984 -0.492883
0.165208 -0.084117 -0.493785
0.159033 -0.080627 -0.493644
0.152897 -0.077160 -0.493504
0.146801 -0.073715 -0.493366
0.140745 -0.070293 -0.493228
0.133127 -0.065764 -0.493601
0.127159 -0.062393 -0.493464
0.122807 -0.060157 -0.492819
0.116905 -0.056822 -0.492685
0.109485 -0.052408 -0.493056
0.103668 -0.049121 -0.492922
0.096358 -0.044772 -0.493289
0.090624 -0.041534 -0.493155
0.084927 -0.038316 -0.493022
0.079265 -0.035118 -0.492890
0.073639 -0.031940 -0.492759
0.068048 -0.028782 -0.492628
0.062491 -0.025643 -0.492498
0.056968 -0.022524 -0.492369
0.051479 -0.019424 -0.492241
0.046024 -0.016343 -0.492113
0.040602 -0.013280 -0.491987
0.035214 -0.010237 -0.491861
0.029858 -0.007212 -0.491736
0.023140 -0.003206 -0.492093
0.017858 -0.000224 -0.491968
0.012608 0.002741 -0.491844
0.007389 0.005688 -0.491720
0.002202 0.008617 -0.491598
-0.004299 0.012496 -0.491950
-0.009416 0.015385 -0.491828
-0.015827 0.019210 -0.492177
-0.020875 0.022060 -0.492054
-0.025893 0.024892 -0.491933
-0.030881 0.027708 -0.491812
-0.035841 0.030507 -0.491691
-0.040772 0.033291 -0.491572
-0.045674 0.036058 -0.491453
-0.050547 0.038809 -0.491335
-0.055393 0.041544 -0.491217
-0.061455 0.045166 -0.491559
-0.066237 0.047864 -0.491442
-0.070991 0.050547 -0.491325
-0.075718 0.053215 -0.491209
-0.080419 0.055868 -0.491094
-0.085092 0.058506 -0.490979
-0.089740 0.061128 -0.490865
-0.094361 0.063736 -0.490752
-0.098956 0.066329 -0.490639
-0.103525 0.068908 -0.490527
-0.108069 0.071472 -0.490415
-0.112588 0.074022 -0.490305
-0.117081 0.076558 -0.490194
-0.121550 0.079080 -0.490085
-0.125993 0.081587 -0.489976
-0.130412 0.084081 -0.489867
-0.135928 0.087385 -0.490199
-0.139178 0.089028 -0.489652
-0.144632 0.092296 -0.489983
-0.148948 0.094731 -0.489876
-0.153241 0.097153 -0.489769
-0.157510 0.099562 -0.489663
-0.161757 0.101958 -0.489557
-0.165980 0.104341 -0.489453
-0.170181 0.106711 -0.489348
-0.173300 0.108285 -0.488815
-0.177463 0.110634 -0.488713
-0.181603 0.112970 -0.488611
-0.185722 0.115294 -0.488510
-0.189818 0.117606 -0.488409
-0.193893 0.119905 -0.488309
-0.197946 0.122193 -0.488210
-0.201978 0.124468 -0.488111
-0.204978 0.125978 -0.487590
-0.208974 0.128234 -0.487493
-0.212949 0.130478 -0.487397
-0.216903 0.132709 -0.487301
-0.220837 0.134930 -0.487206
-0.224750 0.137139 -0.487111
-0.228643 0.139336 -0.487017
-0.232515 0.141522 -0.486923
-0.235404 0.142973 -0.486414
-0.239243 0.145140 -0.486322
-0.242108 0.146579 -0.485817
-0.244964 0.148013 -0.485314
-0.247809 0.149442 -0.484812
-0.251587 0.151576 -0.484725
-0.254409 0.152993 -0.484227
-0.257222 0.154405 -0.483730
-0.260025 0.155812 -0.483235
-0.263744 0.157914 -0.483152
-0.267443 0.160005 -0.483070
-0.270210 0.161393 -0.482579
-0.272968 0.162777 -0.482090
-0.274809 0.163467 -0.481194
-0.276647 0.164156 -0.480299
-0.278482 0.164844 -0.479405
-0.280314 0.165530 -0.478513
-0.282143 0.166216 -0.477623
-0.284865 0.167583 -0.477145
-0.286686 0.168265 -0.476257
-0.288503 0.168946 -0.475372
-0.290318 0.169626 -0.474488
-0.293015 0.170982 -0.474017
-0.294821 0.171659 -0.473136
-0.296625 0.172334 -0.472256
-0.298425 0.173008 -0.471378
-0.300222 0.173681 -0.470502
-0.302016 0.174353 -0.469627
-0.303808 0.175024 -0.468753
-0.306465 0.176362 -0.468295
-0.308248 0.177030 -0.467424
-0.310028 0.177696 -0.466556
-0.311806 0.178362 -0.465688
-0.312720 0.178362 -0.464406
-0.314494 0.179026 -0.463541
-0.316265 0.179689 -0.462678
-0.318033 0.180351 -0.461815
-0.319798 0.181012 -0.460955
-0.321560 0.181672 -0.460095
-0.323319 0.182331 -0.459237
-0.325076 0.182988 -0.458381
-0.326829 0.183645 -0.457525
-0.327738 0.183645 -0.456252
-0.329488 0.184301 -0.455399
-0.331234 0.184955 -0.454548
-0.332142 0.184955 -0.453277
-0.334720 0.186261 -0.452850
-0.336459 0.186912 -0.452002
-0.337363 0.186912 -0.450734
-0.339098 0.187562 -0.449889
-0.340830 0.188212 -0.449046
-0.341734 0.188212 -0.447780
-0.343462 0.188860 -0.446939
-0.345188 0.189507 -0.446099
-0.346911 0.190153 -0.445261
-0.347812 0.190153 -0.443998
-0.349532 0.190798 -0.443162
-0.351248 0.191442 -0.442328
-0.352148 0.191442 -0.441067
-0.353861 0.192085 -0.440235
-0.355572 0.192726 -0.439404
-0.356470 0.192726 -0.438145
-0.357369 0.192726 -0.436886
-0.359075 0.193367 -0.436059
-0.359972 0.193367 -0.434801
-0.361675 0.194007 -0.433976
-0.362572 0.194007 -0.432719
-0.364271 0.194646 -0.431896
-0.365167 0.194646 -0.430640
-0.366863 0.195284 -0.429820
-0.367759 0.195284 -0.428565
-0.369451 0.195920 -0.427747
-0.371140 0.196556 -0.426930
-0.372034 0.196556 -0.425677
-0.373721 0.197191 -0.424863
-0.374614 0.197191 -0.423611
-0.376297 0.197824 -0.422799
-0.377189 0.197824 -0.421548
-0.378082 0.197824 -0.420297
-0.379760 0.198457 -0.419488
-0.380652 0.198457 -0.418239
-0.381544 0.198457 -0.416989
-0.383219 0.199088 -0.416183
-0.384110 0.199088 -0.414935
-0.385001 0.199088 -0.413686
-0.385892 0.199088 -0.412437
-0.386783 0.199088 -0.411188
-0.388452 0.199719 -0.410388
-0.389343 0.199719 -0.409140
-0.390233 0.199719 -0.407892
-0.391124 0.199719 -0.406645
-0.392788 0.200349 -0.405849
-0.393678 0.200349 -0.404602
-0.394567 0.200349 -0.403355
-0.396227 0.200977 -0.402563
-0.397116 0.200977 -0.401317
-0.398005 0.200977 -0.400071
-0.398894 0.200977 -0.398825
-0.400550 0.201605 -0.398037
-0.401438 0.201605 -0.396792
-0.402326 0.201605 -0.395547
-0.403215 0.201605 -0.394302
-0.404103 0.201605 -0.393058
-0.405753 0.202231 -0.392274
-0.406640 0.202231 -0.391031
-0.407528 0.202231 -0.389787
-0.408416 0.202231 -0.388543
-0.409303 0.202231 -0.387299
-0.410191 0.202231 -0.386056
-0.411078 0.202231 -0.384812
-0.412721 0.202857 -0.384036
-0.413608 0.202857 -0.382793
-0.414495 0.202857 -0.381550
-0.415382 0.202857 -0.380307
-0.416269 0.202857 -0.379065
-0.417156 0.202857 -0.377822
-0.418043 0.202857 -0.376579
-0.418930 0.202857 -0.375336
-0.419817 0.202857 -0.374093
-0.420704 0.202857 -0.372851
-0.421590 0.202857 -0.371608
-0.422477 0.202857 -0.370365
-0.423364 0.202857 -0.369122
-0.424251 0.202857 -0.367879
-0.425138 0.202857 -0.366637
-0.425280 0.202231 -0.364911
-0.426168 0.202231 -0.363667
-0.427056 0.202231 -0.362424
-0.427943 0.202231 -0.361180
-0.428831 0.202231 -0.359936
-0.429719 0.202231 -0.358692
-0.430606 0.202231 -0.357448
-0.431494 0.202231 -0.356205
-0.431641 0.201605 -0.354469
-0.432530 0.201605 -0.353225
-0.433418 0.201605 -0.351980
-0.434306 0.201605 -0.350735
-0.435195 0.201605 -0.349490
-0.436083 0.201605 -0.348245
-0.436971 0.201605 -0.347001
-0.437123 0.200977 -0.345257
-0.438012 0.200977 -0.344011
-0.438165 0.200349 -0.342263
-0.439055 0.200349 -0.341016
-0.439945 0.200349 -0.339770
-0.440099 0.199719 -0.338017
-0.440990 0.199719 -0.336769
-0.441880 0.199719 -0.335522
-0.442771 0.199719 -0.334274
-0.442928 0.199088 -0.332515
-0.443819 0.199088 -0.331267
-0.443977 0.198457 -0.329504
-0.444869 0.198457 -0.328255
-0.445761 0.198457 -0.327005
-0.445920 0.197824 -0.325238
-0.446813 0.197824 -0.323987
-0.446974 0.197191 -0.322216
-0.447867 0.197191 -0.320964
-0.447296 0.195920 -0.318666
-0.448191 0.195920 -0.317412
-0.448353 0.195284 -0.315632
-0.449248 0.195284 -0.314377
-0.449411 0.194646 -0.312593
-0.449575 0.194007 -0.310805
-0.450472 0.194007 -0.309548
-0.450636 0.193367 -0.307757
-0.450801 0.192726 -0.305963
-0.450966 0.192085 -0.304167
-0.451865 0.192085 -0.302907
-0.452031 0.191442 -0.301106
-0.452197 0.190798 -0.299302
-0.452363 0.190153 -0.297495
-0.453265 0.190153 -0.296232
-0.453432 0.189507 -0.294422
-0.453600 0.188860 -0.292608
-0.453768 0.188212 -0.290792
-0.454671 0.188212 -0.289526
-0.454840 0.187562 -0.287705
-0.455745 0.187562 -0.286438
-0.455179 0.186261 -0.284055
-0.454612 0.184955 -0.281664
-0.454043 0.183645 -0.279266
-0.453472 0.182331 -0.276860
-0.452899 0.181012 -0.274445
-0.452324 0.179689 -0.272023
-0.452493 0.179026 -0.270169
-0.451916 0.177696 -0.267734
-0.451338 0.176362 -0.265290
-0.450757 0.175024 -0.262839
-0.450175 0.173681 -0.260380
-0.449590 0.172334 -0.257912
-0.447491 0.169626 -0.254248
-0.441551 0.163467 -0.247545
-0.407414 0.131967 -0.218535
-0.407554 0.131223 -0.216524
-0.407694 0.130478 -0.214510
-0.407834 0.129731 -0.212492
-0.407974 0.128983 -0.210470
-0.408115 0.128234 -0.208446
-0.408256 0.127483 -0.206417
-0.408397 0.126732 -0.204385
-0.408539 0.125978 -0.202350
-0.408681 0.125224 -0.200310
-0.408823 0.124468 -0.198268
-0.408130 0.122953 -0.195541
-0.408272 0.122193 -0.193489
-0.408414 0.121432 -0.191433
-0.408556 0.120669 -0.189373
-0.407860 0.119140 -0.186619
-0.408002 0.118374 -0.184550
-0.408145 0.117606 -0.182477
-0.407445 0.116066 -0.179701
-0.407588 0.115294 -0.177618
-0.406886 0.113746 -0.174825
-0.407028 0.112970 -0.172733
-0.406323 0.111414 -0.169924
-0.406465 0.110634 -0.167822
-0.405757 0.109069 -0.164997
-0.405899 0.108285 -0.162884
-0.405188 0.106711 -0.160043
-0.405330 0.105923 -0.157920
-0.404616 0.104341 -0.155062
-0.404758 0.103548 -0.152929
-0.404041 0.101958 -0.150055
-0.404182 0.101161 -0.147911
-0.403463 0.099562 -0.145020
-0.403604 0.098761 -0.142866
-0.402881 0.097153 -0.139958
-0.403023 0.096348 -0.137794
-0.402297 0.094731 -0.134868
-0.402438 0.093921 -0.132693
-0.401709 0.092296 -0.129751
-0.401850 0.091481 -0.127565
-0.400243 0.089028 -0.123833
-0.400383 0.088207 -0.121634
-0.399646 0.086562 -0.118652
-0.398906 0.084910 -0.115659
-0.399046 0.084081 -0.113443
-0.398302 0.082420 -0.110432
-0.397556 0.080753 -0.107410
-0.396808 0.079080 -0.104377
-0.396056 0.077400 -0.101332
-0.395302 0.075714 -0.098277
-0.394545 0.074022 -0.095210
-0.393785 0.072324 -0.092131
-0.393022 0.070619 -0.089041
-0.392257 0.068908 -0.085940
-0.391488 0.067190 -0.082827
-0.390717 0.065467 -0.079702
-0.389032 0.062868 -0.075725
-0.388252 0.061128 -0.072572
-0.386552 0.058506 -0.068557
-0.384842 0.055868 -0.064518
-0.383123 0.053215 -0.060456
-0.381393 0.050547 -0.056372
-0.379654 0.047864 -0.052263
-0.377905 0.045166 -0.048131
-0.376145 0.042452 -0.043976
-0.374376 0.039722 -0.039796
-0.366843 0.031437 -0.030140
-0.336106 0.000766 0.001611
0.204487 -0.109813 -0.492484
0.196316 -0.104948 -0.492874
0.189928 -0.101328 -0.492734
0.183582 -0.097731 -0.492595
0.175592 -0.092972 -0.492981
0.169342 -0.089431 -0.492842
0.159821 -0.083579 -0.493742
0.153676 -0.080099 -0.493602
0.147571 -0.076641 -0.493462
0.141506 -0.073206 -0.493324
0.135479 -0.069792 -0.493186
0.127900 -0.065275 -0.493559
0.123542 -0.063031 -0.492914
0.117631 -0.059683 -0.492779
0.111757 -0.056356 -0.492645
0.104374 -0.051953 -0.493016
0.098586 -0.048676 -0.492882
0.091312 -0.044337 -0.493249
0.085607 -0.041107 -0.493115
0.079937 -0.037897 -0.492983
0.074303 -0.034707 -0.492851
0.068704 -0.031537 -0.492720
0.063139 -0.028387 -0.492589
0.057608 -0.025256 -0.492460
0.052112 -0.022144 -0.492331
0.046649 -0.019051 -0.492203
0.041220 -0.015978 -0.492076
0.035824 -0.012923 -0.491950
0.030461 -0.009886 -0.491824
0.025130 -0.006868 -0.491700
0.019831 -0.003868 -0.491576
0.013188 0.000103 -0.491932
0.007962 0.003061 -0.491808
0.002768 0.006001 -0.491685
-0.003742 0.009894 -0.492037
-0.008866 0.012794 -0.491915
-0.015285 0.016633 -0.492264
-0.020339 0.019493 -0.492141
-0.025364 0.022335 -0.492019
-0.030359 0.025161 -0.491897
-0.035325 0.027971 -0.491777
-0.040262 0.030764 -0.491657
-0.045170 0.033541 -0.491538
-0.050050 0.036302 -0.491419
-0.054901 0.039047 -0.491301
-0.059725 0.041776 -0.491184
-0.064521 0.044490 -0.491068
-0.070519 0.048084 -0.491409
-0.075252 0.050761 -0.491292
-0.079958 0.053423 -0.491177
-0.084638 0.056070 -0.491062
-0.089291 0.058702 -0.490947
-0.093918 0.061319 -0.490833
-0.098518 0.063922 -0.490720
-0.103093 0.066510 -0.490608
-0.107642 0.069083 -0.490496
-0.112166 0.071642 -0.490385
-0.116665 0.074187 -0.490274
-0.121139 0.076717 -0.490164
-0.125588 0.079234 -0.490055
-0.130012 0.081737 -0.489946
-0.134412 0.084226 -0.489838
-0.138788 0.086701 -0.489730
-0.144248 0.089980 -0.490061
-0.148569 0.092424 -0.489954
-0.152867 0.094855 -0.489847
-0.157141 0.097272 -0.489740
-0.161392 0.099676 -0.489635
-0.165621 0.102068 -0.489529
-0.169826 0.104446 -0.489425
-0.172949 0.106024 -0.488891
-0.177116 0.108382 -0.488788
-0.181261 0.110726 -0.488686
-0.185384 0.113059 -0.488585
-0.189485 0.115378 -0.488484
-0.193564 0.117686 -0.488384
-0.197622 0.119981 -0.488284
-0.201658 0.122264 -0.488185
-0.204662 0.123780 -0.487664
-0.208662 0.126043 -0.487567
-0.212641 0.128294 -0.487470
