ply
format ascii 1.0
element vertex 1610
property float x
property float y
property float z
end_header
-0.174150 -0.098964 0.034722
-0.172826 -0.097092 0.038479
-0.170241 -0.094269 0.043323
-0.167640 -0.091429 0.048197
-0.161202 -0.085693 0.056377
-0.152090 -0.077930 0.066889
0.272966 -0.067828 -0.491213
0.264674 -0.071820 -0.491600
0.258202 -0.074792 -0.491467
0.250037 -0.078725 -0.491850
0.241942 -0.082624 -0.492231
0.233917 -0.086489 -0.492607
0.225959 -0.090322 -0.492981
0.218069 -0.094122 -0.493351
0.211902 -0.096951 -0.493216
0.205774 -0.099762 -0.493082
0.199684 -0.102556 -0.492948
0.193633 -0.105332 -0.492815
0.186009 -0.109006 -0.493180
0.180044 -0.111742 -0.493048
0.172531 -0.115363 -0.493409
0.166651 -0.118059 -0.493277
0.160808 -0.120739 -0.493146
0.155000 -0.123402 -0.493015
0.147689 -0.126927 -0.493372
0.141963 -0.129553 -0.493241
0.136271 -0.132162 -0.493112
0.130614 -0.134756 -0.492983
0.124991 -0.137333 -0.492855
0.117918 -0.140746 -0.493206
0.112373 -0.143288 -0.493079
0.106861 -0.145815 -0.492952
0.101381 -0.148326 -0.492825
0.094493 -0.151652 -0.493172
0.089089 -0.154128 -0.493046
0.083716 -0.156591 -0.492921
0.076965 -0.159851 -0.493265
0.071665 -0.162279 -0.493139
0.066395 -0.164694 -0.493015
0.062539 -0.166295 -0.492427
0.058697 -0.167891 -0.491841
0.056243 -0.168686 -0.490794
0.053793 -0.169480 -0.489748
0.049983 -0.171063 -0.489170
0.047546 -0.171852 -0.488128
0.046472 -0.171852 -0.486622
0.044041 -0.172640 -0.485584
0.041614 -0.173426 -0.484549
0.039193 -0.174211 -0.483515
0.038121 -0.174211 -0.482013
0.037049 -0.174211 -0.480511
0.034635 -0.174994 -0.479483
0.033564 -0.174994 -0.477982
0.031155 -0.175776 -0.476957
0.030085 -0.175776 -0.475458
0.029016 -0.175776 -0.473959
0.026613 -0.176556 -0.472939
0.025545 -0.176556 -0.471441
0.024476 -0.176556 -0.469944
0.022080 -0.177335 -0.468928
0.021013 -0.177335 -0.467432
0.018622 -0.178112 -0.466420
0.017556 -0.178112 -0.464925
0.016489 -0.178112 -0.463431
0.014106 -0.178888 -0.462423
0.013040 -0.178888 -0.460930
0.010662 -0.179662 -0.459926
0.009598 -0.179662 -0.458434
0.008534 -0.179662 -0.456943
0.006162 -0.180435 -0.455943
0.005099 -0.180435 -0.454453
0.004035 -0.180435 -0.452963
0.001670 -0.181206 -0.451968
0.000608 -0.181206 -0.450480
-0.000454 -0.181206 -0.448991
-0.002813 -0.181976 -0.448001
-0.003874 -0.181976 -0.446514
-0.006227 -0.182744 -0.445527
-0.007287 -0.182744 -0.444041
-0.008348 -0.182744 -0.442555
-0.010694 -0.183511 -0.441573
-0.011753 -0.183511 -0.440089
-0.014094 -0.184276 -0.439110
-0.015153 -0.184276 -0.437627
-0.016211 -0.184276 -0.436144
-0.018545 -0.185040 -0.435170
-0.019603 -0.185040 -0.433688
-0.020660 -0.185040 -0.432207
-0.022988 -0.185802 -0.431237
-0.024044 -0.185802 -0.429757
-0.025101 -0.185802 -0.428277
-0.027422 -0.186564 -0.427312
-0.028477 -0.186564 -0.425833
-0.029533 -0.186564 -0.424355
-0.031848 -0.187323 -0.423395
-0.032902 -0.187323 -0.421917
-0.033957 -0.187323 -0.420440
-0.035011 -0.187323 -0.418962
-0.036065 -0.187323 -0.417485
-0.037120 -0.187323 -0.416007
-0.039425 -0.188081 -0.415056
-0.040479 -0.188081 -0.413580
-0.041532 -0.188081 -0.412104
-0.043831 -0.188838 -0.411157
-0.044884 -0.188838 -0.409683
-0.045936 -0.188838 -0.408208
-0.046988 -0.188838 -0.406733
-0.049280 -0.189593 -0.405793
-0.050332 -0.189593 -0.404320
-0.051383 -0.189593 -0.402846
-0.053669 -0.190347 -0.401910
-0.054719 -0.190347 -0.400438
-0.055769 -0.190347 -0.398967
-0.056820 -0.190347 -0.397495
-0.059098 -0.191099 -0.396565
-0.060148 -0.191099 -0.395094
-0.062421 -0.191850 -0.394167
-0.063469 -0.191850 -0.392698
-0.064517 -0.191850 -0.391229
-0.066784 -0.192600 -0.390307
-0.067832 -0.192600 -0.388839
-0.068879 -0.192600 -0.387371
-0.069926 -0.192600 -0.385903
-0.072186 -0.193348 -0.384987
-0.073232 -0.193348 -0.383521
-0.074279 -0.193348 -0.382054
-0.076532 -0.194095 -0.381142
-0.077578 -0.194095 -0.379677
-0.078623 -0.194095 -0.378212
-0.079668 -0.194095 -0.376747
-0.079511 -0.193348 -0.374723
-0.079353 -0.192600 -0.372694
-0.081604 -0.193348 -0.371790
-0.082650 -0.193348 -0.370324
-0.084896 -0.194095 -0.369423
-0.085941 -0.194095 -0.367958
-0.088181 -0.194840 -0.367060
-0.089226 -0.194840 -0.365596
-0.090270 -0.194840 -0.364133
-0.092504 -0.195584 -0.363239
-0.093548 -0.195584 -0.361777
-0.095777 -0.196327 -0.360886
-0.096819 -0.196327 -0.359426
-0.097862 -0.196327 -0.357965
-0.098904 -0.196327 -0.356504
-0.101126 -0.197068 -0.355619
-0.102168 -0.197068 -0.354160
-0.103209 -0.197068 -0.352700
-0.104251 -0.197068 -0.351241
-0.106465 -0.197808 -0.350362
-0.107506 -0.197808 -0.348904
-0.108546 -0.197808 -0.347446
-0.109587 -0.197808 -0.345988
-0.111795 -0.198546 -0.345114
-0.112834 -0.198546 -0.343658
-0.113874 -0.198546 -0.342201
-0.114913 -0.198546 -0.340744
-0.117114 -0.199283 -0.339877
-0.118153 -0.199283 -0.338421
-0.119191 -0.199283 -0.336966
-0.120230 -0.199283 -0.335511
-0.121268 -0.199283 -0.334055
-0.122307 -0.199283 -0.332600
-0.123346 -0.199283 -0.331145
-0.124384 -0.199283 -0.329689
-0.125423 -0.199283 -0.328234
-0.126461 -0.199283 -0.326779
-0.127500 -0.199283 -0.325323
-0.128539 -0.199283 -0.323868
-0.130724 -0.200019 -0.323017
-0.131762 -0.200019 -0.321563
-0.132800 -0.200019 -0.320109
-0.133837 -0.200019 -0.318655
-0.134875 -0.200019 -0.317201
-0.135913 -0.200019 -0.315747
-0.136950 -0.200019 -0.314293
-0.137988 -0.200019 -0.312839
-0.139025 -0.200019 -0.311385
-0.140063 -0.200019 -0.309931
-0.141101 -0.200019 -0.308477
-0.142138 -0.200019 -0.307023
-0.143176 -0.200019 -0.305569
-0.144214 -0.200019 -0.304115
-0.145251 -0.200019 -0.302661
-0.145156 -0.199283 -0.300582
-0.146195 -0.199283 -0.299127
-0.147233 -0.199283 -0.297672
-0.148272 -0.199283 -0.296216
-0.149311 -0.199283 -0.294761
-0.150349 -0.199283 -0.293306
-0.151388 -0.199283 -0.291850
-0.152426 -0.199283 -0.290395
-0.153465 -0.199283 -0.288940
-0.154504 -0.199283 -0.287484
-0.155542 -0.199283 -0.286029
-0.156581 -0.199283 -0.284574
-0.157619 -0.199283 -0.283118
-0.158658 -0.199283 -0.281663
-0.159697 -0.199283 -0.280207
-0.160735 -0.199283 -0.278752
-0.160655 -0.198546 -0.276649
-0.161694 -0.198546 -0.275192
-0.162734 -0.198546 -0.273736
-0.163773 -0.198546 -0.272279
-0.164813 -0.198546 -0.270822
-0.165852 -0.198546 -0.269366
-0.166892 -0.198546 -0.267909
-0.169044 -0.199283 -0.267109
-0.168971 -0.198546 -0.264995
-0.170011 -0.198546 -0.263539
-0.171050 -0.198546 -0.262082
-0.172090 -0.198546 -0.260625
-0.173129 -0.198546 -0.259169
-0.174169 -0.198546 -0.257712
-0.175209 -0.198546 -0.256255
-0.176248 -0.198546 -0.254798
-0.177288 -0.198546 -0.253342
-0.177223 -0.197808 -0.251213
-0.178263 -0.197808 -0.249755
-0.179304 -0.197808 -0.248297
-0.179240 -0.197068 -0.246161
-0.180282 -0.197068 -0.244702
-0.181323 -0.197068 -0.243242
-0.182365 -0.197068 -0.241783
-0.182304 -0.196327 -0.239639
-0.183347 -0.196327 -0.238178
-0.182183 -0.194840 -0.235340
-0.183227 -0.194840 -0.233876
-0.183167 -0.194095 -0.231719
-0.184213 -0.194095 -0.230254
-0.185258 -0.194095 -0.228789
-0.186303 -0.194095 -0.227324
-0.187349 -0.194095 -0.225859
-0.187293 -0.193348 -0.223693
-0.188339 -0.193348 -0.222226
-0.189386 -0.193348 -0.220760
-0.189331 -0.192600 -0.218586
-0.190379 -0.192600 -0.217119
-0.190325 -0.191850 -0.214939
-0.191374 -0.191850 -0.213470
-0.191321 -0.191099 -0.211286
-0.192371 -0.191099 -0.209815
-0.192319 -0.190347 -0.207625
-0.192267 -0.189593 -0.205431
-0.193319 -0.189593 -0.203958
-0.194370 -0.189593 -0.202485
-0.194320 -0.188838 -0.200283
-0.195373 -0.188838 -0.198809
-0.195324 -0.188081 -0.196602
-0.196377 -0.188081 -0.195126
-0.196329 -0.187323 -0.192914
-0.197384 -0.187323 -0.191436
-0.197336 -0.186564 -0.189218
-0.198392 -0.186564 -0.187739
-0.198346 -0.185802 -0.185516
-0.199402 -0.185802 -0.184035
-0.199357 -0.185040 -0.181806
-0.200414 -0.185040 -0.180325
-0.200370 -0.184276 -0.178090
-0.200325 -0.183511 -0.175851
-0.201385 -0.183511 -0.174366
-0.202444 -0.183511 -0.172882
-0.202402 -0.182744 -0.170635
-0.203462 -0.182744 -0.169149
-0.203421 -0.181976 -0.166898
-0.204482 -0.181976 -0.165410
-0.204441 -0.181206 -0.163153
-0.205504 -0.181206 -0.161664
-0.205464 -0.180435 -0.159400
-0.206528 -0.180435 -0.157910
-0.206489 -0.179662 -0.155641
-0.207553 -0.179662 -0.154149
-0.207516 -0.178888 -0.151874
-0.208581 -0.178888 -0.150381
-0.209647 -0.178888 -0.148888
-0.209611 -0.178112 -0.146606
-0.209575 -0.177335 -0.144320
-0.210642 -0.177335 -0.142824
-0.210607 -0.176556 -0.140531
-0.210572 -0.175776 -0.138234
-0.210537 -0.174994 -0.135933
-0.210502 -0.174211 -0.133628
-0.210467 -0.173426 -0.131317
-0.210432 -0.172640 -0.129003
-0.210397 -0.171852 -0.126684
-0.210361 -0.171063 -0.124360
-0.210326 -0.170272 -0.122032
-0.209176 -0.168686 -0.118874
-0.208021 -0.167094 -0.115704
-0.207983 -0.166295 -0.113356
-0.209065 -0.166295 -0.111840
-0.209028 -0.165495 -0.109486
-0.207869 -0.163890 -0.106285
-0.207831 -0.163086 -0.103919
-0.206666 -0.161471 -0.100698
-0.206626 -0.160662 -0.098319
-0.205455 -0.159038 -0.095077
-0.205414 -0.158224 -0.092686
-0.205374 -0.157408 -0.090290
-0.204195 -0.155771 -0.087020
-0.204153 -0.154951 -0.084611
-0.202969 -0.153304 -0.081320
-0.202926 -0.152479 -0.078899
-0.202882 -0.151652 -0.076472
-0.201691 -0.149992 -0.073152
-0.199342 -0.147491 -0.068922
-0.198138 -0.145815 -0.065570
-0.198089 -0.144974 -0.063111
-0.196879 -0.143288 -0.059737
-0.196829 -0.142443 -0.057265
-0.195612 -0.140746 -0.053869
-0.194391 -0.139043 -0.050460
-0.194338 -0.138189 -0.047966
-0.193110 -0.136476 -0.044534
-0.193056 -0.135617 -0.042027
-0.191822 -0.133893 -0.038573
-0.190583 -0.132162 -0.035105
-0.190526 -0.131294 -0.032575
-0.189281 -0.129553 -0.029084
-0.189222 -0.128679 -0.026540
-0.187970 -0.126927 -0.023027
-0.186713 -0.125168 -0.019498
-0.185451 -0.123402 -0.015956
-0.184184 -0.121628 -0.012398
-0.182911 -0.119847 -0.008826
-0.182845 -0.118954 -0.006233
-0.181566 -0.117162 -0.002637
-0.180282 -0.115363 0.000973
-0.180213 -0.114460 0.003590
-0.178921 -0.112650 0.007225
-0.177625 -0.110832 0.010874
-0.176323 -0.109006 0.014539
-0.176249 -0.108090 0.017190
-0.174940 -0.106253 0.020879
-0.174865 -0.105332 0.023544
-0.172305 -0.102556 0.028305
-0.170980 -0.100695 0.032042
-0.169649 -0.098827 0.035794
-0.169567 -0.097890 0.038497
-0.166969 -0.095067 0.043345
-0.164355 -0.092226 0.048225
-0.156606 -0.085526 0.057511
0.265535 -0.073608 -0.490986
0.257312 -0.077559 -0.491372
0.249159 -0.081475 -0.491756
0.241077 -0.085358 -0.492136
0.233063 -0.089208 -0.492513
0.226802 -0.092074 -0.492379
0.218909 -0.095866 -0.492752
0.211082 -0.099627 -0.493122
0.204963 -0.102427 -0.492988
0.198882 -0.105209 -0.492855
0.191220 -0.108892 -0.493221
0.185227 -0.111633 -0.493088
0.177677 -0.115262 -0.493450
0.171769 -0.117965 -0.493317
0.165897 -0.120650 -0.493185
0.160062 -0.123319 -0.493054
0.154262 -0.125971 -0.492924
0.146962 -0.129483 -0.493281
0.141243 -0.132098 -0.493151
0.135560 -0.134697 -0.493021
0.129910 -0.137280 -0.492893
0.122804 -0.140700 -0.493245
0.117233 -0.143247 -0.493117
0.111695 -0.145779 -0.492990
0.106190 -0.148295 -0.492863
0.099270 -0.151627 -0.493211
0.092404 -0.154933 -0.493556
0.088442 -0.156576 -0.492959
0.081660 -0.159843 -0.493303
0.076335 -0.162276 -0.493177
0.071042 -0.164695 -0.493052
0.065779 -0.167100 -0.492928
0.063311 -0.167899 -0.491876
0.059468 -0.169491 -0.491292
0.057012 -0.170285 -0.490244
0.054562 -0.171077 -0.489199
0.052116 -0.171868 -0.488156
0.049675 -0.172657 -0.487114
0.047238 -0.173445 -0.486075
0.046163 -0.173445 -0.484569
0.043733 -0.174231 -0.483533
0.041307 -0.175016 -0.482499
0.040234 -0.175016 -0.480996
0.037814 -0.175799 -0.479966
0.036742 -0.175799 -0.478464
0.035671 -0.175799 -0.476963
0.033257 -0.176581 -0.475937
0.032186 -0.176581 -0.474437
0.031116 -0.176581 -0.472937
0.028709 -0.177361 -0.471916
0.027639 -0.177361 -0.470417
0.025238 -0.178139 -0.469400
0.024170 -0.178139 -0.467903
0.023101 -0.178139 -0.466405
0.020707 -0.178917 -0.465393
0.019639 -0.178917 -0.463897
0.018572 -0.178917 -0.462401
0.016184 -0.179692 -0.461394
0.015117 -0.179692 -0.459899
0.012735 -0.180466 -0.458895
0.011669 -0.180466 -0.457402
0.010604 -0.180466 -0.455909
0.008228 -0.181239 -0.454909
0.007164 -0.181239 -0.453418
0.006099 -0.181239 -0.451926
0.003730 -0.182010 -0.450932
0.002667 -0.182010 -0.449441
0.000303 -0.182780 -0.448450
-0.000759 -0.182780 -0.446961
-0.001821 -0.182780 -0.445473
-0.004178 -0.183548 -0.444486
-0.005240 -0.183548 -0.442999
-0.006301 -0.183548 -0.441511
-0.008652 -0.184315 -0.440529
-0.009712 -0.184315 -0.439044
-0.012057 -0.185080 -0.438065
-0.013116 -0.185080 -0.436581
-0.014176 -0.185080 -0.435096
-0.016514 -0.185844 -0.434122
-0.017573 -0.185844 -0.432639
-0.018631 -0.185844 -0.431156
-0.020963 -0.186607 -0.430187
-0.022020 -0.186607 -0.428705
-0.023078 -0.186607 -0.427223
-0.025403 -0.187368 -0.426259
-0.026460 -0.187368 -0.424779
-0.027516 -0.187368 -0.423298
-0.028573 -0.187368 -0.421818
-0.030891 -0.188127 -0.420860
-0.031946 -0.188127 -0.419381
-0.033001 -0.188127 -0.417902
-0.034057 -0.188127 -0.416423
-0.035112 -0.188127 -0.414944
-0.037422 -0.188885 -0.413993
-0.038476 -0.188885 -0.412516
-0.039531 -0.188885 -0.411038
-0.040585 -0.188885 -0.409561
-0.042887 -0.189642 -0.408616
-0.043941 -0.189642 -0.407140
-0.044994 -0.189642 -0.405664
-0.047290 -0.190397 -0.404723
-0.048343 -0.190397 -0.403248
-0.049395 -0.190397 -0.401774
-0.050447 -0.190397 -0.400299
-0.052736 -0.191151 -0.399365
-0.053787 -0.191151 -0.397891
-0.054839 -0.191151 -0.396418
-0.057121 -0.191903 -0.395488
-0.058171 -0.191903 -0.394016
-0.060448 -0.192654 -0.393089
-0.061498 -0.192654 -0.391619
-0.062547 -0.192654 -0.390149
-0.063597 -0.192654 -0.388678
-0.065866 -0.193404 -0.387757
-0.066915 -0.193404 -0.386288
-0.067963 -0.193404 -0.384819
-0.070227 -0.194152 -0.383903
-0.071274 -0.194152 -0.382435
-0.072322 -0.194152 -0.380967
-0.073369 -0.194152 -0.379500
-0.074416 -0.194152 -0.378032
-0.075464 -0.194152 -0.376564
-0.076511 -0.194152 -0.375096
-0.076350 -0.193404 -0.373066
-0.077399 -0.193404 -0.371597
-0.079653 -0.194152 -0.370693
-0.080701 -0.194152 -0.369226
-0.082950 -0.194899 -0.368325
-0.083997 -0.194899 -0.366858
-0.086241 -0.195644 -0.365961
-0.087286 -0.195644 -0.364496
-0.088332 -0.195644 -0.363031
-0.090570 -0.196388 -0.362137
-0.091614 -0.196388 -0.360674
-0.093847 -0.197130 -0.359784
-0.094890 -0.197130 -0.358321
-0.095934 -0.197130 -0.356859
-0.096977 -0.197130 -0.355397
-0.098021 -0.197130 -0.353935
-0.100246 -0.197872 -0.353052
-0.101288 -0.197872 -0.351591
-0.102331 -0.197872 -0.350130
-0.104549 -0.198611 -0.349251
-0.105591 -0.198611 -0.347792
-0.106632 -0.198611 -0.346332
-0.107674 -0.198611 -0.344873
-0.109885 -0.199350 -0.344000
-0.110926 -0.199350 -0.342542
-0.111966 -0.199350 -0.341084
-0.113007 -0.199350 -0.339626
-0.115211 -0.200087 -0.338758
-0.116251 -0.200087 -0.337302
-0.117291 -0.200087 -0.335845
-0.118330 -0.200087 -0.334388
-0.119370 -0.200087 -0.332932
-0.120409 -0.200087 -0.331475
-0.121449 -0.200087 -0.330018
-0.122488 -0.200087 -0.328561
-0.123528 -0.200087 -0.327105
-0.124568 -0.200087 -0.325648
-0.125607 -0.200087 -0.324191
-0.126647 -0.200087 -0.322735
-0.127686 -0.200087 -0.321278
-0.129875 -0.200822 -0.320429
-0.130914 -0.200822 -0.318973
-0.131952 -0.200822 -0.317518
-0.132991 -0.200822 -0.316063
-0.134029 -0.200822 -0.314607
-0.135068 -0.200822 -0.313152
-0.136107 -0.200822 -0.311696
-0.137145 -0.200822 -0.310241
-0.138184 -0.200822 -0.308786
-0.139222 -0.200822 -0.307330
-0.140261 -0.200822 -0.305875
-0.141300 -0.200822 -0.304420
-0.141201 -0.200087 -0.302341
-0.142240 -0.200087 -0.300884
-0.143280 -0.200087 -0.299427
-0.144319 -0.200087 -0.297971
-0.145359 -0.200087 -0.296514
-0.146399 -0.200087 -0.295057
-0.147438 -0.200087 -0.293600
-0.148478 -0.200087 -0.292144
-0.149517 -0.200087 -0.290687
-0.150557 -0.200087 -0.289230
-0.151596 -0.200087 -0.287774
-0.152636 -0.200087 -0.286317
-0.153676 -0.200087 -0.284860
-0.154715 -0.200087 -0.283403
-0.155755 -0.200087 -0.281947
-0.156794 -0.200087 -0.280490
-0.156710 -0.199350 -0.278387
-0.157750 -0.199350 -0.276929
-0.158791 -0.199350 -0.275470
-0.159832 -0.199350 -0.274012
-0.160872 -0.199350 -0.272554
-0.161913 -0.199350 -0.271096
-0.162953 -0.199350 -0.269638
-0.163994 -0.199350 -0.268180
-0.165034 -0.199350 -0.266722
-0.166075 -0.199350 -0.265264
-0.167115 -0.199350 -0.263806
-0.168156 -0.199350 -0.262348
-0.169196 -0.199350 -0.260890
-0.170237 -0.199350 -0.259432
-0.171278 -0.199350 -0.257974
-0.172318 -0.199350 -0.256516
-0.173359 -0.199350 -0.255057
-0.174399 -0.199350 -0.253599
-0.175440 -0.199350 -0.252141
-0.175373 -0.198611 -0.250009
-0.176414 -0.198611 -0.248550
-0.177456 -0.198611 -0.247090
-0.177391 -0.197872 -0.244952
-0.178433 -0.197872 -0.243491
-0.179476 -0.197872 -0.242030
-0.180518 -0.197872 -0.240569
-0.180456 -0.197130 -0.238422
-0.181499 -0.197130 -0.236960
-0.180331 -0.195644 -0.234117
-0.181376 -0.195644 -0.232652
-0.182421 -0.195644 -0.231187
-0.182361 -0.194899 -0.229025
-0.183407 -0.194899 -0.227559
-0.184453 -0.194899 -0.226092
-0.185500 -0.194899 -0.224626
-0.185442 -0.194152 -0.222456
-0.186489 -0.194152 -0.220989
-0.187537 -0.194152 -0.219521
-0.187481 -0.193404 -0.217344
-0.188529 -0.193404 -0.215875
-0.188474 -0.192654 -0.213693
-0.189523 -0.192654 -0.212222
-0.189469 -0.191903 -0.210034
-0.190519 -0.191903 -0.208562
-0.190466 -0.191151 -0.206369
-0.191517 -0.191151 -0.204896
-0.191465 -0.190397 -0.202697
-0.192517 -0.190397 -0.201222
-0.192466 -0.189642 -0.199018
-0.193519 -0.189642 -0.197542
-0.193468 -0.188885 -0.195332
-0.194523 -0.188885 -0.193854
-0.194473 -0.188127 -0.191639
-0.195528 -0.188127 -0.190160
-0.195479 -0.187368 -0.187938
-0.196536 -0.187368 -0.186458
-0.196488 -0.186607 -0.184231
-0.197545 -0.186607 -0.182750
-0.197498 -0.185844 -0.180517
-0.198556 -0.185844 -0.179034
-0.198510 -0.185080 -0.176796
-0.199570 -0.185080 -0.175311
-0.199525 -0.184315 -0.173067
-0.200585 -0.184315 -0.171582
-0.200541 -0.183548 -0.169332
-0.201602 -0.183548 -0.167845
-0.201559 -0.182780 -0.165589
-0.202621 -0.182780 -0.164100
-0.202579 -0.182010 -0.161839
-0.203642 -0.182010 -0.160349
-0.203601 -0.181239 -0.158082
-0.204665 -0.181239 -0.156591
-0.204625 -0.180466 -0.154318
-0.205690 -0.180466 -0.152825
-0.205650 -0.179692 -0.150547
-0.206717 -0.179692 -0.149052
-0.207784 -0.179692 -0.147558
-0.207746 -0.178917 -0.145272
-0.208813 -0.178917 -0.143776
-0.208777 -0.178139 -0.141485
-0.208740 -0.177361 -0.139189
-0.208703 -0.176581 -0.136888
-0.208666 -0.175799 -0.134584
-0.208629 -0.175016 -0.132274
-0.208592 -0.174231 -0.129961
-0.208555 -0.173445 -0.127643
-0.208518 -0.172657 -0.125320
-0.207365 -0.171077 -0.122171
-0.206208 -0.169491 -0.119011
-0.206169 -0.168696 -0.116668
-0.206129 -0.167899 -0.114322
-0.206089 -0.167100 -0.111970
-0.206049 -0.166300 -0.109614
-0.206010 -0.165499 -0.107253
-0.204842 -0.163891 -0.104042
-0.204801 -0.163084 -0.101669
-0.203627 -0.161467 -0.098437
-0.203585 -0.160656 -0.096051
-0.203542 -0.159843 -0.093661
-0.202362 -0.158213 -0.090401
-0.202318 -0.157395 -0.087998
-0.201131 -0.155756 -0.084716
-0.201086 -0.154933 -0.082301
-0.199894 -0.153284 -0.078998
-0.199847 -0.152456 -0.076570
-0.199800 -0.151627 -0.074137
-0.197446 -0.149131 -0.069909
-0.196238 -0.147458 -0.066559
-0.195025 -0.145779 -0.063196
-0.194973 -0.144937 -0.060730
-0.193754 -0.143247 -0.057344
-0.193701 -0.142400 -0.054865
-0.192475 -0.140700 -0.051457
-0.191245 -0.138993 -0.048036
-0.191189 -0.138138 -0.045535
-0.189953 -0.136421 -0.042091
-0.189895 -0.135560 -0.039576
-0.188652 -0.133832 -0.036110
-0.188593 -0.132966 -0.033581
-0.187344 -0.131228 -0.030093
-0.186089 -0.129483 -0.026590
-0.184830 -0.127731 -0.023072
-0.184766 -0.126852 -0.020512
-0.183500 -0.125089 -0.016971
-0.182229 -0.123319 -0.013416
-0.180952 -0.121542 -0.009847
-0.179671 -0.119757 -0.006262
-0.179601 -0.118862 -0.003661
-0.178313 -0.117066 -0.000052
-0.177019 -0.115262 0.003571
-0.175719 -0.113452 0.007210
-0.175645 -0.112543 0.009844
-0.174339 -0.110721 0.013507
-0.173028 -0.108892 0.017185
-0.172950 -0.107974 0.019843
-0.171632 -0.106133 0.023546
-0.170308 -0.104284 0.027265
-0.168978 -0.102427 0.030999
-0.167642 -0.100562 0.034749
-0.165041 -0.097751 0.039580
-0.163691 -0.095866 0.043368
-0.159790 -0.092074 0.049336
-0.150695 -0.084391 0.059754
0.256423 -0.080319 -0.491278
0.248283 -0.084220 -0.491662
0.241926 -0.087123 -0.491530
0.233909 -0.090965 -0.491909
0.225960 -0.094775 -0.492285
0.218079 -0.098552 -0.492658
0.210263 -0.102298 -0.493028
0.204153 -0.105086 -0.492895
0.196453 -0.108777 -0.493261
0.190431 -0.111524 -0.493128
0.184446 -0.114255 -0.492995
0.176908 -0.117870 -0.493357
0.171008 -0.120561 -0.493225
0.165145 -0.123236 -0.493093
0.159317 -0.125894 -0.492963
0.151982 -0.129413 -0.493320
0.146236 -0.132033 -0.493190
0.140526 -0.134638 -0.493060
0.134850 -0.137226 -0.492931
0.129209 -0.139799 -0.492803
0.122112 -0.143206 -0.493156
0.116548 -0.145743 -0.493028
0.111018 -0.148264 -0.492901
0.105521 -0.150771 -0.492774
0.097166 -0.154916 -0.493595
0.091753 -0.157383 -0.493467
0.087797 -0.159019 -0.492871
0.081024 -0.162273 -0.493215
0.075706 -0.164697 -0.493090
0.070420 -0.167107 -0.492965
0.066552 -0.168705 -0.492377
0.064082 -0.169502 -0.491325
0.060238 -0.171091 -0.490742
0.057782 -0.171884 -0.489695
0.055330 -0.172674 -0.488650
0.052884 -0.173464 -0.487608
0.051807 -0.173464 -0.486099
0.049366 -0.174251 -0.485059
0.046930 -0.175037 -0.484022
0.044499 -0.175822 -0.482987
0.043425 -0.175822 -0.481482
0.042351 -0.175822 -0.479978
0.039927 -0.176605 -0.478947
0.038854 -0.176605 -0.477444
0.037781 -0.176605 -0.475941
0.035363 -0.177387 -0.474915
0.034292 -0.177387 -0.473414
0.031879 -0.178167 -0.472392
0.030809 -0.178167 -0.470892
0.029738 -0.178167 -0.469391
0.027333 -0.178946 -0.468374
0.026263 -0.178946 -0.466875
0.025194 -0.178946 -0.465377
0.022795 -0.179723 -0.464364
0.021726 -0.179723 -0.462867
0.020658 -0.179723 -0.461369
0.018266 -0.180498 -0.460362
0.017198 -0.180498 -0.458866
0.014811 -0.181273 -0.457862
0.013745 -0.181273 -0.456367
0.012678 -0.181273 -0.454873
0.010298 -0.182045 -0.453874
0.009233 -0.182045 -0.452381
0.006859 -0.182816 -0.451384
0.005794 -0.182816 -0.449893
0.004730 -0.182816 -0.448401
0.002362 -0.183586 -0.447410
0.001299 -0.183586 -0.445920
0.000235 -0.183586 -0.444430
-0.002126 -0.184354 -0.443443
-0.003189 -0.184354 -0.441954
-0.004251 -0.184354 -0.440466
-0.006606 -0.185121 -0.439484
-0.007667 -0.185121 -0.437996
-0.010016 -0.185886 -0.437018
-0.011077 -0.185886 -0.435532
-0.012137 -0.185886 -0.434046
-0.014480 -0.186650 -0.433072
-0.015539 -0.186650 -0.431588
-0.016598 -0.186650 -0.430103
-0.018935 -0.187413 -0.429134
-0.019993 -0.187413 -0.427651
-0.021051 -0.187413 -0.426168
-0.022110 -0.187413 -0.424685
-0.024438 -0.188174 -0.423722
-0.025496 -0.188174 -0.422240
-0.026553 -0.188174 -0.420759
-0.028875 -0.188933 -0.419800
-0.029932 -0.188933 -0.418320
-0.030988 -0.188933 -0.416840
-0.032045 -0.188933 -0.415359
-0.033101 -0.188933 -0.413879
-0.034157 -0.188933 -0.412399
-0.036470 -0.189691 -0.411449
-0.037526 -0.189691 -0.409970
-0.038581 -0.189691 -0.408492
-0.040887 -0.190448 -0.407547
-0.041942 -0.190448 -0.406069
-0.042996 -0.190448 -0.404592
-0.044050 -0.190448 -0.403114
-0.046349 -0.191203 -0.402175
-0.047403 -0.191203 -0.400699
-0.048456 -0.191203 -0.399223
-0.050749 -0.191957 -0.398289
-0.051801 -0.191957 -0.396814
-0.052854 -0.191957 -0.395340
-0.055140 -0.192709 -0.394410
-0.056191 -0.192709 -0.392936
-0.057243 -0.192709 -0.391463
-0.059523 -0.193460 -0.390538
-0.060573 -0.193460 -0.389066
-0.061624 -0.193460 -0.387594
-0.063897 -0.194209 -0.386673
-0.064947 -0.194209 -0.385203
-0.065996 -0.194209 -0.383732
-0.067046 -0.194209 -0.382262
-0.069312 -0.194957 -0.381347
-0.070361 -0.194957 -0.379878
-0.071409 -0.194957 -0.378409
-0.072457 -0.194957 -0.376940
-0.073506 -0.194957 -0.375471
-0.074554 -0.194957 -0.374002
-0.074391 -0.194209 -0.371969
-0.075441 -0.194209 -0.370498
-0.077699 -0.194957 -0.369595
-0.079954 -0.195704 -0.368692
-0.081001 -0.195704 -0.367225
-0.082049 -0.195704 -0.365757
-0.084297 -0.196449 -0.364859
-0.085343 -0.196449 -0.363393
-0.087586 -0.197193 -0.362499
-0.088631 -0.197193 -0.361034
-0.089677 -0.197193 -0.359569
-0.090722 -0.197193 -0.358104
-0.092958 -0.197936 -0.357215
-0.094003 -0.197936 -0.355752
-0.095047 -0.197936 -0.354288
-0.096092 -0.197936 -0.352824
-0.098320 -0.198677 -0.351941
-0.099364 -0.198677 -0.350479
-0.100407 -0.198677 -0.349017
-0.102630 -0.199416 -0.348139
-0.103672 -0.199416 -0.346678
-0.104715 -0.199416 -0.345217
-0.105757 -0.199416 -0.343756
-0.106800 -0.199416 -0.342295
-0.109014 -0.200155 -0.341424
-0.110055 -0.200155 -0.339964
-0.111097 -0.200155 -0.338505
-0.112138 -0.200155 -0.337046
-0.114346 -0.200891 -0.336180
-0.115386 -0.200891 -0.334722
-0.116427 -0.200891 -0.333264
-0.117467 -0.200891 -0.331806
-0.118508 -0.200891 -0.330348
-0.119549 -0.200891 -0.328890
-0.120589 -0.200891 -0.327431
-0.121630 -0.200891 -0.325973
-0.122670 -0.200891 -0.324515
-0.123711 -0.200891 -0.323057
-0.124751 -0.200891 -0.321599
-0.125792 -0.200891 -0.320141
-0.126832 -0.200891 -0.318683
-0.129024 -0.201627 -0.317835
-0.130063 -0.201627 -0.316379
-0.131103 -0.201627 -0.314922
-0.132143 -0.201627 -0.313465
-0.133182 -0.201627 -0.312008
-0.133076 -0.200891 -0.309935
-0.135261 -0.201627 -0.309095
-0.136301 -0.201627 -0.307638
-0.137340 -0.201627 -0.306182
-0.138380 -0.201627 -0.304725
-0.138278 -0.200891 -0.302644
-0.139319 -0.200891 -0.301186
-0.140360 -0.200891 -0.299728
-0.141400 -0.200891 -0.298270
-0.142441 -0.200891 -0.296812
-0.143481 -0.200891 -0.295354
-0.144522 -0.200891 -0.293896
-0.145562 -0.200891 -0.292438
-0.146603 -0.200891 -0.290980
-0.147643 -0.200891 -0.289522
-0.148684 -0.200891 -0.288063
-0.149724 -0.200891 -0.286605
-0.150765 -0.200891 -0.285147
-0.151806 -0.200891 -0.283689
-0.152846 -0.200891 -0.282231
-0.153887 -0.200891 -0.280773
-0.153799 -0.200155 -0.278668
-0.154841 -0.200155 -0.277209
-0.155882 -0.200155 -0.275749
-0.156924 -0.200155 -0.274290
-0.157965 -0.200155 -0.272830
-0.159007 -0.200155 -0.271371
-0.160048 -0.200155 -0.269911
-0.161090 -0.200155 -0.268452
-0.162132 -0.200155 -0.266992
-0.163173 -0.200155 -0.265533
-0.164215 -0.200155 -0.264074
-0.165256 -0.200155 -0.262614
-0.166298 -0.200155 -0.261155
-0.167339 -0.200155 -0.259695
-0.168381 -0.200155 -0.258236
-0.169422 -0.200155 -0.256776
-0.170464 -0.200155 -0.255317
-0.171505 -0.200155 -0.253857
-0.172547 -0.200155 -0.252398
-0.173588 -0.200155 -0.250939
-0.173519 -0.199416 -0.248803
-0.174562 -0.199416 -0.247343
-0.175604 -0.199416 -0.245882
-0.175537 -0.198677 -0.243740
-0.176581 -0.198677 -0.242278
-0.177624 -0.198677 -0.240816
-0.177559 -0.197936 -0.238667
-0.178604 -0.197936 -0.237203
-0.177429 -0.196449 -0.234358
-0.178475 -0.196449 -0.232891
-0.179521 -0.196449 -0.231425
-0.180568 -0.196449 -0.229959
-0.181614 -0.196449 -0.228492
-0.181553 -0.195704 -0.226326
-0.182600 -0.195704 -0.224858
-0.183647 -0.195704 -0.223391
-0.183588 -0.194957 -0.221218
-0.184636 -0.194957 -0.219748
-0.185685 -0.194957 -0.218279
-0.185627 -0.194209 -0.216099
-0.186676 -0.194209 -0.214629
-0.186619 -0.193460 -0.212443
-0.187669 -0.193460 -0.210971
-0.187613 -0.192709 -0.208780
-0.188665 -0.192709 -0.207307
-0.188610 -0.191957 -0.205111
-0.189662 -0.191957 -0.203636
-0.189608 -0.191203 -0.201434
-0.190661 -0.191203 -0.199958
-0.190608 -0.190448 -0.197750
-0.191662 -0.190448 -0.196272
-0.191609 -0.189691 -0.194059
-0.192665 -0.189691 -0.192580
-0.192613 -0.188933 -0.190361
-0.193670 -0.188933 -0.188881
-0.193619 -0.188174 -0.186656
-0.194676 -0.188174 -0.185175
-0.194626 -0.187413 -0.182944
-0.195685 -0.187413 -0.181461
-0.195636 -0.186650 -0.179225
-0.196695 -0.186650 -0.177741
-0.196647 -0.185886 -0.175499
-0.197708 -0.185886 -0.174014
-0.197661 -0.185121 -0.171766
-0.198722 -0.185121 -0.170279
-0.198676 -0.184354 -0.168026
-0.199738 -0.184354 -0.166537
-0.199693 -0.183586 -0.164278
-0.200757 -0.183586 -0.162788
-0.200712 -0.182816 -0.160524
-0.201777 -0.182816 -0.159032
-0.201734 -0.182045 -0.156762
-0.202799 -0.182045 -0.155269
-0.202757 -0.181273 -0.152993
-0.203823 -0.181273 -0.151498
-0.203782 -0.180498 -0.149216
-0.204849 -0.180498 -0.147720
-0.205917 -0.180498 -0.146225
-0.205877 -0.179723 -0.143935
-0.206946 -0.179723 -0.142438
-0.206907 -0.178946 -0.140143
-0.206869 -0.178167 -0.137844
-0.206830 -0.177387 -0.135540
-0.206791 -0.176605 -0.133232
-0.205639 -0.175037 -0.130108
-0.206714 -0.175037 -0.128602
-0.205559 -0.173464 -0.125462
-0.204400 -0.171884 -0.122311
-0.204358 -0.171091 -0.119974
-0.204317 -0.170297 -0.117633
-0.204275 -0.169502 -0.115287
-0.204234 -0.168705 -0.112936
-0.204192 -0.167907 -0.110581
-0.203022 -0.166305 -0.107379
-0.202979 -0.165502 -0.105012
-0.202936 -0.164697 -0.102640
-0.201759 -0.163083 -0.099410
-0.201715 -0.162273 -0.097025
-0.200532 -0.160650 -0.093775
-0.200486 -0.159835 -0.091377
-0.199297 -0.158202 -0.088106
-0.199250 -0.157383 -0.085696
-0.198055 -0.155740 -0.082404
-0.198007 -0.154916 -0.079981
-0.197958 -0.154090 -0.077554
-0.195600 -0.151603 -0.073341
-0.195549 -0.150771 -0.070897
-0.194338 -0.149102 -0.067549
-0.193121 -0.147425 -0.064187
-0.193067 -0.146585 -0.061722
-0.191844 -0.144899 -0.058339
-0.190617 -0.143206 -0.054942
-0.190560 -0.142357 -0.052455
-0.189326 -0.140653 -0.049036
-0.188087 -0.138943 -0.045603
-0.188028 -0.138086 -0.043094
-0.186782 -0.136365 -0.039639
-0.186721 -0.135502 -0.037116
-0.185469 -0.133771 -0.033638
-0.184212 -0.132033 -0.030146
-0.184148 -0.131161 -0.027600
-0.182885 -0.129413 -0.024085
-0.181616 -0.127657 -0.020555
-0.181549 -0.126776 -0.017987
-0.180274 -0.125010 -0.014434
-0.178994 -0.123236 -0.010867
-0.177708 -0.121454 -0.007284
-0.176417 -0.119666 -0.003687
-0.175120 -0.117870 -0.000075
-0.175046 -0.116969 0.002544
-0.173742 -0.115162 0.006180
-0.172434 -0.113347 0.009831
-0.172356 -0.112437 0.012474
-0.171040 -0.110610 0.016150
-0.169719 -0.108777 0.019841
-0.168392 -0.106935 0.023548
-0.167060 -0.105086 0.027270
-0.165722 -0.103229 0.031009
-0.164378 -0.101364 0.034762
-0.161764 -0.098552 0.039599
-0.159133 -0.095722 0.044467
-0.155204 -0.091921 0.050452
-0.146050 -0.084220 0.060902
0.257279 -0.082098 -0.490667
0.249136 -0.085990 -0.491053
0.241062 -0.089850 -0.491436
0.233057 -0.093676 -0.491815
0.225120 -0.097470 -0.492192
0.218917 -0.100295 -0.492060
0.211099 -0.104033 -0.492432
0.203345 -0.107739 -0.492801
0.195657 -0.111415 -0.493168
0.189643 -0.114152 -0.493035
0.182068 -0.117774 -0.493397
0.176140 -0.120471 -0.493265
0.170249 -0.123152 -0.493133
0.164394 -0.125816 -0.493002
0.158575 -0.128463 -0.492872
0.151250 -0.131968 -0.493229
0.145512 -0.134578 -0.493099
0.139810 -0.137172 -0.492970
0.134142 -0.139751 -0.492841
0.127011 -0.143164 -0.493194
0.121422 -0.145706 -0.493066
0.115866 -0.148233 -0.492939
0.110343 -0.150745 -0.492812
0.104853 -0.153242 -0.492686
0.096510 -0.157370 -0.493506
0.091104 -0.159827 -0.493379
0.085731 -0.162270 -0.493253
0.080389 -0.164699 -0.493127
0.073678 -0.167915 -0.493469
0.071194 -0.168715 -0.492413
0.067324 -0.170310 -0.491826
0.064854 -0.171105 -0.490775
0.062389 -0.171899 -0.489726
0.059928 -0.172692 -0.488679
0.057472 -0.173482 -0.487634
0.055021 -0.174272 -0.486591
0.052575 -0.175059 -0.485550
0.051498 -0.175059 -0.484042
0.049058 -0.175845 -0.483004
0.046622 -0.176630 -0.481969
0.045547 -0.176630 -0.480463
0.043117 -0.177413 -0.479431
0.042043 -0.177413 -0.477926
0.040970 -0.177413 -0.476422
0.038546 -0.178195 -0.475395
0.037474 -0.178195 -0.473892
0.036401 -0.178195 -0.472389
0.033984 -0.178975 -0.471367
0.032913 -0.178975 -0.469865
0.031841 -0.178975 -0.468363
0.029431 -0.179753 -0.467346
0.028361 -0.179753 -0.465846
0.027290 -0.179753 -0.464346
0.024887 -0.180531 -0.463333
0.023817 -0.180531 -0.461835
0.022748 -0.180531 -0.460336
0.020351 -0.181306 -0.459328
0.019283 -0.181306 -0.457831
0.016892 -0.182080 -0.456827
0.015824 -0.182080 -0.455331
0.013439 -0.182853 -0.454330
0.012373 -0.182853 -0.452836
0.011306 -0.182853 -0.451341
0.008927 -0.183624 -0.450345
0.007862 -0.183624 -0.448852
0.006796 -0.183624 -0.447359
0.004425 -0.184394 -0.446368
0.003360 -0.184394 -0.444876
0.002296 -0.184394 -0.443385
-0.000070 -0.185162 -0.442398
-0.001133 -0.185162 -0.440908
-0.002197 -0.185162 -0.439418
-0.004556 -0.185929 -0.438436
-0.005618 -0.185929 -0.436947
-0.007971 -0.186694 -0.435969
-0.009033 -0.186694 -0.434481
-0.010094 -0.186694 -0.432994
-0.012441 -0.187458 -0.432020
-0.013501 -0.187458 -0.430535
-0.014562 -0.187458 -0.429049
-0.015622 -0.187458 -0.427563
-0.017962 -0.188220 -0.426595
-0.019021 -0.188220 -0.425111
-0.020080 -0.188220 -0.423626
-0.022413 -0.188981 -0.422663
-0.023472 -0.188981 -0.421180
-0.024530 -0.188981 -0.419697
-0.025588 -0.188981 -0.418214
-0.027914 -0.189740 -0.417257
-0.028971 -0.189740 -0.415775
-0.030028 -0.189740 -0.414294
-0.031086 -0.189740 -0.412812
-0.032143 -0.189740 -0.411330
-0.034460 -0.190498 -0.410381
-0.035517 -0.190498 -0.408901
-0.036573 -0.190498 -0.407420
-0.037629 -0.190498 -0.405940
-0.039939 -0.191255 -0.404997
-0.040994 -0.191255 -0.403518
-0.042050 -0.191255 -0.402039
-0.044353 -0.192010 -0.401100
-0.045407 -0.192010 -0.399623
-0.046461 -0.192010 -0.398145
-0.047516 -0.192010 -0.396668
-0.049812 -0.192764 -0.395735
-0.050865 -0.192764 -0.394259
-0.053155 -0.193516 -0.393329
-0.054208 -0.193516 -0.391855
-0.055260 -0.193516 -0.390380
-0.057544 -0.194267 -0.389455
-0.058596 -0.194267 -0.387982
-0.059647 -0.194267 -0.386508
-0.060698 -0.194267 -0.385035
-0.062975 -0.195016 -0.384116
-0.064026 -0.195016 -0.382644
-0.065076 -0.195016 -0.381172
-0.067346 -0.195764 -0.380257
-0.068396 -0.195764 -0.378787
-0.069445 -0.195764 -0.377316
-0.070495 -0.195764 -0.375846
-0.071544 -0.195764 -0.374376
-0.070161 -0.194267 -0.371776
-0.072429 -0.195016 -0.370869
-0.074692 -0.195764 -0.369964
-0.075742 -0.195764 -0.368494
-0.078000 -0.196511 -0.367592
-0.079048 -0.196511 -0.366123
-0.080097 -0.196511 -0.364654
-0.082349 -0.197256 -0.363756
-0.083396 -0.197256 -0.362289
-0.085643 -0.198000 -0.361394
-0.086690 -0.198000 -0.359928
-0.087736 -0.198000 -0.358462
-0.088782 -0.198000 -0.356995
-0.091022 -0.198742 -0.356107
-0.092068 -0.198742 -0.354642
-0.093113 -0.198742 -0.353177
-0.094158 -0.198742 -0.351712
-0.096391 -0.199483 -0.350829
-0.097435 -0.199483 -0.349366
-0.098480 -0.199483 -0.347902
-0.099524 -0.199483 -0.346439
-0.101750 -0.200223 -0.345562
-0.102793 -0.200223 -0.344099
-0.103837 -0.200223 -0.342637
-0.104880 -0.200223 -0.341175
-0.107098 -0.200961 -0.340304
-0.108141 -0.200961 -0.338843
-0.109183 -0.200961 -0.337382
-0.110226 -0.200961 -0.335921
-0.112437 -0.201698 -0.335056
-0.113479 -0.201698 -0.333597
-0.114520 -0.201698 -0.332137
-0.115562 -0.201698 -0.330678
-0.116603 -0.201698 -0.329218
-0.117645 -0.201698 -0.327759
-0.118686 -0.201698 -0.326299
-0.119728 -0.201698 -0.324840
-0.120769 -0.201698 -0.323380
-0.121811 -0.201698 -0.321921
-0.122852 -0.201698 -0.320462
-0.123894 -0.201698 -0.319002
-0.124935 -0.201698 -0.317543
-0.125977 -0.201698 -0.316083
-0.128171 -0.202433 -0.315237
-0.129212 -0.202433 -0.313779
-0.130252 -0.202433 -0.312321
-0.131293 -0.202433 -0.310863
-0.132333 -0.202433 -0.309405
-0.133374 -0.202433 -0.307947
-0.134415 -0.202433 -0.306489
-0.135455 -0.202433 -0.305031
-0.135351 -0.201698 -0.302948
-0.136392 -0.201698 -0.301489
-0.137434 -0.201698 -0.300029
-0.138475 -0.201698 -0.298570
-0.139517 -0.201698 -0.297111
-0.140558 -0.201698 -0.295651
-0.141600 -0.201698 -0.294192
-0.142641 -0.201698 -0.292732
-0.143683 -0.201698 -0.291273
-0.144724 -0.201698 -0.289813
-0.145766 -0.201698 -0.288354
-0.146807 -0.201698 -0.286894
-0.147849 -0.201698 -0.285435
-0.148890 -0.201698 -0.283976
-0.149932 -0.201698 -0.282516
-0.150973 -0.201698 -0.281057
-0.150883 -0.200961 -0.278950
-0.151926 -0.200961 -0.277489
-0.152968 -0.200961 -0.276028
-0.154011 -0.200961 -0.274567
-0.155053 -0.200961 -0.273107
-0.156096 -0.200961 -0.271646
-0.157138 -0.200961 -0.270185
-0.158181 -0.200961 -0.268724
-0.159223 -0.200961 -0.267263
-0.160266 -0.200961 -0.265803
-0.161308 -0.200961 -0.264342
-0.162351 -0.200961 -0.262881
-0.163393 -0.200961 -0.261420
-0.164436 -0.200961 -0.259959
-0.165478 -0.200961 -0.258498
-0.166521 -0.200961 -0.257038
-0.167563 -0.200961 -0.255577
-0.168606 -0.200961 -0.254116
-0.169648 -0.200961 -0.252655
-0.170691 -0.200961 -0.251194
-0.171733 -0.200961 -0.249734
-0.171663 -0.200223 -0.247595
-0.172706 -0.200223 -0.246133
-0.173750 -0.200223 -0.244671
-0.173681 -0.199483 -0.242526
-0.174725 -0.199483 -0.241063
-0.174657 -0.198742 -0.238912
-0.175703 -0.198742 -0.237447
-0.176748 -0.198742 -0.235982
-0.175569 -0.197256 -0.233131
-0.176616 -0.197256 -0.231664
-0.177663 -0.197256 -0.230196
-0.178711 -0.197256 -0.228728
-0.179758 -0.197256 -0.227261
-0.180806 -0.197256 -0.225793
-0.180743 -0.196511 -0.223622
-0.181791 -0.196511 -0.222153
-0.182840 -0.196511 -0.220684
-0.182779 -0.195764 -0.218506
-0.183829 -0.195764 -0.217036
-0.183769 -0.195016 -0.214852
-0.184819 -0.195016 -0.213381
-0.184761 -0.194267 -0.211192
-0.185812 -0.194267 -0.209718
-0.185754 -0.193516 -0.207524
-0.186807 -0.193516 -0.206050
-0.186749 -0.192764 -0.203850
-0.187803 -0.192764 -0.202374
-0.187747 -0.192010 -0.200168
-0.188801 -0.192010 -0.198691
-0.188746 -0.191255 -0.196480
-0.189801 -0.191255 -0.195001
-0.189747 -0.190498 -0.192784
-0.190803 -0.190498 -0.191304
-0.190750 -0.189740 -0.189081
-0.191807 -0.189740 -0.187600
-0.191755 -0.188981 -0.185372
-0.192813 -0.188981 -0.183889
-0.192761 -0.188220 -0.181655
-0.193821 -0.188220 -0.180171
-0.193770 -0.187458 -0.177931
-0.194831 -0.187458 -0.176446
-0.194781 -0.186694 -0.174201
-0.195842 -0.186694 -0.172713
-0.195793 -0.185929 -0.170463
-0.196856 -0.185929 -0.168974
-0.196808 -0.185162 -0.166717
-0.197871 -0.185162 -0.165227
-0.197824 -0.184394 -0.162965
-0.198889 -0.184394 -0.161473
-0.198843 -0.183624 -0.159205
-0.199908 -0.183624 -0.157712
-0.199863 -0.182853 -0.155439
-0.200929 -0.182853 -0.153944
-0.200885 -0.182080 -0.151665
-0.201953 -0.182080 -0.150169
-0.201909 -0.181306 -0.147883
-0.202978 -0.181306 -0.146386
-0.204047 -0.181306 -0.144889
-0.204005 -0.180531 -0.142596
-0.205075 -0.180531 -0.141097
-0.205035 -0.179753 -0.138799
-0.203881 -0.178195 -0.135692
-0.203839 -0.177413 -0.133381
-0.203798 -0.176630 -0.131066
-0.203756 -0.175845 -0.128747
-0.202594 -0.174272 -0.125605
-0.202551 -0.173482 -0.123274
-0.202508 -0.172692 -0.120938
-0.202465 -0.171899 -0.118597
-0.202421 -0.171105 -0.116252
-0.202378 -0.170310 -0.113903
-0.202334 -0.169513 -0.111549
-0.201161 -0.167915 -0.108349
-0.201116 -0.167113 -0.105982
-0.199937 -0.165505 -0.102762
-0.199890 -0.164699 -0.100383
-0.198705 -0.163081 -0.097142
-0.198658 -0.162270 -0.094751
-0.197466 -0.160643 -0.091489
-0.197418 -0.159827 -0.089085
-0.197369 -0.159010 -0.086676
-0.196170 -0.157370 -0.083386
-0.196120 -0.156548 -0.080964
-0.194915 -0.154898 -0.077652
-0.193706 -0.153242 -0.074328
-0.192492 -0.151579 -0.070989
-0.192437 -0.150745 -0.068538
-0.191217 -0.149072 -0.065179
-0.189992 -0.147393 -0.061806
-0.189935 -0.146550 -0.059333
-0.188703 -0.144861 -0.055938
-0.187467 -0.143164 -0.052530
-0.187407 -0.142313 -0.050035
-0.186164 -0.140607 -0.046604
-0.184916 -0.138893 -0.043160
-0.184853 -0.138034 -0.040643
-0.183599 -0.136309 -0.037176
-0.183534 -0.135445 -0.034645
-0.182274 -0.133710 -0.031155
-0.181008 -0.131968 -0.027651
-0.180940 -0.131095 -0.025098
-0.179668 -0.129342 -0.021570
-0.178390 -0.127583 -0.018028
-0.178319 -0.126700 -0.015452
-0.177035 -0.124930 -0.011887
-0.174525 -0.122260 -0.007314
-0.174450 -0.121367 -0.004711
-0.173149 -0.119574 -0.001101
-0.171843 -0.117774 0.002524
-0.171765 -0.116872 0.005150
-0.170452 -0.115060 0.008800
-0.169134 -0.113242 0.012464
-0.167810 -0.111415 0.016144
-0.166481 -0.109581 0.019839
-0.165146 -0.107739 0.023550
-0.163805 -0.105890 0.027276
-0.162459 -0.104033 0.031018
-0.161107 -0.102168 0.034776
-0.158479 -0.099355 0.039618
-0.155835 -0.096525 0.044491
-0.150599 -0.091767 0.051572
0.248260 -0.088727 -0.490960
0.241910 -0.091613 -0.490830
0.233902 -0.095432 -0.491212
0.225961 -0.099218 -0.491591
0.218088 -0.102973 -0.491967
0.210281 -0.106696 -0.492339
0.202539 -0.110387 -0.492708
0.194862 -0.114048 -0.493075
0.187249 -0.117679 -0.493438
0.181293 -0.120382 -0.493305
0.175374 -0.123068 -0.493172
0.169491 -0.125738 -0.493041
0.163644 -0.128391 -0.492910
0.157834 -0.131028 -0.492781
0.150519 -0.134519 -0.493138
0.144790 -0.137118 -0.493008
0.139095 -0.139702 -0.492880
0.133435 -0.142270 -0.492752
0.127809 -0.144822 -0.492624
0.120733 -0.148202 -0.492977
0.115184 -0.150719 -0.492850
0.109669 -0.153221 -0.492723
0.102735 -0.156533 -0.493072
0.095855 -0.159820 -0.493417
0.090457 -0.162267 -0.493291
0.083673 -0.165508 -0.493633
0.078348 -0.167923 -0.493507
0.075854 -0.168724 -0.492449
0.073366 -0.169524 -0.491393
0.069489 -0.171120 -0.490807
0.065626 -0.172709 -0.490224
0.063160 -0.173501 -0.489175
0.060699 -0.174292 -0.488129
0.059619 -0.174292 -0.486616
0.057163 -0.175081 -0.485573
0.054712 -0.175869 -0.484532
0.052266 -0.176655 -0.483493
0.049825 -0.177439 -0.482457
0.048749 -0.177439 -0.480949
0.047673 -0.177439 -0.479442
0.045239 -0.178223 -0.478410
0.042809 -0.179004 -0.477380
0.041736 -0.179004 -0.475875
0.039311 -0.179784 -0.474849
0.038239 -0.179784 -0.473346
0.037166 -0.179784 -0.471843
0.034749 -0.180563 -0.470821
0.033677 -0.180563 -0.469319
0.032605 -0.180563 -0.467818
0.030195 -0.181340 -0.466801
0.029124 -0.181340 -0.465301
0.028054 -0.181340 -0.463801
0.025650 -0.182115 -0.462789
0.024580 -0.182115 -0.461290
0.023511 -0.182115 -0.459791
0.021113 -0.182889 -0.458784
0.020045 -0.182889 -0.457287
0.018976 -0.182889 -0.455790
0.017908 -0.182889 -0.454292
0.015518 -0.183662 -0.453292
0.014451 -0.183662 -0.451796
0.013383 -0.183662 -0.450300
0.011000 -0.184433 -0.449304
0.009934 -0.184433 -0.447809
0.008867 -0.184433 -0.446315
0.006491 -0.185203 -0.445324
0.005426 -0.185203 -0.443831
0.004360 -0.185203 -0.442338
0.001990 -0.185971 -0.441351
0.000926 -0.185971 -0.439860
-0.001438 -0.186738 -0.438876
-0.002502 -0.186738 -0.437386
-0.003565 -0.186738 -0.435896
-0.004628 -0.186738 -0.434406
-0.005692 -0.186738 -0.432916
-0.008047 -0.187503 -0.431940
-0.009110 -0.187503 -0.430451
-0.010172 -0.187503 -0.428963
-0.011235 -0.187503 -0.427474
-0.013583 -0.188267 -0.426505
-0.014644 -0.188267 -0.425017
-0.015706 -0.188267 -0.423530
-0.016767 -0.188267 -0.422043
-0.019108 -0.189029 -0.421079
-0.020168 -0.189029 -0.419593
-0.021228 -0.189029 -0.418108
-0.023562 -0.189790 -0.417149
-0.024622 -0.189790 -0.415664
-0.025681 -0.189790 -0.414180
-0.028009 -0.190549 -0.413226
-0.029067 -0.190549 -0.411743
-0.031389 -0.191307 -0.410792
-0.032446 -0.191307 -0.409310
-0.033504 -0.191307 -0.407829
-0.034561 -0.191307 -0.406347
-0.036876 -0.192064 -0.405402
-0.037932 -0.192064 -0.403922
-0.038989 -0.192064 -0.402442
-0.040045 -0.192064 -0.400962
-0.042352 -0.192819 -0.400023
-0.043408 -0.192819 -0.398544
-0.044463 -0.192819 -0.397065
-0.046764 -0.193572 -0.396131
-0.047818 -0.193572 -0.394654
-0.048873 -0.193572 -0.393176
-0.049927 -0.193572 -0.391699
-0.050981 -0.193572 -0.390221
-0.053274 -0.194325 -0.389295
-0.054327 -0.194325 -0.387819
-0.055380 -0.194325 -0.386342
-0.056434 -0.194325 -0.384866
-0.058719 -0.195075 -0.383946
-0.059771 -0.195075 -0.382471
-0.060824 -0.195075 -0.380996
-0.061876 -0.195075 -0.379522
-0.064154 -0.195825 -0.378607
-0.065205 -0.195825 -0.377134
-0.066257 -0.195825 -0.375660
-0.067308 -0.195825 -0.374187
-0.068359 -0.195825 -0.372714
-0.069411 -0.195825 -0.371241
-0.070462 -0.195825 -0.369767
-0.072730 -0.196573 -0.368863
-0.073780 -0.196573 -0.367391
-0.076042 -0.197319 -0.366489
-0.077092 -0.197319 -0.365019
-0.078141 -0.197319 -0.363548
-0.080397 -0.198064 -0.362651
-0.082649 -0.198808 -0.361755
-0.083697 -0.198808 -0.360288
-0.084744 -0.198808 -0.358820
-0.085791 -0.198808 -0.357352
-0.086839 -0.198808 -0.355885
-0.089082 -0.199550 -0.354996
-0.090129 -0.199550 -0.353530
-0.091175 -0.199550 -0.352064
-0.092222 -0.199550 -0.350597
-0.093268 -0.199550 -0.349131
-0.094315 -0.199550 -0.347665
-0.095361 -0.199550 -0.346198
-0.097594 -0.200291 -0.345320
-0.098640 -0.200291 -0.343855
-0.099685 -0.200291 -0.342390
-0.100731 -0.200291 -0.340925
-0.102957 -0.201031 -0.340053
-0.104002 -0.201031 -0.338589
-0.105046 -0.201031 -0.337126
-0.106091 -0.201031 -0.335662
-0.107135 -0.201031 -0.334198
-0.109353 -0.201769 -0.333333
-0.110397 -0.201769 -0.331871
-0.111440 -0.201769 -0.330409
-0.112484 -0.201769 -0.328946
-0.114695 -0.202506 -0.328087
-0.115737 -0.202506 -0.326626
-0.116780 -0.202506 -0.325165
-0.117822 -0.202506 -0.323704
-0.118865 -0.202506 -0.322243
-0.119907 -0.202506 -0.320783
-0.120950 -0.202506 -0.319322
-0.123151 -0.203241 -0.318472
-0.124192 -0.203241 -0.317013
-0.125234 -0.203241 -0.315553
-0.126275 -0.203241 -0.314094
-0.126162 -0.202506 -0.312018
-0.127205 -0.202506 -0.310557
-0.128247 -0.202506 -0.309096
-0.130442 -0.203241 -0.308256
-0.131483 -0.203241 -0.306796
-0.131375 -0.202506 -0.304714
-0.132417 -0.202506 -0.303253
-0.133460 -0.202506 -0.301792
-0.134502 -0.202506 -0.300331
-0.135545 -0.202506 -0.298871
-0.136587 -0.202506 -0.297410
-0.137630 -0.202506 -0.295949
-0.138672 -0.202506 -0.294488
-0.139715 -0.202506 -0.293027
-0.140757 -0.202506 -0.291566
-0.141800 -0.202506 -0.290106
-0.142842 -0.202506 -0.288645
-0.143885 -0.202506 -0.287184
-0.144927 -0.202506 -0.285723
-0.145970 -0.202506 -0.284262
-0.147012 -0.202506 -0.282802
-0.148055 -0.202506 -0.281341
-0.149097 -0.202506 -0.279880
-0.150140 -0.202506 -0.278419
-0.151182 -0.202506 -0.276958
-0.152225 -0.202506 -0.275498
-0.153267 -0.202506 -0.274037
-0.154310 -0.202506 -0.272576
-0.155352 -0.202506 -0.271115
-0.156395 -0.202506 -0.269654
-0.157437 -0.202506 -0.268193
-0.158480 -0.202506 -0.266733
-0.159522 -0.202506 -0.265272
-0.160565 -0.202506 -0.263811
-0.161607 -0.202506 -0.262350
-0.162650 -0.202506 -0.260889
-0.162571 -0.201769 -0.258762
-0.163614 -0.201769 -0.257300
-0.164658 -0.201769 -0.255837
-0.165701 -0.201769 -0.254375
-0.166744 -0.201769 -0.252913
-0.167788 -0.201769 -0.251451
-0.168831 -0.201769 -0.249989
-0.169875 -0.201769 -0.248526
-0.170918 -0.201769 -0.247064
-0.170847 -0.201031 -0.244922
-0.171891 -0.201031 -0.243458
-0.172936 -0.201031 -0.241994
-0.173980 -0.201031 -0.240531
-0.173912 -0.200291 -0.238380
-0.174957 -0.200291 -0.236915
-0.172656 -0.198064 -0.233372
-0.173705 -0.198064 -0.231903
-0.174753 -0.198064 -0.230434
-0.175802 -0.198064 -0.228965
-0.176850 -0.198064 -0.227496
-0.177898 -0.198064 -0.226027
-0.178947 -0.198064 -0.224557
-0.178883 -0.197319 -0.222383
-0.179932 -0.197319 -0.220913
-0.180981 -0.197319 -0.219442
-0.180919 -0.196573 -0.217261
-0.181969 -0.196573 -0.215790
-0.181908 -0.195825 -0.213603
-0.182959 -0.195825 -0.212130
-0.182899 -0.195075 -0.209938
-0.183951 -0.195075 -0.208463
-0.183891 -0.194325 -0.206265
-0.184945 -0.194325 -0.204789
-0.184886 -0.193572 -0.202586
-0.184827 -0.192819 -0.200379
-0.185882 -0.192819 -0.198900
-0.185824 -0.192064 -0.196687
-0.186881 -0.192064 -0.195207
-0.186823 -0.191307 -0.192988
-0.187881 -0.191307 -0.191507
-0.188938 -0.191307 -0.190025
-0.188883 -0.190549 -0.187799
-0.189941 -0.190549 -0.186316
-0.189887 -0.189790 -0.184085
-0.190946 -0.189790 -0.182600
-0.190893 -0.189029 -0.180363
-0.191953 -0.189029 -0.178878
-0.191901 -0.188267 -0.176635
-0.192962 -0.188267 -0.175148
-0.194024 -0.188267 -0.173660
-0.193973 -0.187503 -0.171410
-0.195035 -0.187503 -0.169922
-0.194986 -0.186738 -0.167666
-0.196049 -0.186738 -0.166176
-0.196000 -0.185971 -0.163915
-0.197065 -0.185971 -0.162423
-0.198129 -0.185971 -0.160932
-0.198083 -0.185203 -0.158663
-0.199148 -0.185203 -0.157170
-0.199102 -0.184433 -0.154896
-0.200169 -0.184433 -0.153401
-0.200124 -0.183662 -0.151121
-0.201191 -0.183662 -0.149625
-0.201147 -0.182889 -0.147340
-0.202216 -0.182889 -0.145842
-0.202173 -0.182115 -0.143550
-0.202130 -0.181340 -0.141254
-0.202086 -0.180563 -0.138954
-0.203158 -0.180563 -0.137452
-0.202000 -0.179004 -0.134339
-0.203073 -0.179004 -0.132835
-0.201913 -0.177439 -0.129707
