ply
format ascii 1.0
element vertex 1660
property float x
property float y
property float z
end_header
0.059546 0.305569 -0.485300
0.056871 0.304521 -0.485225
0.053132 0.302432 -0.486157
0.050472 0.301390 -0.486081
0.046757 0.299314 -0.487009
0.044111 0.298278 -0.486933
0.041470 0.297245 -0.486857
0.038835 0.296214 -0.486780
0.036205 0.295185 -0.486705
0.033581 0.294158 -0.486629
0.029925 0.292110 -0.487549
0.027315 0.291089 -0.487473
0.024709 0.290071 -0.487396
0.021086 0.288039 -0.488311
0.018495 0.287026 -0.488235
0.015908 0.286015 -0.488158
0.013327 0.285007 -0.488081
0.010751 0.284000 -0.488005
0.007177 0.281992 -0.488913
0.004614 0.280991 -0.488836
0.002057 0.279993 -0.488760
-0.000495 0.278996 -0.488683
-0.003042 0.278001 -0.488606
-0.005585 0.277008 -0.488530
-0.008122 0.276017 -0.488454
-0.010654 0.275028 -0.488378
-0.013182 0.274041 -0.488302
-0.015704 0.273055 -0.488226
-0.018221 0.272072 -0.488150
-0.020734 0.271091 -0.488075
-0.023242 0.270111 -0.488000
-0.025744 0.269134 -0.487924
-0.028242 0.268158 -0.487849
-0.030735 0.267185 -0.487774
-0.033223 0.266213 -0.487700
-0.035707 0.265243 -0.487625
-0.038185 0.264275 -0.487551
-0.041596 0.262344 -0.488442
-0.044061 0.261382 -0.488367
-0.046522 0.260421 -0.488292
-0.048978 0.259462 -0.488218
-0.051430 0.258505 -0.488143
-0.053876 0.257550 -0.488069
-0.056318 0.256597 -0.487994
-0.058756 0.255646 -0.487920
-0.061188 0.254696 -0.487846
-0.063616 0.253748 -0.487772
-0.066039 0.252803 -0.487698
-0.068458 0.251859 -0.487625
-0.070872 0.250916 -0.487551
-0.073281 0.249976 -0.487478
-0.075686 0.249037 -0.487405
-0.078086 0.248100 -0.487332
-0.081365 0.246232 -0.488209
-0.083753 0.245300 -0.488136
-0.086137 0.244370 -0.488062
-0.088515 0.243442 -0.487989
-0.090890 0.242516 -0.487916
-0.093260 0.241592 -0.487843
-0.095625 0.240669 -0.487770
-0.097986 0.239748 -0.487697
-0.100342 0.238828 -0.487625
-0.102694 0.237911 -0.487552
-0.105042 0.236995 -0.487480
-0.107385 0.236081 -0.487408
-0.109723 0.235169 -0.487335
-0.112058 0.234258 -0.487264
-0.114388 0.233349 -0.487192
-0.116713 0.232442 -0.487120
-0.119868 0.230633 -0.487984
-0.122182 0.229730 -0.487912
-0.124491 0.228830 -0.487840
-0.126796 0.227931 -0.487768
-0.129097 0.227034 -0.487696
-0.131394 0.226139 -0.487624
-0.133686 0.225245 -0.487553
-0.135974 0.224353 -0.487481
-0.138258 0.223463 -0.487410
-0.140538 0.222574 -0.487339
-0.142813 0.221687 -0.487268
-0.145084 0.220801 -0.487197
-0.147351 0.219917 -0.487126
-0.149614 0.219035 -0.487056
-0.151872 0.218155 -0.486985
-0.154126 0.217276 -0.486915
-0.157162 0.215523 -0.487766
-0.159406 0.214649 -0.487695
-0.160864 0.214649 -0.486705
-0.163102 0.213776 -0.486635
-0.165336 0.212905 -0.486565
-0.167565 0.212036 -0.486495
-0.169791 0.211169 -0.486426
-0.172012 0.210302 -0.486357
-0.174229 0.209438 -0.486287
-0.176443 0.208575 -0.486218
-0.178652 0.207714 -0.486149
-0.180857 0.206854 -0.486081
-0.183058 0.205996 -0.486012
-0.186005 0.204284 -0.486854
-0.188196 0.203431 -0.486785
-0.190382 0.202579 -0.486716
-0.192565 0.201729 -0.486647
-0.194743 0.200880 -0.486578
-0.197653 0.199187 -0.487415
-0.199821 0.198342 -0.487346
-0.201985 0.197500 -0.487277
-0.204145 0.196659 -0.487208
-0.206301 0.195819 -0.487139
-0.208454 0.194981 -0.487070
-0.210602 0.194144 -0.487001
-0.212747 0.193309 -0.486932
-0.214887 0.192475 -0.486864
-0.217024 0.191643 -0.486796
-0.218448 0.191643 -0.485829
-0.220579 0.190813 -0.485762
-0.222707 0.189984 -0.485695
-0.224831 0.189156 -0.485628
-0.226952 0.188330 -0.485561
-0.229068 0.187505 -0.485494
-0.231875 0.185860 -0.486320
-0.233982 0.185040 -0.486253
-0.236084 0.184221 -0.486186
-0.238183 0.183404 -0.486119
-0.240278 0.182588 -0.486052
-0.242370 0.181773 -0.485985
-0.244458 0.180960 -0.485918
-0.246542 0.180149 -0.485851
-0.247947 0.180149 -0.484897
-0.250026 0.179339 -0.484831
-0.252102 0.178530 -0.484766
-0.253505 0.178530 -0.483813
-0.255575 0.177723 -0.483749
-0.257642 0.176917 -0.483684
-0.259705 0.176113 -0.483620
-0.261765 0.175310 -0.483555
-0.263821 0.174508 -0.483491
-0.265218 0.174508 -0.482543
-0.267269 0.173708 -0.482480
-0.268665 0.173708 -0.481532
-0.270060 0.173708 -0.480585
-0.272105 0.172909 -0.480523
-0.273500 0.172909 -0.479576
-0.275540 0.172112 -0.479516
-0.276933 0.172112 -0.478570
-0.278969 0.171316 -0.478511
-0.280361 0.171316 -0.477566
-0.282391 0.170522 -0.477507
-0.283782 0.170522 -0.476563
-0.285173 0.170522 -0.475619
-0.287198 0.169729 -0.475562
-0.288587 0.169729 -0.474618
-0.290607 0.168937 -0.474562
-0.292623 0.168146 -0.474507
-0.294010 0.168146 -0.473565
-0.296022 0.167357 -0.473510
-0.297408 0.167357 -0.472569
-0.299414 0.166570 -0.472515
-0.300799 0.166570 -0.471575
-0.302801 0.165784 -0.471522
-0.304185 0.165784 -0.470583
-0.306182 0.164999 -0.470530
-0.307565 0.164999 -0.469592
-0.309557 0.164215 -0.469541
-0.310938 0.164215 -0.468603
-0.312926 0.163433 -0.468553
-0.314306 0.163433 -0.467616
-0.316289 0.162653 -0.467567
-0.317668 0.162653 -0.466631
-0.319647 0.161873 -0.466582
-0.320426 0.162653 -0.464759
-0.322402 0.161873 -0.464712
-0.323780 0.161873 -0.463777
-0.325157 0.161873 -0.462841
-0.327127 0.161095 -0.462796
-0.328504 0.161095 -0.461862
-0.329880 0.161095 -0.460927
-0.331845 0.160319 -0.460884
-0.333220 0.160319 -0.459950
-0.334595 0.160319 -0.459017
-0.336554 0.159543 -0.458975
-0.337928 0.159543 -0.458042
-0.339302 0.159543 -0.457110
-0.341255 0.158769 -0.457070
-0.342628 0.158769 -0.456138
-0.344576 0.157997 -0.456098
-0.345948 0.157997 -0.455167
-0.347319 0.157997 -0.454236
-0.349262 0.157225 -0.454199
-0.350632 0.157225 -0.453268
-0.352003 0.157225 -0.452338
-0.353940 0.156455 -0.452302
-0.355309 0.156455 -0.451373
-0.357241 0.155687 -0.451338
-0.358609 0.155687 -0.450409
-0.359977 0.155687 -0.449480
-0.361904 0.154920 -0.449447
-0.363271 0.154920 -0.448519
-0.364638 0.154920 -0.447591
-0.366559 0.154154 -0.447559
-0.367924 0.154154 -0.446632
-0.369290 0.154154 -0.445705
-0.371206 0.153389 -0.445675
-0.372570 0.153389 -0.444749
-0.373935 0.153389 -0.443823
-0.375844 0.152626 -0.443794
-0.377208 0.152626 -0.442869
-0.378571 0.152626 -0.441943
-0.379934 0.152626 -0.441018
-0.381837 0.151864 -0.440992
-0.383199 0.151864 -0.440067
-0.384561 0.151864 -0.439142
-0.385924 0.151864 -0.438218
-0.387820 0.151103 -0.438194
-0.389181 0.151103 -0.437270
-0.390542 0.151103 -0.436346
-0.391903 0.151103 -0.435422
-0.393792 0.150344 -0.435401
-0.395152 0.150344 -0.434478
-0.396512 0.150344 -0.433555
-0.397871 0.150344 -0.432632
-0.399754 0.149585 -0.432613
-0.401113 0.149585 -0.431691
-0.402471 0.149585 -0.430769
-0.403830 0.149585 -0.429846
-0.405706 0.148829 -0.429830
-0.407063 0.148829 -0.428908
-0.408421 0.148829 -0.427987
-0.409778 0.148829 -0.427065
-0.411136 0.148829 -0.426144
-0.412493 0.148829 -0.425222
-0.413851 0.148829 -0.424301
-0.415208 0.148829 -0.423379
-0.416566 0.148829 -0.422458
-0.417923 0.148829 -0.421536
-0.419785 0.148073 -0.421527
-0.421142 0.148073 -0.420606
-0.422498 0.148073 -0.419686
-0.423854 0.148073 -0.418765
-0.425211 0.148073 -0.417844
-0.426567 0.148073 -0.416923
-0.427923 0.148073 -0.416003
-0.429280 0.148073 -0.415082
-0.430636 0.148073 -0.414161
-0.431992 0.148073 -0.413240
-0.433349 0.148073 -0.412320
-0.434705 0.148073 -0.411399
-0.436551 0.147319 -0.411398
-0.437418 0.148073 -0.409557
-0.438774 0.148073 -0.408637
-0.439643 0.148829 -0.406792
-0.440514 0.149585 -0.404944
-0.441873 0.149585 -0.404021
-0.442746 0.150344 -0.402169
-0.444106 0.150344 -0.401246
-0.444982 0.151103 -0.399390
-0.446343 0.151103 -0.398466
-0.447221 0.151864 -0.396606
-0.448101 0.152626 -0.394743
-0.449465 0.152626 -0.393817
-0.450347 0.153389 -0.391950
-0.451712 0.153389 -0.391024
-0.452598 0.154154 -0.389152
-0.453963 0.154154 -0.388225
-0.454851 0.154920 -0.386350
-0.456218 0.154920 -0.385422
-0.457109 0.155687 -0.383543
-0.458002 0.156455 -0.381660
-0.459371 0.156455 -0.380730
-0.460266 0.157225 -0.378844
-0.461637 0.157225 -0.377913
-0.462535 0.157997 -0.376023
-0.462961 0.159543 -0.373164
-0.463863 0.160319 -0.371264
-0.464293 0.161873 -0.368390
-0.464724 0.163433 -0.365505
-0.464683 0.165784 -0.361629
-0.465117 0.167357 -0.358720
-0.465552 0.168937 -0.355801
-0.465990 0.170522 -0.352872
-0.464514 0.175310 -0.345920
-0.461079 0.183404 -0.334807
0.122074 0.330635 -0.482155
0.116936 0.327339 -0.484154
0.114141 0.326245 -0.484078
0.111352 0.325154 -0.484003
0.109721 0.325154 -0.482895
0.105792 0.322977 -0.483852
0.103020 0.321891 -0.483777
0.100254 0.320809 -0.483703
0.097494 0.319728 -0.483628
0.094739 0.318650 -0.483553
0.091990 0.317573 -0.483479
0.089247 0.316499 -0.483405
0.085392 0.314358 -0.484353
0.082664 0.313290 -0.484278
0.079941 0.312225 -0.484203
0.076121 0.310101 -0.485146
0.073413 0.309042 -0.485071
0.070710 0.307985 -0.484995
0.068014 0.306931 -0.484920
0.064237 0.304828 -0.485857
0.061555 0.303780 -0.485781
0.058878 0.302734 -0.485706
0.055135 0.300648 -0.486637
0.052473 0.299608 -0.486561
0.049816 0.298571 -0.486485
0.046106 0.296502 -0.487411
0.043463 0.295470 -0.487334
0.040826 0.294441 -0.487257
0.038194 0.293414 -0.487181
0.035568 0.292389 -0.487105
0.032946 0.291365 -0.487029
0.030330 0.290344 -0.486953
0.027719 0.289325 -0.486877
0.025113 0.288308 -0.486801
0.020468 0.285269 -0.488707
0.017879 0.284260 -0.488630
0.015296 0.283253 -0.488553
0.012718 0.282248 -0.488476
0.010145 0.281245 -0.488400
0.007578 0.280244 -0.488323
0.005015 0.279245 -0.488247
0.001462 0.277252 -0.489152
-0.001087 0.276259 -0.489075
-0.002643 0.276259 -0.488018
-0.006170 0.274279 -0.488921
-0.007724 0.274279 -0.487867
-0.010256 0.273291 -0.487791
-0.012784 0.272306 -0.487716
-0.016277 0.270341 -0.488616
-0.018792 0.269361 -0.488540
-0.021301 0.268383 -0.488464
-0.023806 0.267407 -0.488389
-0.026306 0.266434 -0.488313
-0.028801 0.265461 -0.488238
-0.031291 0.264491 -0.488163
-0.033776 0.263523 -0.488088
-0.036256 0.262557 -0.488013
-0.038732 0.261592 -0.487938
-0.041203 0.260629 -0.487863
-0.043669 0.259669 -0.487789
-0.046130 0.258710 -0.487715
-0.048586 0.257753 -0.487640
-0.051038 0.256797 -0.487566
-0.053485 0.255844 -0.487492
-0.056843 0.253943 -0.488378
-0.059278 0.252995 -0.488304
-0.061707 0.252049 -0.488229
-0.064132 0.251104 -0.488155
-0.066553 0.250162 -0.488081
-0.068969 0.249221 -0.488007
-0.071380 0.248282 -0.487934
-0.073786 0.247345 -0.487860
-0.076188 0.246410 -0.487787
-0.078586 0.245476 -0.487713
-0.080979 0.244545 -0.487640
-0.083367 0.243615 -0.487567
-0.085751 0.242687 -0.487494
-0.089003 0.240835 -0.488368
-0.091374 0.239913 -0.488295
-0.093742 0.238991 -0.488221
-0.096104 0.238072 -0.488148
-0.098462 0.237154 -0.488075
-0.100816 0.236238 -0.488002
-0.103165 0.235324 -0.487929
-0.105510 0.234412 -0.487857
-0.107851 0.233501 -0.487784
-0.110187 0.232592 -0.487712
-0.112518 0.231684 -0.487640
-0.114846 0.230779 -0.487567
-0.117169 0.229875 -0.487495
-0.119487 0.228973 -0.487424
-0.121801 0.228072 -0.487352
-0.124111 0.227173 -0.487280
-0.127240 0.225380 -0.488141
-0.129539 0.224487 -0.488069
-0.131833 0.223594 -0.487997
-0.134122 0.222704 -0.487925
-0.136408 0.221815 -0.487853
-0.138689 0.220928 -0.487782
-0.140966 0.220042 -0.487710
-0.143239 0.219158 -0.487639
-0.145508 0.218276 -0.487568
-0.147772 0.217395 -0.487497
-0.150032 0.216516 -0.487426
-0.152288 0.215639 -0.487355
-0.154540 0.214763 -0.487285
-0.156788 0.213889 -0.487214
-0.159031 0.213016 -0.487144
-0.160490 0.213016 -0.486153
-0.163506 0.211276 -0.487003
-0.165737 0.210408 -0.486933
-0.167965 0.209542 -0.486864
-0.170188 0.208677 -0.486794
-0.172406 0.207815 -0.486724
-0.174621 0.206953 -0.486655
-0.176832 0.206093 -0.486585
-0.179039 0.205235 -0.486516
-0.181242 0.204378 -0.486447
-0.184192 0.202670 -0.487289
-0.186384 0.201818 -0.487219
-0.188572 0.200967 -0.487150
-0.190757 0.200118 -0.487080
-0.192937 0.199271 -0.487011
-0.195113 0.198425 -0.486942
-0.198020 0.196738 -0.487777
-0.200185 0.195897 -0.487708
-0.202347 0.195057 -0.487638
-0.204505 0.194219 -0.487569
-0.206659 0.193382 -0.487500
-0.208809 0.192547 -0.487431
-0.210955 0.191713 -0.487362
-0.213097 0.190881 -0.487293
-0.215236 0.190050 -0.487224
-0.217370 0.189221 -0.487155
-0.219501 0.188394 -0.487087
-0.220922 0.188394 -0.486122
-0.223048 0.187567 -0.486055
-0.225170 0.186743 -0.485987
-0.227288 0.185919 -0.485920
-0.229402 0.185098 -0.485853
-0.231512 0.184277 -0.485786
-0.233619 0.183458 -0.485719
-0.235722 0.182641 -0.485652
-0.237821 0.181825 -0.485586
-0.239917 0.181011 -0.485519
-0.242009 0.180198 -0.485453
-0.244097 0.179386 -0.485386
-0.246181 0.178576 -0.485320
-0.248262 0.177767 -0.485254
-0.250339 0.176960 -0.485188
-0.252412 0.176154 -0.485122
-0.253814 0.176154 -0.484171
-0.255882 0.175350 -0.484106
-0.257947 0.174547 -0.484041
-0.260008 0.173745 -0.483976
-0.262065 0.172945 -0.483912
-0.264119 0.172146 -0.483847
-0.266169 0.171349 -0.483783
-0.267564 0.171349 -0.482836
-0.268958 0.171349 -0.481890
-0.270353 0.171349 -0.480943
-0.272396 0.170553 -0.480881
-0.273789 0.170553 -0.479935
-0.275827 0.169758 -0.479875
-0.277220 0.169758 -0.478930
-0.278612 0.169758 -0.477985
-0.280644 0.168965 -0.477926
-0.282035 0.168965 -0.476981
-0.284062 0.168173 -0.476923
-0.285451 0.168173 -0.475980
-0.287474 0.167383 -0.475923
-0.288862 0.167383 -0.474980
-0.290880 0.166594 -0.474924
-0.292894 0.165806 -0.474868
-0.294280 0.165806 -0.473927
-0.296290 0.165020 -0.473872
-0.297675 0.165020 -0.472932
-0.299679 0.164235 -0.472878
-0.301063 0.164235 -0.471938
-0.303063 0.163452 -0.471885
-0.304445 0.163452 -0.470947
-0.306441 0.162670 -0.470894
-0.307822 0.162670 -0.469957
-0.309812 0.161889 -0.469905
-0.311192 0.161889 -0.468968
-0.313178 0.161110 -0.468918
-0.314557 0.161110 -0.467982
-0.316538 0.160332 -0.467932
-0.317916 0.160332 -0.466997
-0.319893 0.159555 -0.466948
-0.321269 0.159555 -0.466014
-0.322645 0.159555 -0.465079
-0.324022 0.159555 -0.464145
-0.325398 0.159555 -0.463211
-0.327367 0.158780 -0.463165
-0.328742 0.158780 -0.462231
-0.330117 0.158780 -0.461298
-0.332079 0.158006 -0.461254
-0.333454 0.158006 -0.460321
-0.334827 0.158006 -0.459389
-0.336784 0.157233 -0.459347
-0.338157 0.157233 -0.458415
-0.340109 0.156462 -0.458374
-0.341481 0.156462 -0.457442
-0.342853 0.156462 -0.456511
-0.344799 0.155692 -0.456472
-0.346170 0.155692 -0.455541
-0.347540 0.155692 -0.454611
-0.349481 0.154923 -0.454573
-0.350850 0.154923 -0.453644
-0.352786 0.154156 -0.453607
-0.354154 0.154156 -0.452678
-0.355522 0.154156 -0.451749
-0.357453 0.153390 -0.451714
-0.358820 0.153390 -0.450786
-0.360187 0.153390 -0.449858
-0.362111 0.152625 -0.449825
-0.363477 0.152625 -0.448898
-0.364843 0.152625 -0.447970
-0.366762 0.151862 -0.447938
-0.368126 0.151862 -0.447012
-0.370041 0.151100 -0.446981
-0.371404 0.151100 -0.446056
-0.372768 0.151100 -0.445130
-0.374131 0.151100 -0.444205
-0.376039 0.150339 -0.444176
-0.377401 0.150339 -0.443251
-0.378763 0.150339 -0.442326
-0.380666 0.149580 -0.442299
-0.382027 0.149580 -0.441375
-0.383388 0.149580 -0.440452
-0.384749 0.149580 -0.439528
-0.386644 0.148822 -0.439503
-0.388004 0.148822 -0.438580
-0.389364 0.148822 -0.437657
-0.390724 0.148822 -0.436734
-0.392612 0.148065 -0.436711
-0.393971 0.148065 -0.435789
-0.395330 0.148065 -0.434867
-0.396688 0.148065 -0.433944
-0.398570 0.147309 -0.433925
-0.399928 0.147309 -0.433003
-0.401285 0.147309 -0.432082
-0.402643 0.147309 -0.431160
-0.404518 0.146555 -0.431143
-0.405874 0.146555 -0.430222
-0.407231 0.146555 -0.429301
-0.408587 0.146555 -0.428380
-0.410455 0.145802 -0.428365
-0.411811 0.145802 -0.427446
-0.413166 0.145802 -0.426526
-0.414521 0.145802 -0.425606
-0.415876 0.145802 -0.424686
-0.417231 0.145802 -0.423766
-0.418586 0.145802 -0.422846
-0.419942 0.145802 -0.421926
-0.421297 0.145802 -0.421006
-0.422652 0.145802 -0.420086
-0.424007 0.145802 -0.419166
-0.425362 0.145802 -0.418246
-0.426718 0.145802 -0.417326
-0.428073 0.145802 -0.416406
-0.429428 0.145802 -0.415486
-0.430783 0.145802 -0.414566
-0.432631 0.145051 -0.414563
-0.433985 0.145051 -0.413644
-0.435339 0.145051 -0.412725
-0.436693 0.145051 -0.411806
-0.438047 0.145051 -0.410886
-0.439401 0.145051 -0.409967
-0.440269 0.145802 -0.408127
-0.441624 0.145802 -0.407207
-0.442980 0.145802 -0.406287
-0.443852 0.146555 -0.404441
-0.445208 0.146555 -0.403520
-0.446083 0.147309 -0.401671
-0.447440 0.147309 -0.400750
-0.448317 0.148065 -0.398896
-0.449196 0.148822 -0.397040
-0.450556 0.148822 -0.396117
-0.451437 0.149580 -0.394256
-0.452798 0.149580 -0.393332
-0.453683 0.150339 -0.391468
-0.455045 0.150339 -0.390543
-0.455932 0.151100 -0.388675
-0.456820 0.151862 -0.386803
-0.458185 0.151862 -0.385877
-0.459076 0.152625 -0.384001
-0.460441 0.152625 -0.383074
-0.461335 0.153390 -0.381194
-0.462231 0.154156 -0.379311
-0.463599 0.154156 -0.378382
-0.464497 0.154923 -0.376495
-0.465396 0.155692 -0.374605
-0.465828 0.157233 -0.371746
-0.466260 0.158780 -0.368878
-0.466695 0.160332 -0.365999
-0.467130 0.161889 -0.363110
-0.467095 0.164235 -0.359228
-0.467533 0.165806 -0.356315
-0.467973 0.167383 -0.353392
-0.466988 0.171349 -0.347458
-0.463584 0.179386 -0.336389
0.124135 0.328800 -0.482649
0.120156 0.326604 -0.483611
0.117355 0.325510 -0.483536
0.113403 0.323327 -0.484494
0.111771 0.323327 -0.483386
0.108987 0.322240 -0.483312
0.106210 0.321154 -0.483237
0.103437 0.320071 -0.483163
0.099534 0.317911 -0.484116
0.096777 0.316835 -0.484041
0.094026 0.315760 -0.483966
0.091280 0.314688 -0.483892
0.088540 0.313618 -0.483817
0.084691 0.311485 -0.484764
0.081966 0.310421 -0.484688
0.079247 0.309360 -0.484613
0.076533 0.308301 -0.484538
0.072728 0.306189 -0.485479
0.070029 0.305136 -0.485403
0.067335 0.304086 -0.485328
0.063564 0.301991 -0.486263
0.060885 0.300947 -0.486186
0.058211 0.299904 -0.486111
0.054473 0.297826 -0.487040
0.051815 0.296791 -0.486964
0.049161 0.295757 -0.486887
0.046513 0.294725 -0.486811
0.043870 0.293696 -0.486735
0.041232 0.292668 -0.486659
0.037554 0.290619 -0.487581
0.034931 0.289598 -0.487504
0.032313 0.288578 -0.487428
0.029700 0.287561 -0.487352
0.027092 0.286546 -0.487275
0.023464 0.284521 -0.488191
0.020870 0.283512 -0.488114
0.018282 0.282504 -0.488037
0.014685 0.280496 -0.488948
0.012111 0.279494 -0.488870
0.009541 0.278495 -0.488793
0.006976 0.277498 -0.488716
0.004416 0.276502 -0.488640
0.001862 0.275509 -0.488563
0.000304 0.275509 -0.487506
-0.003232 0.273528 -0.488411
-0.005772 0.272540 -0.488334
-0.008306 0.271555 -0.488258
-0.010836 0.270571 -0.488183
-0.013361 0.269589 -0.488107
-0.015880 0.268609 -0.488032
-0.018395 0.267631 -0.487956
-0.020905 0.266655 -0.487881
-0.023410 0.265681 -0.487806
-0.025910 0.264709 -0.487731
-0.029358 0.262770 -0.488626
-0.031845 0.261803 -0.488550
-0.034327 0.260839 -0.488475
-0.036805 0.259876 -0.488400
-0.039277 0.258915 -0.488325
-0.041745 0.257956 -0.488250
-0.044208 0.256998 -0.488175
-0.046667 0.256043 -0.488100
-0.049120 0.255089 -0.488026
-0.051569 0.254137 -0.487951
-0.054013 0.253188 -0.487877
-0.056453 0.252239 -0.487803
-0.058888 0.251293 -0.487729
-0.061318 0.250349 -0.487656
-0.063743 0.249406 -0.487582
-0.066164 0.248465 -0.487508
-0.069478 0.246589 -0.488389
-0.071887 0.245653 -0.488315
-0.074291 0.244720 -0.488241
-0.076690 0.243788 -0.488167
-0.079085 0.242858 -0.488094
-0.081475 0.241929 -0.488020
-0.083860 0.241003 -0.487947
-0.086241 0.240078 -0.487874
-0.088618 0.239155 -0.487801
-0.090990 0.238234 -0.487728
-0.093357 0.237314 -0.487655
-0.095720 0.236396 -0.487582
-0.098079 0.235480 -0.487510
-0.100433 0.234566 -0.487437
-0.102782 0.233653 -0.487365
-0.105128 0.232742 -0.487293
-0.108316 0.230925 -0.488160
-0.110649 0.230020 -0.488087
-0.112978 0.229116 -0.488015
-0.115303 0.228213 -0.487942
-0.117623 0.227312 -0.487870
-0.119939 0.226413 -0.487798
-0.122251 0.225516 -0.487726
-0.124558 0.224620 -0.487654
-0.126861 0.223727 -0.487583
-0.129160 0.222834 -0.487511
-0.131454 0.221943 -0.487440
-0.133744 0.221055 -0.487368
-0.136030 0.220167 -0.487297
-0.138312 0.219281 -0.487226
-0.140589 0.218397 -0.487155
-0.142862 0.217515 -0.487084
-0.145931 0.215755 -0.487938
-0.148192 0.214878 -0.487867
-0.150450 0.214002 -0.487796
-0.152704 0.213127 -0.487725
-0.154953 0.212255 -0.487654
-0.157198 0.211384 -0.487583
-0.159440 0.210514 -0.487512
-0.160897 0.210514 -0.486523
-0.163133 0.209646 -0.486453
-0.165364 0.208780 -0.486384
-0.167592 0.207916 -0.486314
-0.169815 0.207052 -0.486245
-0.172034 0.206191 -0.486176
-0.174250 0.205331 -0.486107
-0.176461 0.204473 -0.486038
-0.178668 0.203616 -0.485970
-0.180871 0.202761 -0.485901
-0.183822 0.201055 -0.486744
-0.186015 0.200204 -0.486674
-0.188203 0.199355 -0.486605
-0.190387 0.198508 -0.486537
-0.192568 0.197662 -0.486468
-0.194744 0.196818 -0.486399
-0.197652 0.195134 -0.487236
-0.199818 0.194294 -0.487167
-0.201980 0.193455 -0.487098
-0.204138 0.192619 -0.487029
-0.206292 0.191783 -0.486960
-0.208443 0.190950 -0.486891
-0.210589 0.190118 -0.486823
-0.212732 0.189287 -0.486755
-0.214871 0.188458 -0.486686
-0.217006 0.187630 -0.486618
-0.219137 0.186804 -0.486550
-0.221264 0.185979 -0.486482
-0.223387 0.185155 -0.486414
-0.225507 0.184334 -0.486347
-0.227623 0.183513 -0.486279
-0.229735 0.182694 -0.486212
-0.231843 0.181877 -0.486145
-0.233948 0.181061 -0.486077
-0.236049 0.180246 -0.486010
-0.238146 0.179433 -0.485943
-0.240239 0.178622 -0.485877
-0.242329 0.177811 -0.485810
-0.244415 0.177003 -0.485743
-0.246497 0.176195 -0.485677
-0.248575 0.175389 -0.485611
-0.250650 0.174585 -0.485544
-0.252721 0.173782 -0.485478
-0.254789 0.172980 -0.485412
-0.256188 0.172980 -0.484462
-0.257588 0.172980 -0.483512
-0.259649 0.172180 -0.483448
-0.261707 0.171381 -0.483384
-0.263761 0.170584 -0.483320
-0.265812 0.169788 -0.483256
-0.267859 0.168994 -0.483192
-0.269252 0.168994 -0.482247
-0.270645 0.168994 -0.481301
-0.272686 0.168200 -0.481239
-0.274078 0.168200 -0.480294
-0.275470 0.168200 -0.479349
-0.277505 0.167409 -0.479289
-0.278896 0.167409 -0.478344
-0.280926 0.166618 -0.478285
-0.282316 0.166618 -0.477342
-0.284341 0.165829 -0.477283
-0.285729 0.165829 -0.476341
-0.287750 0.165042 -0.476283
-0.289137 0.165042 -0.475342
-0.291153 0.164255 -0.475285
-0.293165 0.163471 -0.475229
-0.294550 0.163471 -0.474289
-0.296557 0.162687 -0.474233
-0.297941 0.162687 -0.473294
-0.299943 0.161905 -0.473240
-0.301326 0.161905 -0.472301
-0.303324 0.161124 -0.472248
-0.304705 0.161124 -0.471310
-0.306698 0.160345 -0.471257
-0.308078 0.160345 -0.470320
-0.310067 0.159567 -0.470269
-0.311446 0.159567 -0.469333
-0.313430 0.158790 -0.469282
-0.314807 0.158790 -0.468347
-0.316787 0.158015 -0.468297
-0.318163 0.158015 -0.467362
-0.320138 0.157241 -0.467313
-0.321513 0.157241 -0.466380
-0.323483 0.156468 -0.466331
-0.324857 0.156468 -0.465399
-0.326231 0.156468 -0.464466
-0.327605 0.156468 -0.463533
-0.328979 0.156468 -0.462600
-0.330941 0.155697 -0.462556
-0.332314 0.155697 -0.461624
-0.333687 0.155697 -0.460692
-0.335643 0.154927 -0.460649
-0.337014 0.154927 -0.459718
-0.338386 0.154927 -0.458786
-0.340336 0.154158 -0.458745
-0.341707 0.154158 -0.457815
-0.343653 0.153391 -0.457774
-0.345022 0.153391 -0.456844
-0.346391 0.153391 -0.455915
-0.348331 0.152625 -0.455876
-0.349699 0.152625 -0.454947
-0.351067 0.152625 -0.454019
-0.353002 0.151860 -0.453981
-0.354369 0.151860 -0.453053
-0.355735 0.151860 -0.452126
-0.357664 0.151097 -0.452090
-0.359030 0.151097 -0.451163
-0.360954 0.150335 -0.451128
-0.362318 0.150335 -0.450202
-0.363683 0.150335 -0.449276
-0.365601 0.149574 -0.449242
-0.366965 0.149574 -0.448317
-0.368328 0.149574 -0.447391
-0.370241 0.148815 -0.447360
-0.371603 0.148815 -0.446435
-0.372965 0.148815 -0.445511
-0.374873 0.148057 -0.445481
-0.376234 0.148057 -0.444557
-0.377595 0.148057 -0.443633
-0.378956 0.148057 -0.442709
-0.380856 0.147300 -0.442682
-0.382216 0.147300 -0.441759
-0.383576 0.147300 -0.440835
-0.385470 0.146545 -0.440810
-0.386829 0.146545 -0.439887
-0.388188 0.146545 -0.438965
-0.389546 0.146545 -0.438043
-0.391435 0.145790 -0.438019
-0.392792 0.145790 -0.437098
-0.394150 0.145790 -0.436176
-0.396032 0.145037 -0.436155
-0.397388 0.145037 -0.435234
-0.398745 0.145037 -0.434313
-0.400101 0.145037 -0.433392
-0.401977 0.144286 -0.433373
-0.403332 0.144286 -0.432453
-0.404687 0.144286 -0.431533
-0.406042 0.144286 -0.430613
-0.407398 0.144286 -0.429693
-0.409266 0.143536 -0.429677
-0.410620 0.143536 -0.428758
-0.411974 0.143536 -0.427839
-0.413328 0.143536 -0.426920
-0.414682 0.143536 -0.426001
-0.416036 0.143536 -0.425081
-0.417390 0.143536 -0.424162
-0.418744 0.143536 -0.423243
-0.420098 0.143536 -0.422324
-0.421452 0.143536 -0.421405
-0.422806 0.143536 -0.420486
-0.424160 0.143536 -0.419566
-0.425514 0.143536 -0.418647
-0.427365 0.142786 -0.418641
-0.428717 0.142786 -0.417722
-0.430070 0.142786 -0.416804
-0.431423 0.142786 -0.415886
-0.432776 0.142786 -0.414967
-0.434129 0.142786 -0.414049
-0.435482 0.142786 -0.413130
-0.436835 0.142786 -0.412212
-0.438187 0.142786 -0.411294
-0.439540 0.142786 -0.410375
-0.440893 0.142786 -0.409457
-0.441762 0.143536 -0.407617
-0.443116 0.143536 -0.406698
-0.444470 0.143536 -0.405779
-0.445342 0.144286 -0.403935
-0.446698 0.144286 -0.403015
-0.448053 0.144286 -0.402095
-0.448929 0.145037 -0.400246
-0.450285 0.145037 -0.399325
-0.451164 0.145790 -0.397472
-0.452045 0.146545 -0.395616
-0.453404 0.146545 -0.394694
-0.454287 0.147300 -0.392834
-0.455647 0.147300 -0.391910
-0.456532 0.148057 -0.390046
-0.457893 0.148057 -0.389122
-0.458782 0.148815 -0.387254
-0.460144 0.148815 -0.386330
-0.461035 0.149574 -0.384457
-0.461928 0.150335 -0.382582
-0.463293 0.150335 -0.381656
-0.464188 0.151097 -0.379776
-0.465554 0.151097 -0.378849
-0.466452 0.151860 -0.376966
-0.467352 0.152625 -0.375079
-0.467318 0.154927 -0.371262
-0.468221 0.155697 -0.369364
-0.468658 0.157241 -0.366491
-0.469096 0.158790 -0.363608
-0.469536 0.160345 -0.360715
-0.469978 0.161905 -0.357812
-0.469950 0.164255 -0.353910
-0.469922 0.166618 -0.349986
-0.466556 0.174585 -0.338978
-0.463130 0.182694 -0.327773
0.130196 0.329165 -0.482177
0.126196 0.326964 -0.483142
0.122213 0.324772 -0.484104
0.119410 0.323680 -0.484028
0.116613 0.322589 -0.483953
0.113821 0.321501 -0.483878
0.111036 0.320415 -0.483802
0.108256 0.319332 -0.483727
0.105481 0.318251 -0.483652
0.102713 0.317171 -0.483578
0.099950 0.316094 -0.483503
0.096061 0.313947 -0.484454
0.093314 0.312877 -0.484379
0.090572 0.311809 -0.484304
0.087836 0.310743 -0.484229
0.083991 0.308617 -0.485174
0.081270 0.307558 -0.485098
0.078554 0.306501 -0.485023
0.075844 0.305445 -0.484947
0.072044 0.303341 -0.485886
0.069348 0.302293 -0.485810
0.066658 0.301246 -0.485734
0.062892 0.299159 -0.486667
0.060216 0.298119 -0.486591
0.057546 0.297081 -0.486515
0.053813 0.295010 -0.487442
0.051158 0.293978 -0.487365
0.048508 0.292949 -0.487289
0.045863 0.291921 -0.487212
0.043223 0.290895 -0.487136
0.040589 0.289871 -0.487060
0.037960 0.288850 -0.486983
0.035336 0.287830 -0.486907
0.031681 0.285797 -0.487826
0.029071 0.284783 -0.487750
0.025439 0.282762 -0.488664
0.022843 0.281754 -0.488587
0.020253 0.280749 -0.488510
0.017667 0.279745 -0.488433
0.015087 0.278744 -0.488356
0.012512 0.277744 -0.488279
0.008937 0.275751 -0.489186
0.006376 0.274757 -0.489109
0.003819 0.273766 -0.489032
0.002261 0.273766 -0.487975
-0.000289 0.272776 -0.487899
-0.003820 0.270802 -0.488802
-0.006357 0.269818 -0.488726
-0.008888 0.268836 -0.488649
-0.011415 0.267856 -0.488573
-0.013936 0.266878 -0.488497
-0.016453 0.265901 -0.488421
-0.018965 0.264927 -0.488346
-0.021472 0.263955 -0.488270
-0.023974 0.262984 -0.488195
-0.026471 0.262015 -0.488120
-0.028963 0.261049 -0.488045
-0.031451 0.260084 -0.487970
-0.033934 0.259120 -0.487895
-0.036411 0.258159 -0.487820
-0.038884 0.257200 -0.487746
-0.042287 0.255287 -0.488635
-0.044747 0.254333 -0.488560
-0.047203 0.253381 -0.488485
-0.049653 0.252431 -0.488410
-0.052099 0.251483 -0.488336
-0.054541 0.250536 -0.488261
-0.056977 0.249592 -0.488187
-0.059409 0.248649 -0.488113
-0.061836 0.247708 -0.488039
-0.064259 0.246769 -0.487965
-0.066677 0.245831 -0.487891
-0.069090 0.244896 -0.487817
-0.071499 0.243962 -0.487744
-0.073903 0.243030 -0.487671
-0.076303 0.242099 -0.487597
-0.078698 0.241171 -0.487524
-0.081088 0.240244 -0.487451
-0.083474 0.239319 -0.487378
-0.086731 0.237474 -0.488253
-0.089105 0.236555 -0.488179
-0.091474 0.235637 -0.488106
-0.093839 0.234720 -0.488033
-0.096199 0.233806 -0.487960
-0.098555 0.232893 -0.487887
-0.100906 0.231982 -0.487815
-0.103253 0.231073 -0.487742
-0.105596 0.230165 -0.487670
-0.107934 0.229259 -0.487597
-0.110268 0.228355 -0.487525
-0.112597 0.227452 -0.487453
-0.114922 0.226552 -0.487381
-0.117243 0.225652 -0.487310
-0.119559 0.224755 -0.487238
-0.121871 0.223859 -0.487167
-0.125004 0.222073 -0.488027
-0.127305 0.221182 -0.487955
-0.129601 0.220293 -0.487884
-0.131893 0.219405 -0.487812
-0.134180 0.218519 -0.487740
-0.136464 0.217635 -0.487669
-0.138743 0.216753 -0.487598
-0.141018 0.215872 -0.487526
-0.143288 0.214993 -0.487455
-0.145555 0.214115 -0.487384
-0.147817 0.213239 -0.487314
-0.150075 0.212365 -0.487243
-0.152329 0.211492 -0.487172
-0.154579 0.210621 -0.487102
-0.156824 0.209751 -0.487032
-0.159066 0.208883 -0.486962
-0.161303 0.208017 -0.486892
-0.163536 0.207152 -0.486822
-0.165765 0.206289 -0.486752
-0.167991 0.205427 -0.486682
-0.170211 0.204567 -0.486613
-0.172428 0.203709 -0.486543
-0.174641 0.202852 -0.486474
-0.176850 0.201997 -0.486405
-0.179055 0.201143 -0.486336
-0.182009 0.199440 -0.487178
-0.184203 0.198591 -0.487108
-0.186393 0.197744 -0.487039
-0.188579 0.196898 -0.486970
-0.190762 0.196053 -0.486901
-0.192940 0.195210 -0.486832
-0.195114 0.194369 -0.486763
-0.198018 0.192691 -0.487598
-0.200182 0.191854 -0.487528
-0.202341 0.191019 -0.487459
-0.204497 0.190185 -0.487390
-0.206649 0.189353 -0.487321
-0.208797 0.188522 -0.487252
-0.210942 0.187692 -0.487183
-0.213082 0.186865 -0.487115
-0.215219 0.186038 -0.487046
-0.217351 0.185213 -0.486978
-0.219480 0.184390 -0.486910
-0.220900 0.184390 -0.485946
-0.223024 0.183568 -0.485879
-0.225144 0.182748 -0.485811
-0.227260 0.181929 -0.485744
-0.229372 0.181111 -0.485677
-0.232174 0.179481 -0.486502
-0.234276 0.178668 -0.486435
-0.236375 0.177856 -0.486368
-0.238470 0.177046 -0.486301
-0.240561 0.176237 -0.486234
-0.241968 0.176237 -0.485278
-0.244054 0.175430 -0.485212
-0.246137 0.174624 -0.485146
-0.248216 0.173819 -0.485081
-0.250291 0.173016 -0.485015
-0.252362 0.172215 -0.484949
-0.254430 0.171414 -0.484884
-0.256494 0.170615 -0.484818
-0.257892 0.170615 -0.483869
-0.259952 0.169818 -0.483805
-0.262007 0.169022 -0.483740
-0.264059 0.168228 -0.483676
-0.266108 0.167434 -0.483612
-0.268153 0.166642 -0.483548
-0.269545 0.166642 -0.482603
-0.271585 0.165852 -0.482540
-0.272976 0.165852 -0.481596
-0.274367 0.165852 -0.480651
-0.276401 0.165063 -0.480590
-0.277790 0.165063 -0.479647
-0.279180 0.165063 -0.478703
-0.281208 0.164275 -0.478644
-0.282596 0.164275 -0.477701
-0.284620 0.163489 -0.477643
-0.286007 0.163489 -0.476701
-0.288025 0.162704 -0.476643
-0.289411 0.162704 -0.475702
-0.291425 0.161921 -0.475646
-0.292810 0.161921 -0.474706
-0.294819 0.161139 -0.474650
-0.296202 0.161139 -0.473711
-0.298207 0.160358 -0.473656
-0.300207 0.159579 -0.473601
-0.301588 0.159579 -0.472663
-0.302970 0.159579 -0.471726
-0.304964 0.158800 -0.471673
-0.306344 0.158800 -0.470736
-0.308335 0.158024 -0.470684
-0.309713 0.158024 -0.469748
-0.311699 0.157248 -0.469696
-0.313076 0.157248 -0.468761
-0.315057 0.156474 -0.468711
-0.316434 0.156474 -0.467777
-0.318410 0.155702 -0.467727
-0.320383 0.154931 -0.467678
-0.321757 0.154931 -0.466745
-0.323725 0.154161 -0.466697
-0.325098 0.154161 -0.465765
-0.327061 0.153392 -0.465717
-0.327843 0.154161 -0.463901
-0.329805 0.153392 -0.463855
-0.331176 0.153392 -0.462924
-0.332548 0.153392 -0.461993
-0.334503 0.152625 -0.461948
-0.335874 0.152625 -0.461018
-0.337244 0.152625 -0.460088
-0.339194 0.151859 -0.460045
-0.340563 0.151859 -0.459116
-0.341932 0.151859 -0.458186
-0.343876 0.151094 -0.458145
-0.345817 0.150331 -0.458104
-0.346612 0.151094 -0.456288
-0.348550 0.150331 -0.456249
-0.349917 0.150331 -0.455321
-0.351851 0.149569 -0.455282
-0.353217 0.149569 -0.454355
-0.354582 0.149569 -0.453428
-0.356510 0.148808 -0.453391
-0.357875 0.148808 -0.452465
-0.359239 0.148808 -0.451539
-0.361162 0.148049 -0.451504
-0.362525 0.148049 -0.450578
-0.363888 0.148049 -0.449653
-0.365805 0.147291 -0.449619
-0.367167 0.147291 -0.448695
-0.369079 0.146534 -0.448662
-0.370440 0.146534 -0.447738
-0.371801 0.146534 -0.446814
-0.373162 0.146534 -0.445890
-0.375068 0.145778 -0.445860
-0.376428 0.145778 -0.444937
-0.377788 0.145778 -0.444014
-0.379687 0.145024 -0.443986
-0.381046 0.145024 -0.443063
-0.382405 0.145024 -0.442141
-0.384299 0.144271 -0.442114
-0.385656 0.144271 -0.441193
-0.387014 0.144271 -0.440271
-0.388371 0.144271 -0.439350
-0.390259 0.143520 -0.439325
-0.391615 0.143520 -0.438404
-0.392972 0.143520 -0.437484
-0.394853 0.142769 -0.437461
-0.396209 0.142769 -0.436541
-0.397564 0.142769 -0.435621
-0.398919 0.142769 -0.434701
-0.400794 0.142020 -0.434681
-0.402148 0.142020 -0.433761
-0.403502 0.142020 -0.432842
-0.404856 0.142020 -0.431923
-0.406725 0.141273 -0.431905
-0.408078 0.141273 -0.430987
-0.409431 0.141273 -0.430068
-0.410783 0.141273 -0.429150
-0.412136 0.141273 -0.428232
-0.413489 0.141273 -0.427313
-0.414842 0.141273 -0.426395
-0.416195 0.141273 -0.425477
-0.417548 0.141273 -0.424558
-0.418900 0.141273 -0.423640
-0.420755 0.140526 -0.423629
-0.422107 0.140526 -0.422711
-0.423459 0.140526 -0.421794
-0.424811 0.140526 -0.420876
-0.426162 0.140526 -0.419958
-0.427514 0.140526 -0.419041
-0.428866 0.140526 -0.418123
-0.430217 0.140526 -0.417206
-0.431569 0.140526 -0.416288
-0.432921 0.140526 -0.415370
-0.434272 0.140526 -0.414453
-0.435624 0.140526 -0.413535
-0.436976 0.140526 -0.412618
-0.438328 0.140526 -0.411700
-0.439679 0.140526 -0.410782
-0.441031 0.140526 -0.409865
-0.441899 0.141273 -0.408027
-0.443252 0.141273 -0.407109
-0.444605 0.141273 -0.406191
-0.445477 0.142020 -0.404348
-0.446831 0.142020 -0.403429
-0.448185 0.142020 -0.402510
-0.449060 0.142769 -0.400663
-0.450415 0.142769 -0.399743
-0.451771 0.142769 -0.398823
-0.453126 0.142769 -0.397903
-0.454006 0.143520 -0.396050
-0.455363 0.143520 -0.395130
-0.456246 0.144271 -0.393273
-0.457131 0.145024 -0.391413
-0.458490 0.145024 -0.390491
-0.459377 0.145778 -0.388627
-0.460737 0.145778 -0.387704
-0.461627 0.146534 -0.385836
-0.462988 0.146534 -0.384913
-0.463881 0.147291 -0.383041
-0.464776 0.148049 -0.381166
-0.465672 0.148808 -0.379288
-0.466569 0.149569 -0.377406
-0.467468 0.150331 -0.375522
-0.467902 0.151859 -0.372672
-0.468805 0.152625 -0.370778
-0.469709 0.153392 -0.368881
-0.470615 0.154161 -0.366981
-0.471056 0.155702 -0.364104
-0.471498 0.157248 -0.361217
-0.471942 0.158800 -0.358320
-0.472388 0.160358 -0.355413
-0.472366 0.162704 -0.351504
-0.469507 0.169818 -0.341549
-0.466119 0.177856 -0.330407
0.132261 0.327326 -0.482672
0.128257 0.325129 -0.483636
0.125442 0.324033 -0.483561
0.121464 0.321850 -0.484521
0.119829 0.321850 -0.483411
0.117032 0.320761 -0.483336
0.114240 0.319675 -0.483261
0.110302 0.317510 -0.484218
0.107525 0.316430 -0.484142
0.104755 0.315353 -0.484067
0.101990 0.314278 -0.483992
0.099231 0.313205 -0.483917
0.096477 0.312134 -0.483842
0.092603 0.309999 -0.484791
0.089865 0.308935 -0.484715
0.087132 0.307873 -0.484640
0.084405 0.306814 -0.484565
0.080575 0.304700 -0.485507
0.077863 0.303647 -0.485431
0.074059 0.301547 -0.486369
0.071361 0.300500 -0.486292
0.068669 0.299455 -0.486216
0.064899 0.297372 -0.487148
0.062221 0.296333 -0.487071
0.059549 0.295297 -0.486994
0.056883 0.294262 -0.486918
0.054221 0.293230 -0.486841
0.051565 0.292200 -0.486765
0.047856 0.290146 -0.487690
0.045214 0.289122 -0.487613
0.042578 0.288100 -0.487536
0.039947 0.287080 -0.487459
0.037321 0.286062 -0.487383
0.034701 0.285046 -0.487307
0.032085 0.284032 -0.487230
0.029475 0.283021 -0.487155
0.025842 0.281003 -0.488070
0.022224 0.278993 -0.488982
0.019636 0.277992 -0.488905
0.017054 0.276992 -0.488827
0.014477 0.275994 -0.488750
0.011905 0.274998 -0.488673
0.009338 0.274004 -0.488597
0.006776 0.273012 -0.488520
0.004219 0.272022 -0.488444
0.001667 0.271034 -0.488367
-0.000880 0.270048 -0.488291
-0.003422 0.269064 -0.488215
-0.005959 0.268082 -0.488139
-0.008491 0.267101 -0.488064
-0.011018 0.266123 -0.487988
-0.013540 0.265146 -0.487913
-0.017025 0.263199 -0.488811
-0.019533 0.262228 -0.488735
-0.022037 0.261259 -0.488659
-0.024536 0.260292 -0.488583
-0.027031 0.259327 -0.488508
-0.029520 0.258364 -0.488432
-0.032005 0.257402 -0.488357
-0.034484 0.256443 -0.488282
-0.036959 0.255485 -0.488207
-0.039429 0.254529 -0.488132
-0.041895 0.253575 -0.488057
-0.044355 0.252623 -0.487983
-0.046811 0.251673 -0.487909
-0.049262 0.250725 -0.487834
-0.051708 0.249778 -0.487760
-0.054150 0.248833 -0.487686
-0.057501 0.246949 -0.488570
-0.059930 0.246009 -0.488496
-0.062354 0.245072 -0.488421
-0.064774 0.244136 -0.488347
-0.067189 0.243202 -0.488273
-0.069600 0.242270 -0.488199
-0.072006 0.241339 -0.488125
-0.074407 0.240411 -0.488051
-0.076804 0.239484 -0.487978
-0.079196 0.238559 -0.487905
-0.081584 0.237635 -0.487831
-0.083967 0.236714 -0.487758
-0.086346 0.235794 -0.487685
-0.088720 0.234876 -0.487612
-0.091089 0.233959 -0.487540
-0.094319 0.232132 -0.488410
-0.096677 0.231221 -0.488337
-0.099030 0.230311 -0.488264
-0.101379 0.229403 -0.488191
-0.103723 0.228497 -0.488118
-0.106063 0.227593 -0.488046
-0.108399 0.226690 -0.487973
-0.110730 0.225789 -0.487901
-0.113056 0.224890 -0.487828
-0.115379 0.223992 -0.487756
-0.117697 0.223096 -0.487684
-0.120011 0.222202 -0.487612
-0.122320 0.221310 -0.487541
-0.124625 0.220419 -0.487469
-0.126926 0.219530 -0.487398
-0.129222 0.218642 -0.487326
-0.132330 0.216872 -0.488184
-0.134615 0.215989 -0.488112
-0.136896 0.215108 -0.488040
-0.139173 0.214229 -0.487968
-0.141445 0.213351 -0.487897
-0.143713 0.212475 -0.487826
-0.145977 0.211600 -0.487754
-0.148237 0.210728 -0.487683
-0.150493 0.209856 -0.487612
-0.152744 0.208987 -0.487541
-0.154991 0.208119 -0.487471
-0.157234 0.207252 -0.487400
-0.159473 0.206387 -0.487330
-0.160930 0.206387 -0.486341
-0.163163 0.205524 -0.486272
-0.165393 0.204662 -0.486203
-0.168389 0.202944 -0.487049
-0.170607 0.202087 -0.486980
-0.172057 0.202087 -0.485996
-0.174270 0.201231 -0.485927
-0.176479 0.200378 -0.485858
-0.178684 0.199525 -0.485790
-0.181639 0.197826 -0.486633
-0.183834 0.196978 -0.486564
-0.186024 0.196132 -0.486495
-0.188210 0.195287 -0.486426
-0.191135 0.193603 -0.487264
-0.193311 0.192763 -0.487195
-0.195483 0.191925 -0.487126
-0.197651 0.191088 -0.487057
-0.199815 0.190252 -0.486988
-0.201975 0.189419 -0.486919
-0.204131 0.188586 -0.486850
-0.206283 0.187755 -0.486782
-0.208432 0.186926 -0.486713
-0.210576 0.186098 -0.486645
-0.212717 0.185272 -0.486577
-0.214854 0.184447 -0.486509
-0.216987 0.183623 -0.486441
-0.219116 0.182801 -0.486373
-0.221242 0.181981 -0.486306
-0.223363 0.181162 -0.486238
-0.225481 0.180345 -0.486171
-0.227595 0.179528 -0.486103
-0.229705 0.178714 -0.486036
-0.231812 0.177901 -0.485969
-0.233914 0.177089 -0.485902
-0.236013 0.176279 -0.485835
-0.238109 0.175470 -0.485769
-0.240200 0.174662 -0.485702
-0.242288 0.173856 -0.485635
-0.244372 0.173052 -0.485569
-0.246452 0.172249 -0.485503
-0.248529 0.171447 -0.485437
-0.250602 0.170647 -0.485371
-0.252672 0.169848 -0.485305
-0.254737 0.169051 -0.485239
-0.256799 0.168255 -0.485173
-0.258858 0.167460 -0.485108
-0.260254 0.167460 -0.484160
-0.262307 0.166667 -0.484096
-0.264357 0.165875 -0.484031
-0.266403 0.165085 -0.483967
-0.268446 0.164296 -0.483903
-0.270485 0.163508 -0.483839
-0.271875 0.163508 -0.482895
-0.273265 0.163508 -0.481952
-0.274654 0.163508 -0.481008
-0.276686 0.162722 -0.480947
-0.278075 0.162722 -0.480004
-0.279463 0.162722 -0.479062
-0.281489 0.161937 -0.479002
-0.282876 0.161937 -0.478060
-0.284898 0.161153 -0.478002
-0.286284 0.161153 -0.477061
-0.288300 0.160371 -0.477003
-0.289685 0.160371 -0.476063
-0.291697 0.159590 -0.476006
-0.293080 0.159590 -0.475066
-0.295087 0.158811 -0.475010
-0.296470 0.158811 -0.474072
-0.298472 0.158033 -0.474017
-0.299853 0.158033 -0.473079
-0.301851 0.157256 -0.473025
-0.303231 0.157256 -0.472088
-0.305223 0.156481 -0.472035
-0.306602 0.156481 -0.471099
-0.308590 0.155707 -0.471046
-0.309968 0.155707 -0.470111
-0.311952 0.154934 -0.470060
-0.313328 0.154934 -0.469125
-0.315307 0.154163 -0.469075
-0.316682 0.154163 -0.468141
-0.318656 0.153393 -0.468091
-0.320030 0.153393 -0.467159
-0.322000 0.152624 -0.467110
-0.323373 0.152624 -0.466178
-0.325338 0.151857 -0.466130
-0.326710 0.151857 -0.465199
-0.328670 0.151091 -0.465152
-0.330040 0.151091 -0.464221
-0.331411 0.151091 -0.463291
-0.332781 0.151091 -0.462361
-0.334735 0.150326 -0.462316
-0.336104 0.150326 -0.461387
-0.337473 0.150326 -0.460457
-0.339421 0.149563 -0.460414
-0.340789 0.149563 -0.459486
-0.342157 0.149563 -0.458557
-0.344099 0.148801 -0.458516
-0.346038 0.148040 -0.458475
-0.347404 0.148040 -0.457548
-0.348769 0.148040 -0.456621
-0.350135 0.148040 -0.455693
-0.352067 0.147281 -0.455655
-0.353431 0.147281 -0.454729
-0.354796 0.147281 -0.453802
-0.356722 0.146523 -0.453765
-0.358085 0.146523 -0.452840
-0.360007 0.145766 -0.452804
-0.361369 0.145766 -0.451879
-0.362731 0.145766 -0.450954
-0.364647 0.145011 -0.450920
-0.366008 0.145011 -0.449996
-0.367369 0.145011 -0.449072
-0.369280 0.144257 -0.449039
-0.370640 0.144257 -0.448116
-0.371999 0.144257 -0.447193
-0.373904 0.143504 -0.447162
-0.375263 0.143504 -0.446239
-0.376622 0.143504 -0.445317
-0.377980 0.143504 -0.444395
-0.379878 0.142752 -0.444366
-0.381236 0.142752 -0.443444
-0.382593 0.142752 -0.442523
-0.384486 0.142002 -0.442496
-0.385842 0.142002 -0.441575
-0.387198 0.142002 -0.440654
-0.389085 0.141253 -0.440629
-0.390440 0.141253 -0.439709
-0.391796 0.141253 -0.438789
-0.393677 0.140505 -0.438765
-0.395031 0.140505 -0.437846
-0.396385 0.140505 -0.436927
-0.397739 0.140505 -0.436007
-0.399614 0.139759 -0.435986
-0.400966 0.139759 -0.435068
-0.402319 0.139759 -0.434149
-0.403672 0.139759 -0.433231
-0.405540 0.139013 -0.433212
-0.406892 0.139013 -0.432294
-0.408243 0.139013 -0.431376
-0.409595 0.139013 -0.430459
-0.411456 0.138270 -0.430442
-0.412807 0.138270 -0.429525
-0.414158 0.138270 -0.428609
-0.415508 0.138270 -0.427692
-0.416859 0.138270 -0.426775
-0.418209 0.138270 -0.425858
-0.419560 0.138270 -0.424941
-0.420910 0.138270 -0.424024
-0.422261 0.138270 -0.423108
-0.423611 0.138270 -0.422191
-0.424962 0.138270 -0.421274
-0.426312 0.138270 -0.420357
-0.427663 0.138270 -0.419440
-0.429014 0.138270 -0.418524
-0.430364 0.138270 -0.417607
-0.431715 0.138270 -0.416690
-0.433065 0.138270 -0.415773
-0.434416 0.138270 -0.414856
-0.435766 0.138270 -0.413940
-0.437117 0.138270 -0.413023
-0.438467 0.138270 -0.412106
-0.439818 0.138270 -0.411189
-0.441168 0.138270 -0.410272
-0.442036 0.139013 -0.408437
-0.443388 0.139013 -0.407519
-0.444739 0.139013 -0.406601
-0.445611 0.139759 -0.404761
-0.446963 0.139759 -0.403843
-0.448316 0.139759 -0.402924
-0.449191 0.140505 -0.401079
-0.450545 0.140505 -0.400160
-0.451899 0.140505 -0.399241
-0.453253 0.140505 -0.398322
-0.454133 0.141253 -0.396471
-0.455489 0.141253 -0.395551
-0.456844 0.141253 -0.394631
-0.458199 0.141253 -0.393711
-0.459084 0.142002 -0.391855
-0.460440 0.142002 -0.390934
-0.461328 0.142752 -0.389074
-0.462217 0.143504 -0.387211
-0.463108 0.144257 -0.385344
-0.464468 0.144257 -0.384421
-0.465361 0.145011 -0.382551
-0.466256 0.145766 -0.380677
-0.467153 0.146523 -0.378800
-0.468051 0.147281 -0.376920
-0.469415 0.147281 -0.375993
-0.469386 0.149563 -0.372188
-0.470289 0.150326 -0.370296
-0.471194 0.151091 -0.368400
-0.471635 0.152624 -0.365530
-0.473008 0.152624 -0.364599
-0.473453 0.154163 -0.361718
-0.473900 0.155707 -0.358826
-0.474348 0.157256 -0.355925
-0.474798 0.158811 -0.353014
-0.471966 0.165875 -0.343097
-0.468609 0.173856 -0.331999
0.134326 0.325487 -0.483166
0.130318 0.323293 -0.484130
0.127501 0.322200 -0.484054
0.124689 0.321109 -0.483978
0.121884 0.320020 -0.483903
0.119084 0.318933 -0.483827
0.116290 0.317849 -0.483752
0.113502 0.316767 -0.483677
0.110719 0.315687 -0.483602
0.106797 0.313534 -0.484556
0.104030 0.312461 -0.484481
0.101268 0.311390 -0.484405
0.098513 0.310321 -0.484330
0.095763 0.309255 -0.484255
0.093018 0.308190 -0.484180
0.089159 0.306068 -0.485126
0.086430 0.305010 -0.485050
0.082597 0.302900 -0.485991
0.079882 0.301849 -0.485915
0.077173 0.300799 -0.485839
0.073374 0.298707 -0.486774
0.070680 0.297664 -0.486698
0.067991 0.296623 -0.486621
0.065308 0.295584 -0.486545
0.061552 0.293513 -0.487474
0.058883 0.292480 -0.487397
0.056220 0.291450 -0.487320
0.053562 0.290422 -0.487243
0.050910 0.289395 -0.487167
0.048262 0.288371 -0.487090
0.045620 0.287349 -0.487014
0.042984 0.286329 -0.486938
0.039306 0.284294 -0.487858
0.036683 0.283280 -0.487782
0.034066 0.282268 -0.487705
0.031454 0.281258 -0.487629
0.027817 0.279244 -0.488543
0.025219 0.278240 -0.488466
0.022626 0.277238 -0.488389
0.020038 0.276238 -0.488312
0.016442 0.274244 -0.489221
0.013868 0.273249 -0.489144
0.011299 0.272257 -0.489067
0.008735 0.271267 -0.488989
0.007176 0.271267 -0.487931
0.004618 0.270279 -0.487855
0.001074 0.268308 -0.488759
-0.001470 0.267325 -0.488683
-0.004009 0.266345 -0.488606
-0.006543 0.265366 -0.488530
-0.009072 0.264390 -0.488454
-0.011595 0.263415 -0.488378
-0.014114 0.262442 -0.488303
-0.016629 0.261471 -0.488227
-0.019138 0.260502 -0.488152
-0.021642 0.259535 -0.488077
-0.024141 0.258569 -0.488001
-0.026636 0.257606 -0.487926
-0.030076 0.255684 -0.488819
-0.032557 0.254727 -0.488744
-0.035034 0.253771 -0.488668
-0.037506 0.252816 -0.488593
-0.039973 0.251864 -0.488518
-0.042436 0.250914 -0.488443
-0.044893 0.249965 -0.488368
-0.047346 0.249018 -0.488293
-0.049794 0.248073 -0.488219
-0.052238 0.247130 -0.488144
-0.054677 0.246189 -0.488070
-0.057111 0.245249 -0.487996
-0.059540 0.244311 -0.487922
-0.061965 0.243375 -0.487848
-0.064385 0.242441 -0.487775
-0.066801 0.241509 -0.487701
-0.070108 0.239649 -0.488580
-0.072511 0.238722 -0.488506
-0.074910 0.237797 -0.488432
-0.077304 0.236873 -0.488358
-0.079693 0.235952 -0.488284
-0.082078 0.235032 -0.488211
-0.084459 0.234113 -0.488137
-0.086835 0.233197 -0.488064
-0.089206 0.232282 -0.487991
-0.091573 0.231369 -0.487918
-0.093935 0.230458 -0.487845
-0.096293 0.229548 -0.487772
-0.098647 0.228640 -0.487700
-0.100996 0.227734 -0.487628
-0.103341 0.226829 -0.487555
-0.105681 0.225926 -0.487483
-0.108017 0.225025 -0.487411
-0.110348 0.224126 -0.487339
-0.113515 0.222332 -0.488203
-0.115835 0.221438 -0.488130
-0.118150 0.220545 -0.488058
-0.120461 0.219654 -0.487986
-0.122768 0.218765 -0.487914
-0.125071 0.217877 -0.487842
-0.127369 0.216991 -0.487770
-0.129663 0.216107 -0.487699
-0.131952 0.215224 -0.487627
-0.134238 0.214343 -0.487556
-0.136519 0.213463 -0.487485
-0.138796 0.212586 -0.487414
-0.141069 0.211709 -0.487343
-0.143337 0.210835 -0.487272
-0.145602 0.209962 -0.487201
-0.147862 0.209091 -0.487131
-0.150909 0.207353 -0.487981
-0.153158 0.206486 -0.487910
-0.155403 0.205621 -0.487839
-0.157644 0.204758 -0.487768
-0.159880 0.203896 -0.487698
-0.161335 0.203896 -0.486710
-0.163566 0.203036 -0.486640
-0.165793 0.202177 -0.486571
-0.168016 0.201320 -0.486501
-0.170235 0.200465 -0.486432
-0.172450 0.199611 -0.486363
-0.174661 0.198759 -0.486294
-0.176868 0.197908 -0.486225
-0.179826 0.196211 -0.487067
-0.182022 0.195365 -0.486998
-0.184214 0.194520 -0.486928
-0.186402 0.193677 -0.486859
-0.188586 0.192836 -0.486790
-0.190767 0.191996 -0.486721
-0.192943 0.191157 -0.486653
-0.195115 0.190320 -0.486584
-0.198016 0.188651 -0.487419
-0.200178 0.187818 -0.487349
-0.202336 0.186988 -0.487280
-0.204490 0.186158 -0.487211
-0.206640 0.185330 -0.487143
-0.208786 0.184504 -0.487074
-0.210929 0.183679 -0.487005
-0.213067 0.182855 -0.486937
-0.215202 0.182033 -0.486869
-0.217332 0.181213 -0.486800
-0.219459 0.180394 -0.486732
-0.221583 0.179576 -0.486665
-0.223702 0.178760 -0.486597
-0.225818 0.177945 -0.486529
-0.227232 0.177945 -0.485569
-0.229343 0.177132 -0.485502
-0.232142 0.175510 -0.486327
-0.234242 0.174701 -0.486259
-0.236339 0.173894 -0.486192
-0.238432 0.173088 -0.486125
-0.240522 0.172283 -0.486059
