ply
format ascii 1.0
element vertex 1688
property float x
property float y
property float z
end_header
0.355495 -0.079460 -0.066143
0.355884 -0.079460 -0.067928
0.356273 -0.079460 -0.069713
0.357795 -0.080456 -0.071110
0.358184 -0.080456 -0.072893
0.358572 -0.080456 -0.074677
0.358961 -0.080456 -0.076460
0.359350 -0.080456 -0.078244
0.359738 -0.080456 -0.080028
0.361256 -0.081449 -0.081413
0.361644 -0.081449 -0.083195
0.362032 -0.081449 -0.084977
0.362421 -0.081449 -0.086759
0.363934 -0.082441 -0.088136
0.364322 -0.082441 -0.089917
0.364710 -0.082441 -0.091697
0.366219 -0.083430 -0.093068
0.366607 -0.083430 -0.094847
0.366995 -0.083430 -0.096625
0.367382 -0.083430 -0.098404
0.367770 -0.083430 -0.100183
0.368158 -0.083430 -0.101961
0.368545 -0.083430 -0.103740
0.368933 -0.083430 -0.105518
0.369321 -0.083430 -0.107297
0.369708 -0.083430 -0.109075
0.370096 -0.083430 -0.110854
0.370483 -0.083430 -0.112632
0.370871 -0.083430 -0.114411
0.371259 -0.083430 -0.116189
0.371646 -0.083430 -0.117968
0.372034 -0.083430 -0.119746
0.372422 -0.083430 -0.121525
0.372809 -0.083430 -0.123303
0.373197 -0.083430 -0.125082
0.373584 -0.083430 -0.126860
0.373972 -0.083430 -0.128639
0.374360 -0.083430 -0.130417
0.373634 -0.082441 -0.132642
0.374022 -0.082441 -0.134422
0.374410 -0.082441 -0.136202
0.374798 -0.082441 -0.137982
0.375186 -0.082441 -0.139762
0.375574 -0.082441 -0.141543
0.374849 -0.081449 -0.143780
0.375237 -0.081449 -0.145562
0.375625 -0.081449 -0.147343
0.376014 -0.081449 -0.149125
0.376402 -0.081449 -0.150907
0.375677 -0.080456 -0.153155
0.376066 -0.080456 -0.154939
0.376454 -0.080456 -0.156723
0.376843 -0.080456 -0.158506
0.377232 -0.080456 -0.160290
0.376507 -0.079460 -0.162549
0.376896 -0.079460 -0.164334
0.376169 -0.078463 -0.166600
0.376559 -0.078463 -0.168387
0.375832 -0.077464 -0.170658
0.376222 -0.077464 -0.172447
0.376611 -0.077464 -0.174235
0.375884 -0.076463 -0.176515
0.375154 -0.075460 -0.178798
0.374424 -0.074456 -0.181086
0.374815 -0.074456 -0.182880
0.374083 -0.073449 -0.185174
0.374474 -0.073449 -0.186969
0.373742 -0.072440 -0.189269
0.373008 -0.071430 -0.191574
0.372272 -0.070417 -0.193883
0.371535 -0.069402 -0.196196
0.370797 -0.068386 -0.198514
0.371190 -0.068386 -0.200319
0.370451 -0.067368 -0.202643
0.369710 -0.066347 -0.204971
0.368968 -0.065325 -0.207304
0.368224 -0.064300 -0.209642
0.368619 -0.064300 -0.211453
0.367874 -0.063274 -0.213797
0.367128 -0.062246 -0.216146
0.365234 -0.060183 -0.219038
0.364483 -0.059149 -0.221399
0.363731 -0.058112 -0.223764
0.362977 -0.057074 -0.226133
0.362222 -0.056033 -0.228508
0.360308 -0.053946 -0.231441
0.359548 -0.052900 -0.233828
0.358786 -0.051851 -0.236219
0.356858 -0.049748 -0.239179
0.356091 -0.048693 -0.241582
0.354152 -0.046577 -0.244562
0.353381 -0.045516 -0.246978
0.352608 -0.044453 -0.249399
0.350654 -0.042320 -0.252405
0.349876 -0.041251 -0.254839
0.347911 -0.039106 -0.257865
0.347128 -0.038030 -0.260311
0.345152 -0.035872 -0.263358
0.343168 -0.033705 -0.266416
0.342376 -0.032618 -0.268883
0.341583 -0.031530 -0.271354
0.339583 -0.029346 -0.274441
0.338785 -0.028250 -0.276926
0.336774 -0.026053 -0.280033
0.335970 -0.024951 -0.282531
0.333948 -0.022741 -0.285659
0.333139 -0.021632 -0.288170
0.331104 -0.019408 -0.291319
0.330290 -0.018293 -0.293843
0.328244 -0.016055 -0.297013
0.326189 -0.013809 -0.300196
0.322884 -0.010422 -0.304043
0.320808 -0.008152 -0.307256
0.318723 -0.005873 -0.310483
0.316630 -0.003585 -0.313722
0.313265 -0.000135 -0.317647
0.311150 0.002176 -0.320918
0.309026 0.004498 -0.324203
0.306893 0.006828 -0.327501
0.303466 0.010343 -0.331504
0.301311 0.012698 -0.334835
0.299146 0.015063 -0.338180
0.295670 0.018629 -0.342246
0.292172 0.022217 -0.346338
0.287330 0.027037 -0.351178
0.282448 0.031898 -0.356060
0.273478 0.040503 -0.363209
0.258858 0.054289 -0.373510
0.262060 0.051758 -0.373995
0.263874 0.050497 -0.375240
0.267055 0.047982 -0.375719
0.268858 0.046729 -0.376958
0.270658 0.045478 -0.378195
0.272453 0.044231 -0.379429
0.274245 0.042986 -0.380660
0.276033 0.041743 -0.381889
0.277817 0.040503 -0.383115
0.279597 0.039266 -0.384339
0.281373 0.038031 -0.385560
0.283146 0.036799 -0.386778
0.284915 0.035570 -0.387994
0.286680 0.034343 -0.389207
0.288442 0.033119 -0.390418
0.288873 0.033119 -0.392396
0.290630 0.031898 -0.393602
0.291061 0.031898 -0.395578
0.294134 0.029462 -0.396006
0.294564 0.029462 -0.397978
0.296309 0.028248 -0.399174
0.298051 0.027037 -0.400368
0.299790 0.025828 -0.401560
0.301525 0.024622 -0.402748
0.301952 0.024622 -0.404712
0.303683 0.023419 -0.405896
0.305410 0.022217 -0.407078
0.305837 0.022217 -0.409037
0.307560 0.021019 -0.410214
0.307987 0.021019 -0.412172
0.309706 0.019823 -0.413344
0.311421 0.018629 -0.414515
0.311847 0.018629 -0.416468
0.313558 0.017438 -0.417634
0.313983 0.017438 -0.419585
0.315691 0.016249 -0.420746
0.317394 0.015063 -0.421905
0.319095 0.013879 -0.423061
0.319519 0.013879 -0.425006
0.321215 0.012698 -0.426159
0.322907 0.011519 -0.427308
0.324597 0.010343 -0.428455
0.325019 0.010343 -0.430395
0.326704 0.009169 -0.431537
0.328386 0.007998 -0.432678
0.328808 0.007998 -0.434613
0.330486 0.006828 -0.435749
0.330907 0.006828 -0.437682
0.331328 0.006828 -0.439615
0.333002 0.005662 -0.440745
0.333423 0.005662 -0.442676
0.333844 0.005662 -0.444607
0.334265 0.005662 -0.446538
0.334685 0.005662 -0.448469
0.335106 0.005662 -0.450400
0.336774 0.004498 -0.451517
0.337195 0.004498 -0.453447
0.337615 0.004498 -0.455376
0.339279 0.003336 -0.456487
0.339699 0.003336 -0.458414
0.340119 0.003336 -0.460341
0.340539 0.003336 -0.462268
0.342197 0.002176 -0.463371
0.342617 0.002176 -0.465296
0.344272 0.001019 -0.466395
0.344691 0.001019 -0.468318
0.345110 0.001019 -0.470241
0.346761 -0.000135 -0.471333
0.347180 -0.000135 -0.473254
0.347598 -0.000135 -0.475175
0.348017 -0.000135 -0.477097
0.347206 0.001019 -0.479856
0.347625 0.001019 -0.481779
0.345579 0.003336 -0.485392
0.343524 0.005662 -0.489020
0.163488 -0.007468 0.396444
0.168125 -0.010878 0.394353
0.169941 -0.012010 0.392390
0.381121 -0.182410 0.382116
0.383473 -0.184028 0.380428
0.385816 -0.185640 0.378745
0.387160 -0.186444 0.377104
0.389492 -0.188048 0.375432
0.390829 -0.188848 0.373798
0.392164 -0.189647 0.372166
0.393496 -0.190444 0.370538
0.394827 -0.191240 0.368912
0.394193 -0.190444 0.367342
0.395522 -0.191240 0.365719
0.395870 -0.191240 0.364123
0.397197 -0.192035 0.362504
0.397545 -0.192035 0.360909
0.397893 -0.192035 0.359314
0.398240 -0.192035 0.357719
0.398588 -0.192035 0.356124
0.397958 -0.191240 0.354545
0.398306 -0.191240 0.352949
0.397675 -0.190444 0.351366
0.398023 -0.190444 0.349769
0.398371 -0.190444 0.348171
0.397740 -0.189647 0.346582
0.397107 -0.188848 0.344991
0.397456 -0.188848 0.343391
0.396823 -0.188048 0.341795
0.396188 -0.187247 0.340197
0.396538 -0.187247 0.338594
0.395903 -0.186444 0.336992
0.395266 -0.185640 0.335387
0.394629 -0.184835 0.333779
0.394979 -0.184835 0.332172
0.394341 -0.184028 0.330560
0.393702 -0.183219 0.328946
0.392069 -0.181598 0.327321
0.392420 -0.181598 0.325708
0.391778 -0.180786 0.324085
0.391134 -0.179972 0.322459
0.390489 -0.179157 0.320831
0.390842 -0.179157 0.319214
0.390196 -0.178340 0.317581
0.389549 -0.177522 0.315945
0.388902 -0.176702 0.314307
0.389255 -0.176702 0.312685
0.388606 -0.175881 0.311043
0.387957 -0.175059 0.309397
0.387306 -0.174235 0.307749
0.386654 -0.173410 0.306097
0.387008 -0.173410 0.304470
0.386355 -0.172583 0.302815
0.385701 -0.171755 0.301156
0.386057 -0.171755 0.299527
0.385402 -0.170925 0.297864
0.384746 -0.170094 0.296198
0.384089 -0.169262 0.294529
0.384445 -0.169262 0.292895
0.383787 -0.168428 0.291222
0.383128 -0.167592 0.289546
0.383484 -0.167592 0.287910
0.382825 -0.166756 0.286229
0.382163 -0.165917 0.284546
0.381501 -0.165077 0.282860
0.380838 -0.164236 0.281171
0.381196 -0.164236 0.279528
0.380531 -0.163393 0.277835
0.379866 -0.162549 0.276138
0.379199 -0.161703 0.274438
0.378532 -0.160856 0.272736
0.377863 -0.160007 0.271030
0.377192 -0.159157 0.269322
0.377552 -0.159157 0.267670
0.376881 -0.158305 0.265957
0.376209 -0.157452 0.264241
0.375536 -0.156597 0.262522
0.375897 -0.156597 0.260866
0.375222 -0.155741 0.259143
0.374547 -0.154883 0.257416
0.373870 -0.154024 0.255686
0.372151 -0.152301 0.253881
0.371470 -0.151437 0.252143
0.369742 -0.149704 0.250326
0.369057 -0.148836 0.248581
0.368371 -0.147966 0.246832
0.366631 -0.146221 0.244999
0.364885 -0.144470 0.243160
0.364192 -0.143592 0.241398
0.362437 -0.141831 0.239548
0.361740 -0.140948 0.237778
0.359976 -0.139178 0.235916
0.358205 -0.137402 0.234047
0.356428 -0.135619 0.232171
0.352483 -0.132034 0.230096
0.348511 -0.128422 0.228006
0.342310 -0.122955 0.225699
0.245064 -0.041725 0.214888
0.245468 -0.041725 0.213035
0.245871 -0.041725 0.211183
0.246275 -0.041725 0.209330
0.245392 -0.040653 0.207350
0.245796 -0.040653 0.205496
0.246200 -0.040653 0.203642
0.245316 -0.039579 0.201654
0.245721 -0.039579 0.199798
0.243543 -0.037424 0.197667
0.243948 -0.037424 0.195807
0.244354 -0.037424 0.193947
0.244759 -0.037424 0.192087
0.243871 -0.036343 0.190082
0.244276 -0.036343 0.188220
0.243387 -0.035260 0.186210
0.242496 -0.034175 0.184195
0.241602 -0.033088 0.182176
0.240708 -0.031999 0.180153
0.239811 -0.030907 0.178126
0.240219 -0.030907 0.176255
0.239321 -0.029813 0.174222
0.238421 -0.028717 0.172185
0.237519 -0.027619 0.170143
0.236616 -0.026519 0.168098
0.235710 -0.025416 0.166049
0.234803 -0.024312 0.163995
0.233894 -0.023204 0.161938
0.232984 -0.022095 0.159876
0.233395 -0.022095 0.157990
0.232482 -0.020984 0.155922
0.231568 -0.019870 0.153850
0.230652 -0.018754 0.151774
0.229735 -0.017636 0.149693
0.228815 -0.016515 0.147609
0.227894 -0.015392 0.145520
0.226970 -0.014267 0.143427
0.054878 0.130947 0.116053
0.221077 -0.008607 0.138625
0.230881 -0.016515 0.138130
0.235276 -0.019870 0.136840
0.240957 -0.024312 0.135760
0.246593 -0.028717 0.134688
0.250893 -0.031999 0.133422
0.255166 -0.035260 0.132164
0.258136 -0.037424 0.130710
0.261094 -0.039579 0.129261
0.262771 -0.040653 0.127612
0.263175 -0.040653 0.125758
0.264848 -0.041725 0.124113
0.266518 -0.042795 0.122472
0.268185 -0.043863 0.120835
0.268587 -0.043863 0.118986
0.268990 -0.043863 0.117137
0.269393 -0.043863 0.115288
0.272312 -0.045993 0.113878
0.273968 -0.047055 0.112254
0.276868 -0.049172 0.110855
0.278515 -0.050227 0.109238
0.280158 -0.051280 0.107624
0.281798 -0.052331 0.106014
0.283435 -0.053381 0.104407
0.285068 -0.054428 0.102803
0.286699 -0.055473 0.101202
0.288326 -0.056516 0.099604
0.289950 -0.057557 0.098010
0.291571 -0.058596 0.096418
0.293188 -0.059633 0.094830
0.294803 -0.060668 0.093245
0.296414 -0.061700 0.091662
0.298022 -0.062731 0.090083
0.300834 -0.064787 0.088747
0.301229 -0.064787 0.086934
0.301625 -0.064787 0.085121
0.303223 -0.065812 0.083553
0.303618 -0.065812 0.081742
0.305213 -0.066835 0.080178
0.306805 -0.067856 0.078618
0.307199 -0.067856 0.076810
0.308787 -0.068875 0.075254
0.309181 -0.068875 0.073448
0.310766 -0.069892 0.071897
0.312348 -0.070907 0.070350
0.312741 -0.070907 0.068547
0.314319 -0.071920 0.067004
0.314712 -0.071920 0.065203
0.315104 -0.071920 0.063402
0.315497 -0.071920 0.061601
0.315889 -0.071920 0.059801
0.316282 -0.071920 0.058000
0.316674 -0.071920 0.056199
0.318247 -0.072931 0.054669
0.318640 -0.072931 0.052870
0.319032 -0.072931 0.051071
0.319424 -0.072931 0.049272
0.319816 -0.072931 0.047473
0.320208 -0.072931 0.045674
0.321776 -0.073940 0.044156
0.322168 -0.073940 0.042358
0.322560 -0.073940 0.040561
0.322952 -0.073940 0.038764
0.323343 -0.073940 0.036966
0.324907 -0.074947 0.035458
0.325298 -0.074947 0.033662
0.325690 -0.074947 0.031867
0.326081 -0.074947 0.030071
0.326473 -0.074947 0.028276
0.326864 -0.074947 0.026480
0.327255 -0.074947 0.024684
0.327647 -0.074947 0.022889
0.328038 -0.074947 0.021093
0.328429 -0.074947 0.019298
0.328821 -0.074947 0.017502
0.329212 -0.074947 0.015707
0.329603 -0.074947 0.013911
0.329995 -0.074947 0.012115
0.329219 -0.073940 0.010007
0.329611 -0.073940 0.008209
0.330003 -0.073940 0.006412
0.330394 -0.073940 0.004615
0.330786 -0.073940 0.002817
0.331178 -0.073940 0.001020
0.331570 -0.073940 -0.000777
0.331961 -0.073940 -0.002575
0.331187 -0.072931 -0.004699
0.331579 -0.072931 -0.006499
0.331971 -0.072931 -0.008298
0.332363 -0.072931 -0.010097
0.332755 -0.072931 -0.011896
0.333148 -0.072931 -0.013695
0.333540 -0.072931 -0.015494
0.333932 -0.072931 -0.017293
0.334324 -0.072931 -0.019092
0.334716 -0.072931 -0.020891
0.336270 -0.073940 -0.022345
0.336662 -0.073940 -0.024142
0.338213 -0.074947 -0.025592
0.338605 -0.074947 -0.027388
0.338996 -0.074947 -0.029183
0.340543 -0.075953 -0.030627
0.340934 -0.075953 -0.032421
0.341325 -0.075953 -0.034215
0.341716 -0.075953 -0.036008
0.343259 -0.076956 -0.037444
0.343650 -0.076956 -0.039236
0.344041 -0.076956 -0.041028
0.344431 -0.076956 -0.042820
0.345970 -0.077958 -0.044248
0.346360 -0.077958 -0.046039
0.346751 -0.077958 -0.047829
0.347141 -0.077958 -0.049619
0.348676 -0.078957 -0.051039
0.349066 -0.078957 -0.052828
0.349456 -0.078957 -0.054617
0.349846 -0.078957 -0.056405
0.350235 -0.078957 -0.058194
0.350625 -0.078957 -0.059983
0.352156 -0.079955 -0.061391
0.352545 -0.079955 -0.063178
0.352935 -0.079955 -0.064965
0.353324 -0.079955 -0.066752
0.354850 -0.080950 -0.068153
0.355239 -0.080950 -0.069938
0.355628 -0.080950 -0.071724
0.356018 -0.080950 -0.073509
0.356407 -0.080950 -0.075294
0.356796 -0.080950 -0.077080
0.358317 -0.081944 -0.078469
0.358706 -0.081944 -0.080253
0.359095 -0.081944 -0.082036
0.359484 -0.081944 -0.083820
0.359872 -0.081944 -0.085604
0.361389 -0.082936 -0.086984
0.361778 -0.082936 -0.088765
0.362166 -0.082936 -0.090547
0.363679 -0.083926 -0.091921
0.364067 -0.083926 -0.093702
0.364455 -0.083926 -0.095482
0.364843 -0.083926 -0.097262
0.365231 -0.083926 -0.099042
0.365619 -0.083926 -0.100822
0.366007 -0.083926 -0.102603
0.366395 -0.083926 -0.104383
0.366783 -0.083926 -0.106163
0.367171 -0.083926 -0.107943
0.367559 -0.083926 -0.109723
0.367947 -0.083926 -0.111504
0.368335 -0.083926 -0.113284
0.368723 -0.083926 -0.115064
0.369111 -0.083926 -0.116844
0.369499 -0.083926 -0.118625
0.369887 -0.083926 -0.120405
0.370275 -0.083926 -0.122185
0.370663 -0.083926 -0.123965
0.371051 -0.083926 -0.125745
0.371439 -0.083926 -0.127526
0.372943 -0.084914 -0.128863
0.372215 -0.083926 -0.131086
0.372603 -0.083926 -0.132866
0.372991 -0.083926 -0.134646
0.373379 -0.083926 -0.136427
0.372652 -0.082936 -0.138659
0.373040 -0.082936 -0.140441
0.373429 -0.082936 -0.142223
0.373817 -0.082936 -0.144004
0.374205 -0.082936 -0.145786
0.374594 -0.082936 -0.147568
0.373867 -0.081944 -0.149813
0.374256 -0.081944 -0.151597
0.374644 -0.081944 -0.153380
0.375033 -0.081944 -0.155164
0.375422 -0.081944 -0.156948
0.375811 -0.081944 -0.158731
0.375084 -0.080950 -0.160989
0.375473 -0.080950 -0.162774
0.375862 -0.080950 -0.164560
0.375135 -0.079955 -0.166825
0.375525 -0.079955 -0.168612
0.374796 -0.078957 -0.170884
0.375186 -0.078957 -0.172672
0.374457 -0.077958 -0.174950
0.374847 -0.077958 -0.176740
0.374117 -0.076956 -0.179024
0.373385 -0.075953 -0.181312
0.372652 -0.074947 -0.183605
0.373044 -0.074947 -0.185400
0.372310 -0.073940 -0.187699
0.372701 -0.073940 -0.189496
0.370837 -0.071920 -0.192309
0.371230 -0.071920 -0.194110
0.370492 -0.070907 -0.196424
0.369752 -0.069892 -0.198742
0.369012 -0.068875 -0.201065
0.369405 -0.068875 -0.202871
0.368663 -0.067856 -0.205199
0.367920 -0.066835 -0.207533
0.367175 -0.065812 -0.209871
0.366429 -0.064787 -0.212213
0.365681 -0.063760 -0.214560
0.364932 -0.062731 -0.216911
0.364182 -0.061700 -0.219268
0.363430 -0.060668 -0.221628
0.362676 -0.059633 -0.223993
0.361922 -0.058596 -0.226363
0.360009 -0.056516 -0.229290
0.359249 -0.055473 -0.231672
0.357326 -0.053381 -0.234617
0.356561 -0.052331 -0.237012
0.355795 -0.051280 -0.239411
0.353857 -0.049172 -0.242383
0.353086 -0.048114 -0.244794
0.351137 -0.045993 -0.247786
0.350361 -0.044929 -0.250210
0.349584 -0.043863 -0.252639
0.347620 -0.041725 -0.255658
0.346838 -0.040653 -0.258099
0.346053 -0.039579 -0.260545
0.342880 -0.036343 -0.264189
0.342089 -0.035260 -0.266651
0.340095 -0.033088 -0.269723
0.339298 -0.031999 -0.272197
0.338500 -0.030907 -0.274677
0.336491 -0.028717 -0.277777
0.335688 -0.027619 -0.280270
0.333667 -0.025416 -0.283390
0.332858 -0.024312 -0.285896
0.332048 -0.023204 -0.288407
0.330011 -0.020984 -0.291557
0.327967 -0.018754 -0.294719
0.327147 -0.017636 -0.297252
0.325090 -0.015392 -0.300435
0.321782 -0.012010 -0.304283
0.319704 -0.009744 -0.307497
0.317617 -0.007468 -0.310724
0.314261 -0.004038 -0.314631
0.312153 -0.001739 -0.317889
0.310035 0.000570 -0.321161
0.307909 0.002888 -0.324446
0.305774 0.005215 -0.327745
0.302344 0.008725 -0.331749
0.300186 0.011076 -0.335080
0.298019 0.013438 -0.338425
0.294539 0.016999 -0.342492
0.291038 0.020582 -0.346585
0.287514 0.024188 -0.350704
0.282637 0.029031 -0.355578
0.276375 0.035143 -0.361233
0.259077 0.051343 -0.373001
0.262275 0.048821 -0.373485
0.264087 0.047564 -0.374730
0.265895 0.046310 -0.375972
0.267700 0.045059 -0.377211
0.269500 0.043810 -0.378447
0.271297 0.042564 -0.379681
0.273090 0.041321 -0.380912
0.274879 0.040080 -0.382141
0.276664 0.038842 -0.383366
0.278446 0.037606 -0.384590
0.280224 0.036374 -0.385811
0.281998 0.035143 -0.387029
0.283768 0.033916 -0.388244
0.285534 0.032691 -0.389457
0.285966 0.032691 -0.391437
0.287728 0.031468 -0.392646
0.289487 0.030249 -0.393851
0.291241 0.029031 -0.395054
0.292992 0.027817 -0.396255
0.294740 0.026605 -0.397453
0.296484 0.025395 -0.398649
0.298224 0.024188 -0.399842
0.299960 0.022983 -0.401033
0.300388 0.022983 -0.402996
0.302120 0.021782 -0.404182
0.302548 0.021782 -0.406143
0.304276 0.020582 -0.407325
0.304703 0.020582 -0.409284
0.306427 0.019385 -0.410461
0.308148 0.018191 -0.411636
0.308574 0.018191 -0.413591
0.310290 0.016999 -0.414761
0.310716 0.016999 -0.416714
0.312429 0.015809 -0.417880
0.314138 0.014622 -0.419043
0.314562 0.014622 -0.420992
0.316267 0.013438 -0.422151
0.317969 0.012256 -0.423307
0.319667 0.011076 -0.424461
0.321361 0.009899 -0.425612
0.321784 0.009899 -0.427553
0.323474 0.008725 -0.428700
0.325161 0.007552 -0.429845
0.326844 0.006383 -0.430987
0.327266 0.006383 -0.432922
0.327688 0.006383 -0.434857
0.329367 0.005215 -0.435993
0.329788 0.005215 -0.437926
0.331463 0.004050 -0.439058
0.331884 0.004050 -0.440989
0.332305 0.004050 -0.442920
0.333976 0.002888 -0.444045
0.333147 0.004050 -0.446782
0.333568 0.004050 -0.448713
0.335237 0.002888 -0.449832
0.335658 0.002888 -0.451761
0.336078 0.002888 -0.453690
0.336498 0.002888 -0.455619
0.338163 0.001728 -0.456730
0.338583 0.001728 -0.458657
0.339003 0.001728 -0.460584
0.339423 0.001728 -0.462511
0.341083 0.000570 -0.463614
0.341503 0.000570 -0.465539
0.343159 -0.000586 -0.466637
0.343578 -0.000586 -0.468560
0.343997 -0.000586 -0.470483
0.345649 -0.001739 -0.471576
0.346068 -0.001739 -0.473497
0.346486 -0.001739 -0.475418
0.346905 -0.001739 -0.477339
0.347324 -0.001739 -0.479260
0.346512 -0.000586 -0.482022
0.344463 0.001728 -0.485635
0.342406 0.004050 -0.489264
0.161965 -0.009064 0.398114
0.165201 -0.011336 0.396080
0.168424 -0.013599 0.394054
0.381840 -0.185370 0.383442
0.383190 -0.186176 0.381794
0.385532 -0.187783 0.380111
0.386875 -0.188585 0.378470
0.389205 -0.190184 0.376796
0.390541 -0.190982 0.375162
0.391875 -0.191778 0.373531
0.393207 -0.192572 0.371903
0.394536 -0.193366 0.370277
0.393903 -0.192572 0.368710
0.395231 -0.193366 0.367088
0.395579 -0.193366 0.365493
0.396905 -0.194158 0.363874
0.397253 -0.194158 0.362280
0.397600 -0.194158 0.360687
0.397947 -0.194158 0.359093
0.398294 -0.194158 0.357500
0.398642 -0.194158 0.355906
0.398012 -0.193366 0.354328
0.398360 -0.193366 0.352733
0.397729 -0.192572 0.351152
0.398077 -0.192572 0.349555
0.398425 -0.192572 0.347959
0.397795 -0.191778 0.346372
0.397163 -0.190982 0.344782
0.396530 -0.190184 0.343189
0.396878 -0.190184 0.341589
0.396245 -0.189385 0.339992
0.395610 -0.188585 0.338392
0.395959 -0.188585 0.336789
0.395324 -0.187783 0.335185
0.394687 -0.186980 0.333579
0.394049 -0.186176 0.331969
0.393410 -0.185370 0.330357
0.393761 -0.185370 0.328749
0.392129 -0.183754 0.327125
0.391487 -0.182944 0.325505
0.391838 -0.182944 0.323892
0.391195 -0.182133 0.322267
0.390551 -0.181320 0.320640
0.389906 -0.180506 0.319010
0.390258 -0.180506 0.317393
0.389612 -0.179691 0.315758
0.388965 -0.178874 0.314121
0.388317 -0.178055 0.312481
0.387667 -0.177236 0.310838
0.388021 -0.177236 0.309215
0.387370 -0.176414 0.307568
0.386719 -0.175592 0.305918
0.386066 -0.174767 0.304265
0.386421 -0.174767 0.302638
0.385768 -0.173942 0.300981
0.385113 -0.173115 0.299321
0.385468 -0.173115 0.297691
0.384813 -0.172287 0.296027
0.384157 -0.171457 0.294360
0.384512 -0.171457 0.292727
0.383855 -0.170625 0.291055
0.383197 -0.169793 0.289381
0.382537 -0.168958 0.287703
0.381876 -0.168123 0.286023
0.382233 -0.168123 0.284384
0.381572 -0.167286 0.282700
0.380909 -0.166447 0.281012
0.380245 -0.165607 0.279321
0.379580 -0.164765 0.277627
0.379938 -0.164765 0.275983
0.378246 -0.163078 0.274231
0.378605 -0.163078 0.272584
0.377937 -0.162232 0.270880
0.377267 -0.161384 0.269172
0.376597 -0.160535 0.267462
0.376956 -0.160535 0.265811
0.376285 -0.159685 0.264096
0.375612 -0.158833 0.262378
0.374938 -0.157979 0.260658
0.374263 -0.157124 0.258934
0.374624 -0.157124 0.257277
0.373948 -0.156267 0.255548
0.372230 -0.154550 0.253744
0.370507 -0.152826 0.251933
0.369824 -0.151962 0.250192
0.368091 -0.150229 0.248370
0.367404 -0.149360 0.246621
0.366717 -0.148489 0.244870
0.364972 -0.146744 0.243032
0.363221 -0.144992 0.241187
0.362526 -0.144114 0.239422
0.360766 -0.142353 0.237566
0.359000 -0.140585 0.235703
0.357227 -0.138811 0.233834
0.355448 -0.137031 0.231957
0.351501 -0.133450 0.229882
0.345339 -0.128031 0.227593
0.339110 -0.122552 0.225280
0.242702 -0.042201 0.214534
0.243106 -0.042201 0.212680
0.242219 -0.041128 0.210701
0.240034 -0.038976 0.208592
0.239141 -0.037897 0.206603
0.239547 -0.037897 0.204741
0.239953 -0.037897 0.202880
0.240358 -0.037897 0.201018
0.240764 -0.037897 0.199156
0.239871 -0.036816 0.197156
0.238976 -0.035732 0.195152
0.238080 -0.034646 0.193144
0.238487 -0.034646 0.191277
0.237589 -0.033559 0.189263
0.236689 -0.032469 0.187245
0.235787 -0.031376 0.185223
0.234884 -0.030282 0.183197
0.233979 -0.029185 0.181167
0.233072 -0.028087 0.179133
0.232163 -0.026986 0.177095
0.232573 -0.026986 0.175214
0.231662 -0.025883 0.173170
0.230750 -0.024777 0.171122
0.229836 -0.023669 0.169069
0.228920 -0.022559 0.167012
0.228003 -0.021447 0.164952
0.227083 -0.020333 0.162887
0.226162 -0.019216 0.160817
0.226575 -0.019216 0.158924
0.225652 -0.018097 0.156848
0.224727 -0.016976 0.154769
0.042814 0.137845 0.116417
0.060454 0.123425 0.116790
0.209064 -0.001037 0.136756
0.227113 -0.015853 0.137488
0.231528 -0.019216 0.136198
0.237236 -0.023669 0.135118
0.241589 -0.026986 0.133843
0.247217 -0.031376 0.132780
0.251510 -0.034646 0.131522
0.254494 -0.036816 0.130066
0.257465 -0.038976 0.128615
0.260424 -0.041128 0.127171
0.260829 -0.041128 0.125315
0.262506 -0.042201 0.123669
0.264180 -0.043272 0.122027
0.265850 -0.044340 0.120388
0.266253 -0.044340 0.118538
0.267920 -0.045406 0.116904
0.268323 -0.045406 0.115055
0.268726 -0.045406 0.113206
0.269129 -0.045406 0.111357
0.272048 -0.047533 0.109955
0.274955 -0.049651 0.108559
0.277852 -0.051761 0.107168
0.279495 -0.052813 0.105557
0.281136 -0.053862 0.103948
0.282773 -0.054910 0.102343
0.284408 -0.055956 0.100741
0.286039 -0.056999 0.099142
0.287666 -0.058041 0.097547
0.289291 -0.059080 0.095954
0.290912 -0.060118 0.094365
0.292531 -0.061153 0.092778
0.294146 -0.062187 0.091195
0.295758 -0.063218 0.089615
0.297367 -0.064247 0.088037
0.298972 -0.065275 0.086463
0.300575 -0.066300 0.084892
0.300970 -0.066300 0.083079
0.301365 -0.066300 0.081266
0.302964 -0.067324 0.079702
0.303359 -0.067324 0.077891
0.304954 -0.068345 0.076331
0.306546 -0.069365 0.074774
0.306940 -0.069365 0.072966
0.308529 -0.070382 0.071414
0.308923 -0.070382 0.069608
0.310508 -0.071398 0.068061
0.312090 -0.072411 0.066517
0.312483 -0.072411 0.064715
0.312876 -0.072411 0.062912
0.313269 -0.072411 0.061110
0.314847 -0.073423 0.059573
0.315239 -0.073423 0.057773
0.315632 -0.073423 0.055972
0.316024 -0.073423 0.054171
0.316417 -0.073423 0.052370
0.316809 -0.073423 0.050570
0.317202 -0.073423 0.048769
0.318775 -0.074432 0.047246
0.319167 -0.074432 0.045447
0.319559 -0.074432 0.043648
0.321128 -0.075440 0.042132
0.321519 -0.075440 0.040334
0.321911 -0.075440 0.038537
0.322303 -0.075440 0.036740
0.322695 -0.075440 0.034942
0.323086 -0.075440 0.033145
0.323478 -0.075440 0.031348
0.323870 -0.075440 0.029550
0.324262 -0.075440 0.027753
0.324653 -0.075440 0.025956
0.325045 -0.075440 0.024158
0.325437 -0.075440 0.022361
0.325829 -0.075440 0.020564
0.326220 -0.075440 0.018767
0.326612 -0.075440 0.016969
0.327004 -0.075440 0.015172
0.327395 -0.075440 0.013375
0.327787 -0.075440 0.011577
0.328179 -0.075440 0.009780
0.328571 -0.075440 0.007983
0.327793 -0.074432 0.005868
0.328185 -0.074432 0.004069
0.328577 -0.074432 0.002270
0.328969 -0.074432 0.000471
0.329361 -0.074432 -0.001328
0.329754 -0.074432 -0.003127
0.330146 -0.074432 -0.004926
0.330538 -0.074432 -0.006725
0.330930 -0.074432 -0.008525
0.331322 -0.074432 -0.010324
0.331714 -0.074432 -0.012123
0.330939 -0.073423 -0.014259
0.331331 -0.073423 -0.016060
0.332890 -0.074432 -0.017520
0.332116 -0.073423 -0.019661
0.333675 -0.074432 -0.021118
0.334067 -0.074432 -0.022917
0.335622 -0.075440 -0.024369
0.336013 -0.075440 -0.026167
0.337565 -0.076446 -0.027614
0.337956 -0.076446 -0.029410
0.338348 -0.076446 -0.031206
0.338739 -0.076446 -0.033001
0.340287 -0.077450 -0.034441
0.340678 -0.077450 -0.036235
0.341069 -0.077450 -0.038029
0.342613 -0.078452 -0.039462
0.343003 -0.078452 -0.041254
0.343394 -0.078452 -0.043047
0.343784 -0.078452 -0.044839
0.344175 -0.078452 -0.046631
0.345714 -0.079452 -0.048055
0.346105 -0.079452 -0.049845
0.346495 -0.079452 -0.051636
0.346885 -0.079452 -0.053426
0.347275 -0.079452 -0.055217
0.348810 -0.080450 -0.056631
0.349200 -0.080450 -0.058420
0.349590 -0.080450 -0.060209
0.349980 -0.080450 -0.061997
0.350370 -0.080450 -0.063786
0.351900 -0.081446 -0.065191
0.352290 -0.081446 -0.066978
0.352679 -0.081446 -0.068765
0.353069 -0.081446 -0.070552
0.354595 -0.082440 -0.071949
0.354984 -0.082440 -0.073734
0.355373 -0.082440 -0.075520
0.355762 -0.082440 -0.077305
0.356151 -0.082440 -0.079090
0.356541 -0.082440 -0.080875
0.358062 -0.083433 -0.082261
0.358451 -0.083433 -0.084045
0.358840 -0.083433 -0.085829
0.359229 -0.083433 -0.087612
0.360746 -0.084423 -0.088990
0.361135 -0.084423 -0.090772
0.362649 -0.085412 -0.092146
0.363037 -0.085412 -0.093926
0.363425 -0.085412 -0.095706
0.363813 -0.085412 -0.097487
0.364201 -0.085412 -0.099267
0.363465 -0.084423 -0.101464
0.363853 -0.084423 -0.103246
0.364242 -0.084423 -0.105027
0.364630 -0.084423 -0.106809
0.365018 -0.084423 -0.108591
0.365407 -0.084423 -0.110373
0.365795 -0.084423 -0.112155
0.366183 -0.084423 -0.113937
0.367693 -0.085412 -0.115289
0.368081 -0.085412 -0.117069
0.368469 -0.085412 -0.118849
0.368857 -0.085412 -0.120629
0.369245 -0.085412 -0.122410
0.369633 -0.085412 -0.124190
0.370021 -0.085412 -0.125970
0.370409 -0.085412 -0.127750
0.370797 -0.085412 -0.129530
0.371185 -0.085412 -0.131311
0.371573 -0.085412 -0.133091
0.370844 -0.084423 -0.135320
0.371232 -0.084423 -0.137102
0.371621 -0.084423 -0.138884
0.372009 -0.084423 -0.140665
0.372397 -0.084423 -0.142447
0.372786 -0.084423 -0.144229
0.372057 -0.083433 -0.146471
0.372446 -0.083433 -0.148255
0.372834 -0.083433 -0.150038
0.373223 -0.083433 -0.151822
0.373612 -0.083433 -0.153605
0.372883 -0.082440 -0.155858
0.373272 -0.082440 -0.157644
0.374778 -0.083433 -0.158956
0.375167 -0.083433 -0.160740
0.374440 -0.082440 -0.163000
0.373711 -0.081446 -0.165264
0.374101 -0.081446 -0.167051
0.374490 -0.081446 -0.168838
0.373761 -0.080450 -0.171109
0.374151 -0.080450 -0.172898
0.373421 -0.079452 -0.175176
0.372689 -0.078452 -0.177458
0.373080 -0.078452 -0.179250
0.372347 -0.077450 -0.181538
0.372738 -0.077450 -0.183332
0.372004 -0.076446 -0.185627
0.371269 -0.075440 -0.187926
0.370533 -0.074432 -0.190229
0.369795 -0.073423 -0.192537
0.369056 -0.072411 -0.194849
0.369448 -0.072411 -0.196651
0.368708 -0.071398 -0.198970
0.367966 -0.070382 -0.201292
0.367223 -0.069365 -0.203620
0.366478 -0.068345 -0.205951
0.366873 -0.068345 -0.207761
0.366127 -0.067324 -0.210099
0.365380 -0.066300 -0.212442
0.364631 -0.065275 -0.214789
0.363881 -0.064247 -0.217141
0.363129 -0.063218 -0.219497
0.361225 -0.061153 -0.222401
0.360468 -0.060118 -0.224770
0.359711 -0.059080 -0.227143
0.358951 -0.058041 -0.229520
0.357029 -0.055956 -0.232459
0.356265 -0.054910 -0.234849
0.354332 -0.052813 -0.237806
0.353563 -0.051761 -0.240208
0.352792 -0.050707 -0.242615
0.350845 -0.048593 -0.245600
0.350069 -0.047533 -0.248019
0.349292 -0.046471 -0.250443
0.347330 -0.044340 -0.253455
0.346548 -0.043272 -0.255892
0.344574 -0.041128 -0.258923
0.342593 -0.038976 -0.261967
0.341802 -0.037897 -0.264424
0.339810 -0.035732 -0.267488
0.339014 -0.034646 -0.269958
0.338216 -0.033559 -0.272433
0.336208 -0.031376 -0.275525
0.335406 -0.030282 -0.278014
0.333386 -0.028087 -0.281126
0.332578 -0.026986 -0.283628
0.330547 -0.024777 -0.286761
0.329733 -0.023669 -0.289275
0.328918 -0.022559 -0.291795
0.326871 -0.020333 -0.294958
0.324816 -0.018097 -0.298133
0.323992 -0.016976 -0.300675
0.320680 -0.013599 -0.304523
0.318599 -0.011336 -0.307737
0.316510 -0.009064 -0.310965
0.314413 -0.006782 -0.314206
0.311041 -0.003342 -0.318131
0.308921 -0.001037 -0.321403
0.306792 0.001278 -0.324689
0.304655 0.003602 -0.327989
0.301221 0.007106 -0.331994
0.299061 0.009455 -0.335325
0.296892 0.011813 -0.338671
0.293409 0.015369 -0.342739
0.291217 0.017752 -0.346117
0.286376 0.022548 -0.350952
0.281495 0.027384 -0.355827
0.277915 0.031038 -0.360005
0.259295 0.048403 -0.372492
0.261112 0.047145 -0.373739
0.264299 0.044638 -0.374221
0.266105 0.043389 -0.375462
0.267907 0.042142 -0.376700
0.269706 0.040897 -0.377936
0.271500 0.039656 -0.379169
0.273291 0.038417 -0.380399
0.275078 0.037181 -0.381627
0.276861 0.035947 -0.382852
0.278641 0.034716 -0.384075
0.280417 0.033487 -0.385295
0.280849 0.033487 -0.387279
0.282620 0.032261 -0.388494
0.284388 0.031038 -0.389707
0.286152 0.029818 -0.390917
0.287912 0.028600 -0.392125
0.289669 0.027384 -0.393330
0.291421 0.026171 -0.394532
0.293170 0.024961 -0.395732
0.293600 0.024961 -0.397702
0.295345 0.023753 -0.398897
0.297086 0.022548 -0.400090
0.297514 0.022548 -0.402056
0.299251 0.021345 -0.403244
0.300985 0.020145 -0.404430
0.301412 0.020145 -0.406391
0.303142 0.018947 -0.407572
0.303569 0.018947 -0.409532
0.305294 0.017752 -0.410708
0.307016 0.016559 -0.411882
0.307442 0.016559 -0.413838
0.309160 0.015369 -0.415007
0.309586 0.015369 -0.416961
0.311299 0.014181 -0.418126
0.313009 0.012996 -0.419289
0.313434 0.012996 -0.421238
0.315140 0.011813 -0.422396
0.316843 0.010633 -0.423552
0.318542 0.009455 -0.424706
0.320237 0.008279 -0.425857
0.321929 0.007106 -0.427006
0.322352 0.007106 -0.428945
0.324040 0.005936 -0.430089
0.325724 0.004768 -0.431231
0.326146 0.004768 -0.433166
0.327827 0.003602 -0.434304
0.328248 0.003602 -0.436237
0.328669 0.003602 -0.438170
0.330346 0.002439 -0.439301
0.330766 0.002439 -0.441232
0.331187 0.002439 -0.443163
0.332859 0.001278 -0.444288
0.332029 0.002439 -0.447025
0.333700 0.001278 -0.448146
0.334120 0.001278 -0.450075
0.334541 0.001278 -0.452004
0.334961 0.001278 -0.453933
0.336628 0.000119 -0.455046
0.337048 0.000119 -0.456973
0.337468 0.000119 -0.458900
0.337888 0.000119 -0.460827
0.339549 -0.001037 -0.461932
0.339969 -0.001037 -0.463857
0.341627 -0.002191 -0.464957
0.342046 -0.002191 -0.466880
0.342465 -0.002191 -0.468803
0.344118 -0.003342 -0.469897
0.344537 -0.003342 -0.471818
0.344956 -0.003342 -0.473739
0.345374 -0.003342 -0.475660
0.345793 -0.003342 -0.477581
0.346212 -0.003342 -0.479502
0.345399 -0.002191 -0.482264
0.344584 -0.001037 -0.485032
0.341288 0.002439 -0.489507
0.157607 -0.008380 0.399915
0.162271 -0.011794 0.397810
0.166907 -0.015187 0.395717
0.380558 -0.186713 0.384847
0.382907 -0.188320 0.383158
0.385248 -0.189923 0.381473
0.387581 -0.191520 0.379795
0.388918 -0.192316 0.378159
0.390254 -0.193111 0.376525
0.391587 -0.193905 0.374894
0.392918 -0.194697 0.373266
0.394246 -0.195488 0.371641
0.394594 -0.195488 0.370047
0.395920 -0.196278 0.368426
0.396267 -0.196278 0.366834
0.397590 -0.197066 0.365216
0.397937 -0.197066 0.363626
0.398283 -0.197066 0.362035
0.397655 -0.196278 0.360465
0.398002 -0.196278 0.358873
0.398349 -0.196278 0.357280
0.398696 -0.196278 0.355688
0.398067 -0.195488 0.354112
0.398414 -0.195488 0.352518
0.398761 -0.195488 0.350925
0.398132 -0.194697 0.349342
0.397501 -0.193905 0.347758
0.397849 -0.193905 0.346161
0.397218 -0.193111 0.344573
0.396586 -0.192316 0.342981
0.396934 -0.192316 0.341382
0.396301 -0.191520 0.339786
0.395667 -0.190722 0.338188
0.395031 -0.189923 0.336587
0.394395 -0.189122 0.334983
0.394745 -0.189122 0.333378
0.394107 -0.188320 0.331770
0.393469 -0.187517 0.330159
0.392830 -0.186713 0.328546
0.392189 -0.185907 0.326929
0.391547 -0.185099 0.325310
0.390905 -0.184290 0.323688
0.391256 -0.184290 0.322076
0.390613 -0.183480 0.320449
0.389968 -0.182669 0.318820
0.389322 -0.181856 0.317189
0.388675 -0.181041 0.315554
0.389028 -0.181041 0.313936
0.388380 -0.180226 0.312297
0.387731 -0.179408 0.310655
0.387081 -0.178590 0.309011
0.387435 -0.178590 0.307388
0.386784 -0.177770 0.305739
0.386132 -0.176948 0.304088
0.385479 -0.176125 0.302433
0.385834 -0.176125 0.300806
0.385180 -0.175301 0.299147
0.385535 -0.175301 0.297519
0.384880 -0.174475 0.295856
0.384224 -0.173648 0.294190
0.383567 -0.172819 0.292521
0.382909 -0.171989 0.290849
0.383265 -0.171989 0.289215
0.382606 -0.171157 0.287539
0.381946 -0.170324 0.285860
0.381285 -0.169490 0.284178
0.380623 -0.168654 0.282493
0.380980 -0.168654 0.280853
0.380317 -0.167817 0.279164
0.379652 -0.166978 0.277471
0.378987 -0.166137 0.275776
0.378320 -0.165295 0.274077
0.377652 -0.164452 0.272376
0.378011 -0.164452 0.270729
0.377342 -0.163607 0.269023
0.376672 -0.162761 0.267314
0.376001 -0.161913 0.265603
0.375328 -0.161064 0.263888
0.375688 -0.161064 0.262235
0.375015 -0.160213 0.260516
0.374341 -0.159361 0.258793
0.373665 -0.158507 0.257068
0.372988 -0.157652 0.255339
0.371269 -0.155936 0.253534
0.370588 -0.155076 0.251798
0.368860 -0.153352 0.249982
0.368175 -0.152488 0.248238
0.367489 -0.151621 0.246491
0.365749 -0.149885 0.244659
0.364002 -0.148142 0.242820
0.363310 -0.147268 0.241060
0.362616 -0.146392 0.239297
0.359793 -0.143757 0.237354
0.358024 -0.141992 0.235490
0.356250 -0.140220 0.233620
0.354469 -0.138442 0.231744
0.349433 -0.133969 0.229571
0.343255 -0.128548 0.227279
0.325812 -0.113796 0.223932
0.235137 -0.038371 0.213694
0.235543 -0.038371 0.211830
0.235949 -0.038371 0.209966
0.236355 -0.038371 0.208103
0.236761 -0.038371 0.206239
0.235863 -0.037289 0.204244
0.234964 -0.036205 0.202245
0.234062 -0.035119 0.200242
0.233159 -0.034030 0.198236
0.232254 -0.032940 0.196225
0.231347 -0.031847 0.194210
0.231755 -0.031847 0.192335
0.230847 -0.030752 0.190314
0.229937 -0.029655 0.188289
0.229025 -0.028555 0.186260
0.228111 -0.027454 0.184227
0.227195 -0.026350 0.182190
0.226278 -0.025244 0.180148
0.225358 -0.024135 0.178103
0.224437 -0.023025 0.176053
0.224849 -0.023025 0.174163
0.223926 -0.021912 0.172108
0.223002 -0.020797 0.170048
0.222075 -0.019679 0.167984
0.221147 -0.018560 0.165916
0.021710 0.152269 0.115501
0.048484 0.130240 0.117157
0.065980 0.115972 0.117520
0.078130 0.106177 0.117135
0.220634 -0.012928 0.136438
0.227765 -0.018560 0.135553
0.233500 -0.023025 0.134473
0.237873 -0.026350 0.133198
0.243527 -0.030752 0.132136
0.247840 -0.034030 0.130876
0.252127 -0.037289 0.129625
0.255106 -0.039451 0.128174
0.256794 -0.040528 0.126521
0.257199 -0.040528 0.124661
0.260159 -0.042677 0.123224
0.261837 -0.043748 0.121581
0.262241 -0.043748 0.119727
0.263915 -0.044818 0.118088
0.265586 -0.045885 0.116453
0.265989 -0.045885 0.114603
0.267656 -0.046949 0.112973
0.268059 -0.046949 0.111124
0.268462 -0.046949 0.109275
0.270125 -0.048012 0.107652
0.271784 -0.049073 0.106032
0.274692 -0.051188 0.104643
0.277589 -0.053295 0.103260
0.279233 -0.054345 0.101653
0.280874 -0.055393 0.100048
0.282511 -0.056439 0.098447
0.284146 -0.057484 0.096849
0.285777 -0.058526 0.095254
0.287405 -0.059566 0.093662
0.289030 -0.060604 0.092073
0.290652 -0.061640 0.090487
0.292270 -0.062674 0.088905
0.293886 -0.063705 0.087325
0.295498 -0.064735 0.085749
0.297107 -0.065763 0.084175
0.298713 -0.066789 0.082605
0.299109 -0.066789 0.080790
0.300711 -0.067813 0.079225
0.301106 -0.067813 0.077412
0.302705 -0.068835 0.075851
0.303100 -0.068835 0.074040
0.304696 -0.069855 0.072484
0.305090 -0.069855 0.070674
0.306682 -0.070873 0.069123
0.308271 -0.071889 0.067575
0.309857 -0.072903 0.066029
0.310250 -0.072903 0.064225
0.310643 -0.072903 0.062421
0.312225 -0.073915 0.060882
0.312618 -0.073915 0.059080
0.313011 -0.073915 0.057277
0.313404 -0.073915 0.055475
0.313797 -0.073915 0.053672
0.314190 -0.073915 0.051869
0.314583 -0.073915 0.050067
0.316159 -0.074926 0.048542
0.316552 -0.074926 0.046741
0.316944 -0.074926 0.044940
0.317337 -0.074926 0.043139
0.317729 -0.074926 0.041338
0.319302 -0.075934 0.039823
0.319694 -0.075934 0.038024
0.320086 -0.075934 0.036225
0.320478 -0.075934 0.034426
0.320870 -0.075934 0.032627
0.321262 -0.075934 0.030828
0.322829 -0.076940 0.029324
0.323221 -0.076940 0.027526
0.322438 -0.075934 0.025430
0.322831 -0.075934 0.023631
0.323223 -0.075934 0.021832
0.323615 -0.075934 0.020033
0.324007 -0.075934 0.018234
0.324399 -0.075934 0.016435
0.324791 -0.075934 0.014636
0.325183 -0.075934 0.012837
0.326747 -0.076940 0.011350
0.325967 -0.075934 0.009239
0.326360 -0.075934 0.007440
0.326752 -0.075934 0.005641
0.327144 -0.075934 0.003842
0.327536 -0.075934 0.002043
0.327928 -0.075934 0.000244
0.328320 -0.075934 -0.001555
0.327541 -0.074926 -0.003681
0.327934 -0.074926 -0.005482
0.328326 -0.074926 -0.007283
0.328719 -0.074926 -0.009084
0.329111 -0.074926 -0.010884
0.329504 -0.074926 -0.012685
0.329896 -0.074926 -0.014486
0.330289 -0.074926 -0.016287
0.330681 -0.074926 -0.018088
0.331074 -0.074926 -0.019888
0.331466 -0.074926 -0.021689
0.333025 -0.075934 -0.023144
0.333417 -0.075934 -0.024943
0.334973 -0.076940 -0.026393
0.335365 -0.076940 -0.028191
0.336917 -0.077944 -0.029636
0.337308 -0.077944 -0.031432
0.337700 -0.077944 -0.033228
0.338091 -0.077944 -0.035023
0.339639 -0.078947 -0.036461
0.340030 -0.078947 -0.038255
0.340421 -0.078947 -0.040049
0.340812 -0.078947 -0.041843
0.342356 -0.079948 -0.043273
0.342747 -0.079948 -0.045065
0.343138 -0.079948 -0.046857
0.343528 -0.079948 -0.048649
0.343919 -0.079948 -0.050441
0.345458 -0.080946 -0.051862
0.345849 -0.080946 -0.053652
0.346239 -0.080946 -0.055443
0.346629 -0.080946 -0.057233
0.347019 -0.080946 -0.059023
0.348554 -0.081943 -0.060434
0.348944 -0.081943 -0.062223
0.349334 -0.081943 -0.064012
0.349724 -0.081943 -0.065800
0.350114 -0.081943 -0.067589
0.350504 -0.081943 -0.069378
0.352034 -0.082937 -0.070777
0.352424 -0.082937 -0.072564
0.352813 -0.082937 -0.074351
0.353203 -0.082937 -0.076138
0.354729 -0.083930 -0.077530
0.355118 -0.083930 -0.079315
0.355507 -0.083930 -0.081101
0.355896 -0.083930 -0.082886
0.356285 -0.083930 -0.084671
0.357807 -0.084921 -0.086054
0.358196 -0.084921 -0.087837
0.358585 -0.084921 -0.089621
0.358974 -0.084921 -0.091404
0.360491 -0.085910 -0.092779
0.360880 -0.085910 -0.094561
0.361268 -0.085910 -0.096343
0.361657 -0.085910 -0.098125
0.362045 -0.085910 -0.099907
0.362433 -0.085910 -0.101688
0.362822 -0.085910 -0.103470
0.363210 -0.085910 -0.105252
0.363598 -0.085910 -0.107034
0.363987 -0.085910 -0.108816
0.364375 -0.085910 -0.110598
0.364763 -0.085910 -0.112380
0.365152 -0.085910 -0.114162
0.365540 -0.085910 -0.115944
0.365929 -0.085910 -0.117726
0.366317 -0.085910 -0.119507
0.366705 -0.085910 -0.121289
0.367094 -0.085910 -0.123071
0.367482 -0.085910 -0.124853
0.367870 -0.085910 -0.126635
0.368259 -0.085910 -0.128417
0.369766 -0.086898 -0.129755
0.370154 -0.086898 -0.131535
0.370542 -0.086898 -0.133315
0.370930 -0.086898 -0.135096
0.370201 -0.085910 -0.137326
0.370589 -0.085910 -0.139108
0.370977 -0.085910 -0.140890
0.370247 -0.084921 -0.143129
0.370636 -0.084921 -0.144912
0.371025 -0.084921 -0.146696
0.371413 -0.084921 -0.148480
0.371802 -0.084921 -0.150263
0.371072 -0.083930 -0.152513
0.371461 -0.083930 -0.154298
0.371850 -0.083930 -0.156084
0.372239 -0.083930 -0.157869
0.373746 -0.084921 -0.159181
0.373017 -0.083930 -0.161439
0.373406 -0.083930 -0.163225
0.372677 -0.082937 -0.165489
0.373066 -0.082937 -0.167276
0.372336 -0.081943 -0.169546
0.372726 -0.081943 -0.171335
0.373115 -0.081943 -0.173124
0.372384 -0.080946 -0.175402
0.371652 -0.079948 -0.177684
0.370918 -0.078947 -0.179971
0.371309 -0.078947 -0.181765
0.370574 -0.077944 -0.184058
0.370965 -0.077944 -0.185853
0.370229 -0.076940 -0.188152
0.369491 -0.075934 -0.190456
0.368752 -0.074926 -0.192764
0.368012 -0.073915 -0.195076
0.367270 -0.072903 -0.197393
0.367664 -0.072903 -0.199197
0.366921 -0.071889 -0.201520
0.366177 -0.070873 -0.203848
0.365431 -0.069855 -0.206180
0.364684 -0.068835 -0.208516
0.363935 -0.067813 -0.210857
0.363185 -0.066789 -0.213203
0.362433 -0.065763 -0.215553
0.361681 -0.064735 -0.217908
0.360926 -0.063705 -0.220267
0.360170 -0.062674 -0.222631
0.359413 -0.061640 -0.225000
0.358654 -0.060604 -0.227373
0.356733 -0.058526 -0.230304
0.355969 -0.057484 -0.232690
0.354038 -0.055393 -0.235640
0.353269 -0.054345 -0.238038
0.352499 -0.053295 -0.240440
0.350553 -0.051188 -0.243417
0.349778 -0.050131 -0.245832
0.347820 -0.048012 -0.248829
0.347040 -0.046949 -0.251256
0.346259 -0.045885 -0.253688
0.344287 -0.043748 -0.256713
0.343500 -0.042677 -0.259157
0.341517 -0.040528 -0.262202
0.339525 -0.038371 -0.265258
0.338730 -0.037289 -0.267723
0.336727 -0.035119 -0.270800
0.335926 -0.034030 -0.273278
0.335124 -0.032940 -0.275762
0.333106 -0.030752 -0.278867
0.332299 -0.029655 -0.281363
0.330269 -0.027454 -0.284489
0.329456 -0.026350 -0.286999
0.328642 -0.025244 -0.289513
0.326596 -0.023025 -0.292668
0.325776 -0.021912 -0.295196
0.323719 -0.019679 -0.298372
0.321653 -0.017438 -0.301561
0.319578 -0.015187 -0.304763
0.317495 -0.012928 -0.307978
0.315404 -0.010659 -0.311206
0.313304 -0.008380 -0.314447
0.309929 -0.004945 -0.318374
0.309078 -0.003796 -0.320970
0.305676 -0.000332 -0.324933
0.303536 0.001989 -0.328232
0.301388 0.004319 -0.331546
0.297936 0.007833 -0.335571
0.295765 0.010188 -0.338917
0.293585 0.012553 -0.342277
0.290084 0.016118 -0.346364
0.286560 0.019706 -0.350478
0.281685 0.024526 -0.355346
0.276768 0.029386 -0.360255
0.266374 0.039231 -0.368203
0.261328 0.044217 -0.373230
0.264510 0.041718 -0.373713
0.266314 0.040473 -0.374953
0.268115 0.039231 -0.376191
0.269911 0.037991 -0.377426
0.271703 0.036754 -0.378658
0.273492 0.035519 -0.379887
0.275277 0.034287 -0.381114
0.277058 0.033058 -0.382339
0.277491 0.033058 -0.384325
0.279268 0.031831 -0.385545
0.281041 0.030607 -0.386762
0.282810 0.029386 -0.387977
0.284576 0.028167 -0.389189
0.285007 0.028167 -0.391167
0.286768 0.026950 -0.392374
0.288526 0.025737 -0.393579
0.290280 0.024526 -0.394781
0.292030 0.023317 -0.395981
0.293777 0.022111 -0.397178
0.294206 0.022111 -0.399145
0.295948 0.020907 -0.400338
0.297687 0.019706 -0.401528
0.298115 0.019706 -0.403491
0.299850 0.018508 -0.404677
0.300277 0.018508 -0.406638
0.302008 0.017312 -0.407819
0.303735 0.016118 -0.408998
0.304161 0.016118 -0.410955
0.305884 0.014927 -0.412129
0.306310 0.014927 -0.414084
0.308029 0.013739 -0.415254
0.309745 0.012553 -0.416421
0.310170 0.012553 -0.418372
0.311881 0.011369 -0.419535
0.313589 0.010188 -0.420695
0.315293 0.009009 -0.421853
0.316994 0.007833 -0.423008
0.317417 0.007833 -0.424951
0.319114 0.006659 -0.426102
0.320807 0.005488 -0.427250
0.322496 0.004319 -0.428397
0.322919 0.004319 -0.430334
0.324604 0.003153 -0.431475
0.325026 0.003153 -0.433410
0.325448 0.003153 -0.435345
0.327129 0.001989 -0.436481
0.327550 0.001989 -0.438414
0.329228 0.000827 -0.439545
0.329649 0.000827 -0.441476
0.330070 0.000827 -0.443407
0.331743 -0.000332 -0.444532
0.330911 0.000827 -0.447269
0.332583 -0.000332 -0.448390
0.333004 -0.000332 -0.450319
0.333424 -0.000332 -0.452248
0.333845 -0.000332 -0.454177
0.335512 -0.001489 -0.455289
0.335932 -0.001489 -0.457216
0.336352 -0.001489 -0.459143
0.336772 -0.001489 -0.461070
0.338435 -0.002643 -0.462174
0.338854 -0.002643 -0.464099
0.340513 -0.003796 -0.465199
0.340933 -0.003796 -0.467122
0.341352 -0.003796 -0.469046
0.343006 -0.004945 -0.470139
0.343425 -0.004945 -0.472060
0.343844 -0.004945 -0.473982
0.345494 -0.006093 -0.475069
0.344681 -0.004945 -0.477824
0.345100 -0.004945 -0.479745
0.345518 -0.004945 -0.481666
0.343470 -0.002643 -0.485275
0.340170 0.000827 -0.489751
0.154658 -0.008838 0.401656
0.160750 -0.013388 0.399478
0.163985 -0.015649 0.397443
0.379277 -0.188055 0.386253
0.382625 -0.190461 0.384519
0.384965 -0.192059 0.382834
0.387296 -0.193650 0.381155
0.389619 -0.195237 0.379481
0.390952 -0.196028 0.377849
0.392282 -0.196818 0.376220
0.393610 -0.197606 0.374594
0.394935 -0.198393 0.372970
0.394304 -0.197606 0.371409
0.394651 -0.197606 0.369817
0.395976 -0.198393 0.368197
0.397298 -0.199179 0.366580
0.397645 -0.199179 0.364991
0.397991 -0.199179 0.363402
0.398337 -0.199179 0.361812
0.398684 -0.199179 0.360223
0.399030 -0.199179 0.358633
0.398403 -0.198393 0.357062
0.398749 -0.198393 0.355471
0.399096 -0.198393 0.353880
0.398468 -0.197606 0.352303
0.398815 -0.197606 0.350711
0.398186 -0.196818 0.349130
0.397556 -0.196028 0.347546
0.396925 -0.195237 0.345960
0.397273 -0.195237 0.344364
0.396641 -0.194444 0.342773
0.396008 -0.193650 0.341180
0.396357 -0.193650 0.339581
0.395723 -0.192855 0.337984
0.395089 -0.192059 0.336384
0.394453 -0.191261 0.334781
0.393816 -0.190461 0.333176
0.394165 -0.190461 0.331571
0.393528 -0.189661 0.329962
0.392889 -0.188859 0.328349
0.392249 -0.188055 0.326734
0.391608 -0.187250 0.325116
0.390966 -0.186444 0.323496
0.390323 -0.185636 0.321872
0.389678 -0.184827 0.320246
0.390030 -0.184827 0.318632
0.389385 -0.184017 0.317001
0.388739 -0.183205 0.315368
0.388091 -0.182392 0.313732
0.388444 -0.182392 0.312113
0.387796 -0.181577 0.310473
0.387146 -0.180761 0.308830
0.386496 -0.179944 0.307183
0.385844 -0.179125 0.305534
0.386198 -0.179125 0.303910
0.385546 -0.178305 0.302257
0.385900 -0.178305 0.300632
0.385247 -0.177483 0.298974
0.384592 -0.176660 0.297314
0.383937 -0.175835 0.295650
0.384292 -0.175835 0.294021
0.383636 -0.175009 0.292353
0.382978 -0.174182 0.290683
0.382320 -0.173353 0.289009
0.381660 -0.172522 0.287333
0.382016 -0.172522 0.285697
0.381356 -0.171690 0.284017
0.380694 -0.170857 0.282333
0.380031 -0.170022 0.280646
0.379367 -0.169186 0.278957
0.379724 -0.169186 0.277315
0.379059 -0.168349 0.275621
0.378393 -0.167509 0.273924
0.377726 -0.166669 0.272224
0.377057 -0.165827 0.270521
0.376388 -0.164983 0.268815
0.376747 -0.164983 0.267167
0.376076 -0.164138 0.265456
0.375405 -0.163291 0.263743
0.374732 -0.162443 0.262026
0.374058 -0.161594 0.260307
0.374418 -0.161594 0.258653
0.373743 -0.160743 0.256929
0.373067 -0.159890 0.255201
0.371349 -0.158180 0.253398
0.369625 -0.156464 0.251588
0.368942 -0.155604 0.249849
0.367210 -0.153879 0.248027
0.366523 -0.153014 0.246280
0.364781 -0.151280 0.244448
0.364090 -0.150411 0.242692
0.363398 -0.149540 0.240934
0.361644 -0.147793 0.239085
0.359884 -0.146040 0.237230
0.358118 -0.144280 0.235369
0.356345 -0.142515 0.233500
0.352412 -0.138964 0.231436
0.348449 -0.135388 0.229356
0.342266 -0.129974 0.227063
0.231034 -0.037763 0.215081
0.231441 -0.037763 0.213214
0.231848 -0.037763 0.211347
0.230943 -0.036679 0.209353
0.230037 -0.035592 0.207355
0.229128 -0.034503 0.205353
0.228218 -0.033411 0.203347
0.227306 -0.032318 0.201337
0.226393 -0.031222 0.199324
0.225477 -0.030125 0.197306
0.224560 -0.029025 0.195284
0.224970 -0.029025 0.193401
0.224051 -0.027922 0.191373
0.223130 -0.026818 0.189341
0.222208 -0.025711 0.187305
0.221283 -0.024602 0.185265
0.220357 -0.023491 0.183220
0.219429 -0.022377 0.181172
