ply
format ascii 1.0
element vertex 1639
property float x
property float y
property float z
end_header
-0.318359 -0.009592 -0.461260
-0.320884 -0.009235 -0.460490
-0.324223 -0.008518 -0.458437
-0.326761 -0.008158 -0.457662
-0.330120 -0.007438 -0.455597
-0.333492 -0.006714 -0.453525
-0.336051 -0.006351 -0.452742
-0.339443 -0.005624 -0.450658
-0.342015 -0.005259 -0.449870
-0.345429 -0.004527 -0.447775
-0.348856 -0.003792 -0.445673
-0.351449 -0.003424 -0.444876
-0.354897 -0.002685 -0.442761
-0.358358 -0.001943 -0.440639
-0.360972 -0.001572 -0.439834
-0.364455 -0.000826 -0.437699
-0.367083 -0.000452 -0.436889
-0.370587 0.000299 -0.434743
-0.374106 0.001052 -0.432589
-0.376756 0.001429 -0.431769
-0.380296 0.002187 -0.429603
-0.383850 0.002947 -0.427428
-0.386522 0.003329 -0.426600
-0.390098 0.004093 -0.424413
-0.392785 0.004477 -0.423579
-0.396384 0.005246 -0.421380
-0.399997 0.006019 -0.419172
-0.402706 0.006406 -0.418329
-0.406342 0.007183 -0.416109
-0.409992 0.007963 -0.413880
-0.412724 0.008354 -0.413028
-0.416398 0.009138 -0.410786
-0.420086 0.009926 -0.408536
-0.424739 0.011113 -0.404877
-0.429419 0.012308 -0.401195
-0.435093 0.013911 -0.396073
-0.439836 0.015122 -0.392340
-0.444609 0.016341 -0.388584
-0.450401 0.017977 -0.383360
0.483896 0.062550 0.089913
0.482200 0.059525 0.076537
0.480466 0.057035 0.065427
0.478750 0.054572 0.054439
0.476859 0.053595 0.049721
0.474977 0.052621 0.045024
0.473171 0.051169 0.038313
0.471307 0.050207 0.033666
0.469378 0.049727 0.031056
0.467454 0.049248 0.028452
0.465610 0.048294 0.023847
0.463696 0.047819 0.021259
0.461786 0.047344 0.018676
0.459880 0.046870 0.016100
0.457978 0.046398 0.013528
0.456167 0.045456 0.008985
0.454275 0.044987 0.006430
0.452388 0.044518 0.003880
0.450504 0.044051 0.001336
0.448625 0.043584 -0.001203
0.446845 0.042654 -0.005685
0.449424 0.021056 -0.096862
0.448358 0.017321 -0.113074
0.447311 0.013654 -0.128994
0.445926 0.011645 -0.137954
0.444555 0.009655 -0.146826
0.443014 0.008471 -0.152320
0.441575 0.006903 -0.159418
0.439960 0.006124 -0.163212
0.438350 0.005347 -0.166990
0.436747 0.004574 -0.170754
0.435151 0.003804 -0.174503
0.433560 0.003037 -0.178237
0.431874 0.002654 -0.180362
0.430295 0.001891 -0.184074
0.428617 0.001511 -0.186187
0.427049 0.000753 -0.189877
0.425379 0.000374 -0.191978
0.423821 -0.000380 -0.195646
0.422160 -0.000755 -0.197735
0.420612 -0.001505 -0.201382
0.418959 -0.001879 -0.203460
0.417422 -0.002624 -0.207085
0.415776 -0.002996 -0.209151
0.414250 -0.003737 -0.212755
0.412612 -0.004106 -0.214810
0.411096 -0.004843 -0.218392
0.409466 -0.005210 -0.220436
0.407839 -0.005577 -0.222476
0.406214 -0.005943 -0.224512
0.404593 -0.006308 -0.226544
0.402975 -0.006673 -0.228573
0.401360 -0.007037 -0.230597
0.399619 -0.007037 -0.231110
0.398009 -0.007400 -0.233130
0.396402 -0.007762 -0.235146
0.394797 -0.008124 -0.237158
0.393196 -0.008485 -0.239167
0.391734 -0.009206 -0.242663
0.390141 -0.009565 -0.244661
0.388411 -0.009565 -0.245170
0.386822 -0.009923 -0.247164
0.385236 -0.010281 -0.249154
0.383509 -0.010281 -0.249662
0.381928 -0.010638 -0.251648
0.380203 -0.010638 -0.252155
0.378626 -0.010994 -0.254137
0.377052 -0.011350 -0.256114
0.375331 -0.011350 -0.256621
0.373761 -0.011705 -0.258595
0.372195 -0.012059 -0.260565
0.370476 -0.012059 -0.261071
0.368914 -0.012413 -0.263036
0.367355 -0.012766 -0.264998
0.365640 -0.012766 -0.265503
0.364086 -0.013119 -0.267461
0.362372 -0.013119 -0.267965
0.360822 -0.013470 -0.269919
0.359275 -0.013821 -0.271869
0.357565 -0.013821 -0.272373
0.356022 -0.014172 -0.274319
0.354313 -0.014172 -0.274822
0.352775 -0.014522 -0.276764
0.351240 -0.014871 -0.278702
0.349534 -0.014871 -0.279204
0.347829 -0.014871 -0.279707
0.346300 -0.015219 -0.281640
0.344596 -0.015219 -0.282142
0.343071 -0.015567 -0.284072
0.341549 -0.015914 -0.285998
0.339848 -0.015914 -0.286498
0.338330 -0.016261 -0.288421
0.336631 -0.016261 -0.288921
0.335118 -0.016607 -0.290839
0.333420 -0.016607 -0.291339
0.331911 -0.016952 -0.293253
0.330405 -0.017297 -0.295163
0.328710 -0.017297 -0.295662
0.327209 -0.017641 -0.297569
0.325516 -0.017641 -0.298067
0.324018 -0.017984 -0.299970
0.322327 -0.017984 -0.300468
0.320834 -0.018327 -0.302366
0.319144 -0.018327 -0.302864
0.317655 -0.018669 -0.304759
0.316169 -0.019010 -0.306650
0.314482 -0.019010 -0.307146
0.313000 -0.019351 -0.309034
0.311315 -0.019351 -0.309530
0.309838 -0.019691 -0.311413
0.308154 -0.019691 -0.311909
0.306681 -0.020031 -0.313788
0.305210 -0.020370 -0.315664
0.303529 -0.020370 -0.316159
0.302063 -0.020708 -0.318031
0.300384 -0.020708 -0.318526
0.298922 -0.021046 -0.320394
0.297244 -0.021046 -0.320888
0.295786 -0.021383 -0.322752
0.294110 -0.021383 -0.323246
0.292879 -0.022056 -0.326470
0.291429 -0.022391 -0.328325
0.289757 -0.022391 -0.328817
0.288311 -0.022726 -0.330667
0.286641 -0.022726 -0.331159
0.285200 -0.023060 -0.333005
0.283531 -0.023060 -0.333497
0.282094 -0.023393 -0.335339
0.280659 -0.023726 -0.337179
0.278994 -0.023726 -0.337669
0.277563 -0.024058 -0.339505
0.275899 -0.024058 -0.339995
0.274472 -0.024390 -0.341826
0.273048 -0.024721 -0.343655
0.271387 -0.024721 -0.344144
0.294031 -0.058082 -0.479484
0.292721 -0.058355 -0.481031
0.291414 -0.058627 -0.482576
0.290110 -0.058899 -0.484118
0.288807 -0.059171 -0.485657
0.287506 -0.059442 -0.487194
0.286412 -0.059983 -0.489819
0.284911 -0.059983 -0.490261
0.283411 -0.059983 -0.490703
0.281702 -0.059713 -0.490056
0.280201 -0.059713 -0.490498
0.278699 -0.059713 -0.490940
0.276985 -0.059442 -0.490292
0.275482 -0.059442 -0.490735
0.273979 -0.059442 -0.491178
0.272476 -0.059442 -0.491620
0.270756 -0.059171 -0.490973
0.269251 -0.059171 -0.491416
0.267747 -0.059171 -0.491859
0.266022 -0.058899 -0.491211
0.264516 -0.058899 -0.491654
0.263011 -0.058899 -0.492097
0.261280 -0.058627 -0.491449
0.259773 -0.058627 -0.491893
0.258266 -0.058627 -0.492337
0.256530 -0.058355 -0.491688
0.255022 -0.058355 -0.492132
0.253514 -0.058355 -0.492576
0.251773 -0.058082 -0.491927
0.250264 -0.058082 -0.492372
0.248754 -0.058082 -0.492816
0.247008 -0.057809 -0.492167
0.245258 -0.057535 -0.491517
0.243746 -0.057535 -0.491962
0.241992 -0.057261 -0.491311
0.240479 -0.057261 -0.491756
0.238966 -0.057261 -0.492202
0.237207 -0.056986 -0.491551
0.235693 -0.056986 -0.491997
0.233930 -0.056711 -0.491345
0.232414 -0.056711 -0.491791
0.230899 -0.056711 -0.492237
0.229130 -0.056435 -0.491585
0.227613 -0.056435 -0.492031
0.226097 -0.056435 -0.492478
0.224322 -0.056159 -0.491825
0.222804 -0.056159 -0.492272
0.221286 -0.056159 -0.492719
0.219507 -0.055883 -0.492066
0.217988 -0.055883 -0.492514
0.216204 -0.055606 -0.491860
0.214683 -0.055606 -0.492308
0.213163 -0.055606 -0.492755
0.211373 -0.055328 -0.492101
0.209852 -0.055328 -0.492549
0.208058 -0.055050 -0.491895
0.206535 -0.055050 -0.492343
0.205012 -0.055050 -0.492791
0.203213 -0.054772 -0.492136
0.201689 -0.054772 -0.492585
0.200164 -0.054772 -0.493034
0.198360 -0.054493 -0.492379
0.196834 -0.054493 -0.492828
0.195309 -0.054493 -0.493277
0.193499 -0.054214 -0.492621
0.191972 -0.054214 -0.493071
0.190157 -0.053934 -0.492414
0.188629 -0.053934 -0.492864
0.187101 -0.053934 -0.493314
0.185281 -0.053654 -0.492657
0.183752 -0.053654 -0.493108
0.181927 -0.053373 -0.492450
0.180397 -0.053373 -0.492901
0.178866 -0.053373 -0.493351
0.177036 -0.053092 -0.492693
0.175504 -0.053092 -0.493145
0.173973 -0.053092 -0.493596
0.172137 -0.052811 -0.492937
0.170604 -0.052811 -0.493389
0.169071 -0.052811 -0.493840
0.167229 -0.052528 -0.493182
0.165695 -0.052528 -0.493633
0.163849 -0.052246 -0.492974
0.162314 -0.052246 -0.493426
0.160778 -0.052246 -0.493879
0.158927 -0.051963 -0.493219
0.157390 -0.051963 -0.493671
0.155534 -0.051679 -0.493011
0.153996 -0.051679 -0.493464
0.152457 -0.051679 -0.493917
0.150596 -0.051395 -0.493256
0.149056 -0.051395 -0.493710
0.147517 -0.051395 -0.494163
0.145650 -0.051111 -0.493502
0.144109 -0.051111 -0.493956
0.142568 -0.051111 -0.494409
0.140695 -0.050826 -0.493748
0.139153 -0.050826 -0.494202
0.137276 -0.050540 -0.493540
0.135732 -0.050540 -0.493994
0.134189 -0.050540 -0.494449
0.132306 -0.050255 -0.493786
0.130761 -0.050255 -0.494241
0.128874 -0.049968 -0.493578
0.127328 -0.049968 -0.494033
0.125782 -0.049968 -0.494488
0.123541 -0.049394 -0.492704
0.121992 -0.049394 -0.493160
0.120092 -0.049106 -0.492494
0.118542 -0.049106 -0.492950
0.116638 -0.048818 -0.492284
0.115087 -0.048818 -0.492741
0.113178 -0.048529 -0.492073
0.111626 -0.048529 -0.492531
0.109712 -0.048240 -0.491863
0.108158 -0.048240 -0.492320
0.106241 -0.047950 -0.491651
0.104685 -0.047950 -0.492109
0.102763 -0.047660 -0.491440
0.101206 -0.047660 -0.491898
0.099650 -0.047660 -0.492356
0.097722 -0.047369 -0.491686
0.096164 -0.047369 -0.492145
0.094231 -0.047078 -0.491474
0.092672 -0.047078 -0.491933
0.090734 -0.046786 -0.491262
0.089174 -0.046786 -0.491722
0.087231 -0.046494 -0.491049
0.085670 -0.046494 -0.491509
0.084108 -0.046494 -0.491969
0.082160 -0.046201 -0.491297
0.080596 -0.046201 -0.491757
0.078644 -0.045908 -0.491084
0.077079 -0.045908 -0.491544
0.075515 -0.045908 -0.492005
0.073556 -0.045614 -0.491331
0.071990 -0.045614 -0.491792
0.070027 -0.045320 -0.491118
0.068459 -0.045320 -0.491580
0.066892 -0.045320 -0.492041
0.064923 -0.045025 -0.491366
0.063354 -0.045025 -0.491828
0.061380 -0.044730 -0.491152
0.059810 -0.044730 -0.491615
0.057831 -0.044434 -0.490938
0.056260 -0.044434 -0.491401
0.054276 -0.044137 -0.490724
0.052704 -0.044137 -0.491187
0.050715 -0.043841 -0.490509
0.049141 -0.043841 -0.490973
0.047568 -0.043841 -0.491436
0.045573 -0.043543 -0.490758
0.043998 -0.043543 -0.491222
0.041998 -0.043246 -0.490543
0.040422 -0.043246 -0.491007
0.038845 -0.043246 -0.491471
0.036840 -0.042947 -0.490792
0.035262 -0.042947 -0.491257
0.033684 -0.042947 -0.491721
0.032106 -0.042947 -0.492186
0.030093 -0.042648 -0.491507
0.028514 -0.042648 -0.491972
0.026496 -0.042349 -0.491292
0.024915 -0.042349 -0.491757
0.022892 -0.042049 -0.491076
0.021310 -0.042049 -0.491542
0.019728 -0.042049 -0.492008
0.017699 -0.041749 -0.491327
0.016116 -0.041749 -0.491793
0.014082 -0.041448 -0.491111
0.012497 -0.041448 -0.491578
0.010913 -0.041448 -0.492044
0.008873 -0.041147 -0.491362
0.007287 -0.041147 -0.491829
0.005242 -0.040845 -0.491146
0.003654 -0.040845 -0.491613
0.001604 -0.040542 -0.490929
0.000015 -0.040542 -0.491397
-0.002039 -0.040239 -0.490713
-0.003630 -0.040239 -0.491181
-0.005689 -0.039936 -0.490495
-0.007281 -0.039936 -0.490964
-0.008873 -0.039936 -0.491433
-0.010939 -0.039632 -0.490747
-0.012532 -0.039632 -0.491216
-0.014603 -0.039327 -0.490529
-0.016197 -0.039327 -0.490999
-0.017791 -0.039327 -0.491468
-0.019869 -0.039022 -0.490781
-0.021465 -0.039022 -0.491251
-0.023547 -0.038716 -0.490563
-0.025144 -0.038716 -0.491034
-0.027232 -0.038410 -0.490345
-0.028830 -0.038410 -0.490816
-0.030923 -0.038103 -0.490127
-0.032523 -0.038103 -0.490598
-0.034620 -0.037796 -0.489907
-0.036221 -0.037796 -0.490379
-0.037823 -0.037796 -0.490851
-0.039927 -0.037488 -0.490160
-0.041530 -0.037488 -0.490632
-0.043639 -0.037180 -0.489941
-0.045243 -0.037180 -0.490413
-0.046847 -0.037180 -0.490885
-0.048962 -0.036871 -0.490194
-0.050568 -0.036871 -0.490666
-0.052174 -0.036871 -0.491139
-0.053779 -0.036871 -0.491612
-0.055903 -0.036562 -0.490920
-0.057510 -0.036562 -0.491393
-0.059638 -0.036252 -0.490701
-0.061247 -0.036252 -0.491175
-0.063380 -0.035941 -0.490481
-0.064990 -0.035941 -0.490955
-0.066600 -0.035941 -0.491429
-0.068740 -0.035630 -0.490736
-0.070351 -0.035630 -0.491210
-0.072497 -0.035319 -0.490516
-0.074109 -0.035319 -0.490990
-0.076260 -0.035007 -0.490295
-0.077874 -0.035007 -0.490770
-0.079488 -0.035007 -0.491246
-0.081646 -0.034694 -0.490550
-0.083261 -0.034694 -0.491026
-0.085424 -0.034381 -0.490329
-0.087040 -0.034381 -0.490805
-0.089208 -0.034067 -0.490108
-0.090826 -0.034067 -0.490585
-0.092999 -0.033753 -0.489886
-0.094619 -0.033753 -0.490363
-0.096239 -0.033753 -0.490840
-0.098419 -0.033438 -0.490142
-0.100040 -0.033438 -0.490619
-0.102225 -0.033122 -0.489920
-0.103847 -0.033122 -0.490398
-0.106038 -0.032806 -0.489698
-0.107662 -0.032806 -0.490176
-0.109286 -0.032806 -0.490654
-0.111483 -0.032490 -0.489954
-0.113108 -0.032490 -0.490432
-0.115311 -0.032173 -0.489731
-0.116938 -0.032173 -0.490210
-0.119145 -0.031855 -0.489508
-0.120774 -0.031855 -0.489987
-0.122987 -0.031537 -0.489284
-0.124617 -0.031537 -0.489764
-0.126247 -0.031537 -0.490244
-0.128467 -0.031218 -0.489541
-0.130098 -0.031218 -0.490021
-0.132323 -0.030899 -0.489317
-0.133956 -0.030899 -0.489798
-0.136187 -0.030579 -0.489093
-0.137821 -0.030579 -0.489574
-0.139455 -0.030579 -0.490055
-0.141693 -0.030258 -0.489350
-0.143328 -0.030258 -0.489831
-0.145571 -0.029937 -0.489125
-0.147208 -0.029937 -0.489607
-0.149457 -0.029616 -0.488900
-0.151096 -0.029616 -0.489382
-0.153350 -0.029293 -0.488674
-0.154990 -0.029293 -0.489157
-0.156630 -0.029293 -0.489640
-0.158891 -0.028970 -0.488932
-0.160532 -0.028970 -0.489415
-0.162799 -0.028647 -0.488706
-0.164442 -0.028647 -0.489190
-0.166714 -0.028323 -0.488480
-0.168358 -0.028323 -0.488964
-0.170003 -0.028323 -0.489448
-0.171647 -0.028323 -0.489933
-0.173928 -0.027999 -0.489223
-0.175573 -0.027999 -0.489707
-0.177219 -0.027999 -0.490192
-0.179507 -0.027673 -0.489482
-0.181154 -0.027673 -0.489967
-0.183448 -0.027348 -0.489256
-0.185096 -0.027348 -0.489741
-0.187395 -0.027021 -0.489029
-0.189046 -0.027021 -0.489515
-0.191350 -0.026695 -0.488802
-0.193002 -0.026695 -0.489289
-0.194654 -0.026695 -0.489775
-0.196965 -0.026367 -0.489062
-0.198619 -0.026367 -0.489548
-0.200936 -0.026039 -0.488834
-0.202591 -0.026039 -0.489322
-0.204913 -0.025710 -0.488607
-0.206570 -0.025710 -0.489094
-0.208226 -0.025710 -0.489582
-0.210556 -0.025381 -0.488867
-0.212214 -0.025381 -0.489355
-0.214550 -0.025051 -0.488638
-0.216890 -0.024721 -0.487921
-0.218551 -0.024721 -0.488410
-0.220896 -0.024390 -0.487692
-0.223246 -0.024058 -0.486972
-0.224910 -0.024058 -0.487462
-0.227266 -0.023726 -0.486741
-0.228931 -0.023726 -0.487232
-0.231293 -0.023393 -0.486510
-0.232960 -0.023393 -0.487001
-0.235327 -0.023060 -0.486279
-0.237699 -0.022726 -0.485555
-0.239369 -0.022726 -0.486047
-0.241746 -0.022391 -0.485322
-0.244128 -0.022056 -0.484596
-0.245801 -0.022056 -0.485089
-0.248905 -0.021383 -0.483141
-0.251300 -0.021046 -0.482411
-0.253699 -0.020708 -0.481680
-0.256103 -0.020370 -0.480947
-0.258511 -0.020031 -0.480214
-0.260923 -0.019691 -0.479478
-0.263340 -0.019351 -0.478742
-0.265762 -0.019010 -0.478004
-0.268188 -0.018669 -0.477265
-0.270618 -0.018327 -0.476524
-0.272308 -0.018327 -0.477022
-0.274744 -0.017984 -0.476280
-0.277185 -0.017641 -0.475537
-0.279631 -0.017297 -0.474793
-0.282081 -0.016952 -0.474048
-0.284535 -0.016607 -0.473301
-0.286994 -0.016261 -0.472552
-0.289457 -0.015914 -0.471803
-0.291926 -0.015567 -0.471051
-0.294398 -0.015219 -0.470299
-0.296876 -0.014871 -0.469545
-0.300135 -0.014172 -0.467530
-0.302625 -0.013821 -0.466771
-0.305119 -0.013470 -0.466011
-0.307618 -0.013119 -0.465250
-0.310121 -0.012766 -0.464487
-0.313424 -0.012059 -0.462451
-0.315940 -0.011705 -0.461683
-0.319263 -0.010994 -0.459636
-0.321792 -0.010638 -0.458864
-0.324325 -0.010281 -0.458090
-0.327677 -0.009565 -0.456028
-0.331041 -0.008846 -0.453959
-0.333595 -0.008485 -0.453177
-0.336979 -0.007762 -0.451096
-0.339546 -0.007400 -0.450309
-0.342952 -0.006673 -0.448217
-0.346371 -0.005943 -0.446117
-0.348959 -0.005577 -0.445321
-0.352399 -0.004843 -0.443210
-0.355852 -0.004106 -0.441090
-0.358462 -0.003737 -0.440286
-0.361936 -0.002996 -0.438155
-0.364559 -0.002624 -0.437345
-0.368056 -0.001879 -0.435202
-0.371566 -0.001131 -0.433051
-0.374210 -0.000755 -0.432233
-0.377742 -0.000003 -0.430070
-0.381288 0.000753 -0.427898
-0.383955 0.001131 -0.427071
-0.387523 0.001891 -0.424887
-0.390204 0.002272 -0.424054
-0.393795 0.003037 -0.421858
-0.397399 0.003804 -0.419654
-0.400103 0.004189 -0.418812
-0.403730 0.004960 -0.416595
-0.406448 0.005347 -0.415748
-0.410099 0.006124 -0.413518
-0.413764 0.006903 -0.411280
-0.418384 0.008078 -0.407639
-0.422083 0.008865 -0.405378
-0.426751 0.010052 -0.401702
-0.432408 0.011645 -0.396587
-0.437139 0.012848 -0.392859
-0.441899 0.014058 -0.389108
-0.446687 0.015276 -0.385335
0.481899 0.058938 0.083313
0.480160 0.056443 0.072128
0.478441 0.053976 0.061067
0.476675 0.052021 0.052186
0.474791 0.051050 0.047479
0.472915 0.050084 0.042792
0.471188 0.048163 0.034068
0.469260 0.047686 0.031458
0.467335 0.047209 0.028853
0.465415 0.046734 0.026254
0.463499 0.046259 0.023661
0.461668 0.045314 0.019076
0.459762 0.044842 0.016499
0.457861 0.044372 0.013927
0.455963 0.043903 0.011361
0.454070 0.043434 0.008800
0.452271 0.042501 0.004278
0.450387 0.042036 0.001733
0.448508 0.041571 -0.000807
0.446633 0.041108 -0.003340
0.448870 0.021243 -0.087656
0.447982 0.016662 -0.107512
0.447025 0.012585 -0.125232
0.445729 0.010178 -0.135910
0.444357 0.008194 -0.144800
0.442815 0.007013 -0.150306
0.441282 0.005839 -0.155779
0.439759 0.004672 -0.161220
0.438244 0.003512 -0.166629
0.436641 0.002742 -0.170393
0.434946 0.002358 -0.172534
0.433354 0.001593 -0.176275
0.431769 0.000831 -0.180003
0.430086 0.000451 -0.182123
0.428512 -0.000307 -0.185829
0.426943 -0.001062 -0.189519
0.425274 -0.001438 -0.191621
0.423608 -0.001814 -0.193718
0.422055 -0.002563 -0.197379
0.420397 -0.002936 -0.199465
0.418854 -0.003681 -0.203105
0.417204 -0.004052 -0.205179
0.415672 -0.004793 -0.208797
0.414029 -0.005162 -0.210860
0.412508 -0.005898 -0.214457
0.410873 -0.006265 -0.216508
0.409362 -0.006997 -0.220084
0.407613 -0.006997 -0.220600
0.406111 -0.007726 -0.224161
0.404490 -0.008090 -0.226193
0.402872 -0.008453 -0.228222
0.401257 -0.008815 -0.230247
0.399516 -0.008815 -0.230760
0.397906 -0.009176 -0.232780
0.396299 -0.009537 -0.234797
0.394695 -0.009897 -0.236809
0.393094 -0.010257 -0.238818
0.391496 -0.010615 -0.240824
0.389901 -0.010973 -0.242825
0.388309 -0.011331 -0.244823
0.386720 -0.011688 -0.246816
0.384991 -0.011688 -0.247325
0.383407 -0.012044 -0.249315
0.381826 -0.012399 -0.251301
0.380101 -0.012399 -0.251809
0.378524 -0.012754 -0.253790
0.376801 -0.012754 -0.254298
0.375229 -0.013108 -0.256275
0.373659 -0.013461 -0.258249
0.372093 -0.013814 -0.260219
0.370375 -0.013814 -0.260725
0.368813 -0.014166 -0.262691
0.367096 -0.014166 -0.263197
0.365539 -0.014518 -0.265158
0.363984 -0.014868 -0.267116
0.362271 -0.014868 -0.267621
0.360721 -0.015218 -0.269575
0.359009 -0.015218 -0.270079
0.357464 -0.015568 -0.272029
0.355921 -0.015917 -0.273975
0.354212 -0.015917 -0.274478
0.352674 -0.016265 -0.276421
0.350967 -0.016265 -0.276923
0.349433 -0.016612 -0.278861
0.347728 -0.016612 -0.279364
0.346022 -0.016612 -0.279866
0.344495 -0.016959 -0.281799
0.342970 -0.017306 -0.283729
0.341268 -0.017306 -0.284231
0.339747 -0.017651 -0.286157
0.338046 -0.017651 -0.286657
0.336530 -0.017996 -0.288579
0.334831 -0.017996 -0.289080
0.333320 -0.018340 -0.290998
0.331811 -0.018684 -0.292912
0.330115 -0.018684 -0.293411
0.328610 -0.019027 -0.295322
0.326916 -0.019027 -0.295821
0.325415 -0.019369 -0.297727
0.323722 -0.019369 -0.298225
0.322227 -0.019711 -0.300128
0.320535 -0.019711 -0.300626
0.319044 -0.020052 -0.302524
0.317555 -0.020393 -0.304419
0.315867 -0.020393 -0.304916
0.314382 -0.020733 -0.306807
0.312696 -0.020733 -0.307304
0.311215 -0.021072 -0.309191
0.309530 -0.021072 -0.309687
0.308054 -0.021411 -0.311571
0.306581 -0.021749 -0.313450
0.304899 -0.021749 -0.313945
0.303430 -0.022086 -0.315821
0.301749 -0.022086 -0.316316
0.300285 -0.022423 -0.318188
0.298606 -0.022423 -0.318683
0.297145 -0.022759 -0.320551
0.295468 -0.022759 -0.321045
0.294011 -0.023095 -0.322909
0.292779 -0.023764 -0.326134
0.291107 -0.023764 -0.326627
0.289658 -0.024098 -0.328481
0.287987 -0.024098 -0.328973
0.286543 -0.024431 -0.330823
0.284873 -0.024431 -0.331315
0.283433 -0.024763 -0.333161
0.281764 -0.024763 -0.333652
0.280328 -0.025095 -0.335495
0.278661 -0.025095 -0.335986
0.277230 -0.025426 -0.337825
0.275800 -0.025757 -0.339660
0.274137 -0.025757 -0.340150
0.272711 -0.026087 -0.341982
0.271049 -0.026087 -0.342471
0.269628 -0.026417 -0.344299
0.292432 -0.059623 -0.479625
0.291124 -0.059895 -0.481172
0.289818 -0.060166 -0.482717
0.288515 -0.060437 -0.484259
0.287214 -0.060707 -0.485798
0.285914 -0.060977 -0.487335
0.284823 -0.061515 -0.489959
0.283322 -0.061515 -0.490401
0.281821 -0.061515 -0.490843
0.280112 -0.061246 -0.490196
0.278610 -0.061246 -0.490638
0.277108 -0.061246 -0.491080
0.275393 -0.060977 -0.490433
0.273890 -0.060977 -0.490875
0.272387 -0.060977 -0.491318
0.270884 -0.060977 -0.491761
0.269162 -0.060707 -0.491113
0.267658 -0.060707 -0.491556
0.266154 -0.060707 -0.491999
0.264427 -0.060437 -0.491351
0.262922 -0.060437 -0.491795
0.261416 -0.060437 -0.492238
0.259684 -0.060166 -0.491590
0.258177 -0.060166 -0.492034
0.256671 -0.060166 -0.492477
0.254933 -0.059895 -0.491829
0.253425 -0.059895 -0.492273
0.251684 -0.059623 -0.491624
0.250174 -0.059623 -0.492068
0.248665 -0.059623 -0.492513
0.247156 -0.059623 -0.492957
0.245168 -0.059079 -0.491213
0.243657 -0.059079 -0.491658
0.242145 -0.059079 -0.492103
0.240390 -0.058806 -0.491452
0.238877 -0.058806 -0.491898
0.237364 -0.058806 -0.492343
0.235603 -0.058532 -0.491692
0.234089 -0.058532 -0.492138
0.232325 -0.058258 -0.491486
0.230809 -0.058258 -0.491932
0.229294 -0.058258 -0.492379
0.227524 -0.057984 -0.491726
0.226007 -0.057984 -0.492173
0.224232 -0.057709 -0.491520
0.222715 -0.057709 -0.491967
0.221197 -0.057709 -0.492414
0.219417 -0.057434 -0.491761
0.217898 -0.057434 -0.492208
0.216378 -0.057434 -0.492655
0.214593 -0.057158 -0.492002
0.213073 -0.057158 -0.492450
0.211552 -0.057158 -0.492897
0.209762 -0.056882 -0.492243
0.208240 -0.056882 -0.492691
0.206445 -0.056606 -0.492037
0.204922 -0.056606 -0.492485
0.203399 -0.056606 -0.492934
0.201598 -0.056329 -0.492279
0.200074 -0.056329 -0.492728
0.198269 -0.056051 -0.492072
0.196744 -0.056051 -0.492521
0.195218 -0.056051 -0.492970
0.193408 -0.055773 -0.492314
0.191881 -0.055773 -0.492764
0.190355 -0.055773 -0.493213
0.188539 -0.055495 -0.492557
0.187011 -0.055495 -0.493007
0.185483 -0.055495 -0.493457
0.183661 -0.055216 -0.492800
0.182132 -0.055216 -0.493250
0.180306 -0.054936 -0.492593
0.178776 -0.054936 -0.493044
0.177245 -0.054936 -0.493494
0.175414 -0.054656 -0.492837
0.173882 -0.054656 -0.493288
0.172046 -0.054376 -0.492629
0.170513 -0.054376 -0.493081
0.168980 -0.054376 -0.493532
0.167139 -0.054095 -0.492873
0.165604 -0.054095 -0.493325
0.164070 -0.054095 -0.493777
0.162223 -0.053814 -0.493118
0.160687 -0.053814 -0.493570
0.159151 -0.053814 -0.494022
0.157299 -0.053532 -0.493362
0.155762 -0.053532 -0.493815
0.153905 -0.053250 -0.493155
0.152366 -0.053250 -0.493608
0.150828 -0.053250 -0.494061
0.148965 -0.052967 -0.493400
0.147426 -0.052967 -0.493853
0.145559 -0.052684 -0.493192
0.144018 -0.052684 -0.493646
0.142477 -0.052684 -0.494100
0.140604 -0.052401 -0.493438
0.139062 -0.052401 -0.493892
0.137520 -0.052401 -0.494346
0.135641 -0.052117 -0.493684
0.134098 -0.052117 -0.494138
0.132215 -0.051832 -0.493476
0.130670 -0.051832 -0.493931
0.129125 -0.051832 -0.494385
0.127236 -0.051547 -0.493722
0.125690 -0.051547 -0.494177
0.123449 -0.050975 -0.492393
0.121900 -0.050975 -0.492849
0.120352 -0.050975 -0.493305
0.118451 -0.050689 -0.492639
0.116546 -0.050402 -0.491972
0.114995 -0.050402 -0.492429
0.113086 -0.050115 -0.491761
0.111534 -0.050115 -0.492218
0.109620 -0.049827 -0.491550
0.108066 -0.049827 -0.492008
0.106512 -0.049827 -0.492465
0.104593 -0.049538 -0.491796
0.103038 -0.049538 -0.492254
0.101114 -0.049249 -0.491585
0.099558 -0.049249 -0.492043
0.097629 -0.048960 -0.491373
0.096071 -0.048960 -0.491832
0.094138 -0.048670 -0.491161
0.092579 -0.048670 -0.491620
0.091020 -0.048670 -0.492079
0.089081 -0.048379 -0.491408
0.087521 -0.048379 -0.491867
0.085577 -0.048089 -0.491195
0.084015 -0.048089 -0.491655
0.082453 -0.048089 -0.492115
0.080504 -0.047797 -0.491443
0.078941 -0.047797 -0.491903
0.076986 -0.047505 -0.491230
0.075422 -0.047505 -0.491690
0.073463 -0.047213 -0.491017
0.071897 -0.047213 -0.491478
0.070331 -0.047213 -0.491939
0.068367 -0.046920 -0.491264
0.066799 -0.046920 -0.491726
0.064830 -0.046627 -0.491051
0.063261 -0.046627 -0.491513
0.061287 -0.046333 -0.490837
0.059717 -0.046333 -0.491299
0.057738 -0.046038 -0.490623
0.056167 -0.046038 -0.491085
0.054596 -0.046038 -0.491548
0.052611 -0.045743 -0.490871
0.051038 -0.045743 -0.491334
0.049048 -0.045448 -0.490656
0.047474 -0.045448 -0.491120
0.045480 -0.045152 -0.490441
0.043904 -0.045152 -0.490905
0.042329 -0.045152 -0.491369
0.040328 -0.044856 -0.490690
0.038752 -0.044856 -0.491154
0.036746 -0.044559 -0.490475
0.035168 -0.044559 -0.490939
0.033590 -0.044559 -0.491404
0.032012 -0.044559 -0.491869
0.029999 -0.044261 -0.491189
0.028420 -0.044261 -0.491654
0.026841 -0.044261 -0.492119
0.024821 -0.043963 -0.491439
0.023241 -0.043963 -0.491905
0.021217 -0.043665 -0.491224
0.019635 -0.043665 -0.491690
0.017606 -0.043366 -0.491008
0.016022 -0.043366 -0.491475
0.014439 -0.043366 -0.491941
0.012404 -0.043066 -0.491259
0.010819 -0.043066 -0.491726
0.008779 -0.042766 -0.491043
0.007193 -0.042766 -0.491510
0.005148 -0.042466 -0.490827
0.003560 -0.042466 -0.491294
0.001510 -0.042165 -0.490610
-0.000079 -0.042165 -0.491078
-0.001668 -0.042165 -0.491546
-0.003724 -0.041863 -0.490861
-0.005314 -0.041863 -0.491329
-0.007375 -0.041561 -0.490644
-0.008967 -0.041561 -0.491113
-0.011033 -0.041258 -0.490427
-0.012626 -0.041258 -0.490896
-0.014219 -0.041258 -0.491365
-0.016291 -0.040955 -0.490678
-0.017886 -0.040955 -0.491148
-0.019963 -0.040651 -0.490461
-0.021559 -0.040651 -0.490930
-0.023642 -0.040347 -0.490242
-0.025239 -0.040347 -0.490713
-0.027326 -0.040043 -0.490024
-0.028925 -0.040043 -0.490495
-0.030523 -0.040043 -0.490965
-0.032617 -0.039737 -0.490276
-0.034217 -0.039737 -0.490747
-0.036316 -0.039431 -0.490057
-0.037918 -0.039431 -0.490529
-0.040022 -0.039125 -0.489838
-0.041624 -0.039125 -0.490310
-0.043227 -0.039125 -0.490782
-0.045338 -0.038818 -0.490090
-0.046942 -0.038818 -0.490563
-0.049057 -0.038511 -0.489871
-0.050663 -0.038511 -0.490344
-0.052269 -0.038511 -0.490816
-0.053874 -0.038511 -0.491289
-0.055998 -0.038203 -0.490597
-0.057605 -0.038203 -0.491070
-0.059212 -0.038203 -0.491544
-0.061342 -0.037894 -0.490851
-0.062950 -0.037894 -0.491325
-0.065085 -0.037585 -0.490632
-0.066695 -0.037585 -0.491106
-0.068836 -0.037276 -0.490412
-0.070447 -0.037276 -0.490886
-0.072058 -0.037276 -0.491361
-0.074205 -0.036966 -0.490666
-0.075818 -0.036966 -0.491141
-0.077970 -0.036655 -0.490446
-0.079584 -0.036655 -0.490921
-0.081741 -0.036344 -0.490225
-0.083357 -0.036344 -0.490701
-0.085519 -0.036032 -0.490004
-0.087136 -0.036032 -0.490480
-0.088753 -0.036032 -0.490956
-0.090922 -0.035720 -0.490259
-0.092541 -0.035720 -0.490736
-0.094715 -0.035407 -0.490038
-0.096335 -0.035407 -0.490515
-0.098515 -0.035093 -0.489816
-0.100136 -0.035093 -0.490293
-0.101757 -0.035093 -0.490771
-0.103944 -0.034779 -0.490072
-0.105566 -0.034779 -0.490549
-0.107758 -0.034465 -0.489849
-0.109382 -0.034465 -0.490328
-0.111579 -0.034150 -0.489627
-0.113205 -0.034150 -0.490105
-0.115407 -0.033834 -0.489404
-0.117034 -0.033834 -0.489883
-0.118661 -0.033834 -0.490362
-0.120870 -0.033518 -0.489660
-0.122499 -0.033518 -0.490139
-0.124713 -0.033201 -0.489437
-0.126343 -0.033201 -0.489916
-0.128563 -0.032884 -0.489213
-0.130194 -0.032884 -0.489693
-0.131826 -0.032884 -0.490173
-0.134053 -0.032566 -0.489469
-0.135685 -0.032566 -0.489950
-0.137918 -0.032248 -0.489245
-0.139552 -0.032248 -0.489726
-0.141789 -0.031929 -0.489021
-0.143425 -0.031929 -0.489502
-0.145668 -0.031609 -0.488796
-0.147305 -0.031609 -0.489278
-0.148942 -0.031609 -0.489760
-0.151193 -0.031289 -0.489053
-0.152831 -0.031289 -0.489536
-0.155087 -0.030968 -0.488828
-0.156727 -0.030968 -0.489311
-0.158988 -0.030647 -0.488602
-0.160629 -0.030647 -0.489085
-0.162271 -0.030647 -0.489569
-0.164539 -0.030325 -0.488860
-0.166182 -0.030325 -0.489343
-0.168455 -0.030002 -0.488634
-0.170100 -0.030002 -0.489118
-0.171744 -0.030002 -0.489602
-0.173389 -0.030002 -0.490086
-0.175671 -0.029679 -0.489376
-0.177317 -0.029679 -0.489861
-0.179604 -0.029356 -0.489150
-0.181252 -0.029356 -0.489636
-0.182899 -0.029356 -0.490121
-0.185194 -0.029032 -0.489410
-0.186843 -0.029032 -0.489895
-0.189143 -0.028707 -0.489183
-0.190794 -0.028707 -0.489669
-0.193100 -0.028381 -0.488956
-0.194751 -0.028381 -0.489443
-0.197063 -0.028055 -0.488729
-0.198716 -0.028055 -0.489216
-0.200370 -0.028055 -0.489703
-0.202688 -0.027729 -0.488989
-0.204343 -0.027729 -0.489476
-0.206668 -0.027402 -0.488761
-0.208324 -0.027402 -0.489249
-0.210654 -0.027074 -0.488533
-0.212989 -0.026746 -0.487816
-0.214648 -0.026746 -0.488305
-0.216988 -0.026417 -0.487587
-0.218649 -0.026417 -0.488076
-0.220995 -0.026087 -0.487357
-0.222657 -0.026087 -0.487847
-0.225009 -0.025757 -0.487127
-0.226672 -0.025757 -0.487617
-0.229030 -0.025426 -0.486897
-0.230695 -0.025426 -0.487387
-0.233058 -0.025095 -0.486666
-0.235426 -0.024763 -0.485943
-0.237798 -0.024431 -0.485219
-0.239467 -0.024431 -0.485711
-0.241845 -0.024098 -0.484986
-0.243516 -0.024098 -0.485478
-0.245900 -0.023764 -0.484753
-0.249004 -0.023095 -0.482804
-0.252119 -0.022423 -0.480848
-0.253798 -0.022423 -0.481342
-0.256202 -0.022086 -0.480610
-0.258611 -0.021749 -0.479875
-0.261023 -0.021411 -0.479140
-0.263440 -0.021072 -0.478403
-0.265862 -0.020733 -0.477665
-0.268288 -0.020393 -0.476925
-0.270718 -0.020052 -0.476185
-0.272408 -0.020052 -0.476682
-0.274844 -0.019711 -0.475940
-0.277285 -0.019369 -0.475197
-0.279731 -0.019027 -0.474453
-0.282181 -0.018684 -0.473707
-0.284635 -0.018340 -0.472959
-0.287095 -0.017996 -0.472211
-0.289558 -0.017651 -0.471461
-0.292026 -0.017306 -0.470709
-0.294499 -0.016959 -0.469956
-0.297751 -0.016265 -0.467944
-0.300236 -0.015917 -0.467186
-0.302726 -0.015568 -0.466427
-0.305220 -0.015218 -0.465667
-0.307719 -0.014868 -0.464905
-0.311015 -0.014166 -0.462872
-0.313526 -0.013814 -0.462105
-0.316841 -0.013108 -0.460061
-0.319365 -0.012754 -0.459290
-0.321894 -0.012399 -0.458517
-0.325238 -0.011688 -0.456458
-0.328594 -0.010973 -0.454391
-0.331143 -0.010615 -0.453610
-0.334520 -0.009897 -0.451533
-0.337910 -0.009176 -0.449447
-0.340480 -0.008815 -0.448657
-0.343891 -0.008090 -0.446560
-0.346474 -0.007726 -0.445766
-0.349906 -0.006997 -0.443657
-0.353351 -0.006265 -0.441541
-0.355956 -0.005898 -0.440737
-0.359422 -0.005162 -0.438609
-0.362902 -0.004423 -0.436473
-0.365529 -0.004052 -0.435661
-0.369030 -0.003309 -0.433513
-0.371670 -0.002936 -0.432696
-0.375194 -0.002188 -0.430535
-0.378731 -0.001438 -0.428367
-0.381393 -0.001062 -0.427541
-0.384953 -0.000307 -0.425360
-0.388526 0.000451 -0.423171
-0.391211 0.000831 -0.422336
-0.394807 0.001593 -0.420134
-0.397505 0.001975 -0.419294
-0.401124 0.002742 -0.417080
-0.403837 0.003127 -0.416234
-0.407479 0.003898 -0.414007
-0.411135 0.004672 -0.411772
-0.415742 0.005839 -0.408137
-0.419433 0.006621 -0.405879
-0.423138 0.007406 -0.403612
-0.427814 0.008589 -0.399927
-0.433481 0.010178 -0.394800
-0.438220 0.011378 -0.391063
-0.443969 0.012989 -0.385864
-0.451754 0.015430 -0.377715
0.481595 0.058348 0.090135
0.479915 0.055351 0.076757
0.478193 0.052884 0.065646
0.476490 0.050444 0.054657
0.474604 0.049476 0.049938
0.472726 0.048512 0.045241
0.470928 0.047073 0.038528
0.469069 0.046120 0.033881
0.467217 0.045170 0.029255
0.465297 0.044697 0.026655
0.463381 0.044225 0.024061
0.461470 0.043753 0.021473
0.459562 0.043283 0.018890
0.457743 0.042346 0.014326
0.455846 0.041879 0.011760
0.453953 0.041413 0.009198
0.452064 0.040948 0.006643
0.450178 0.040484 0.004093
0.448391 0.039558 -0.000410
0.446516 0.039097 -0.002944
0.444645 0.038637 -0.005473
0.447693 0.015587 -0.103660
0.446737 0.011512 -0.121454
0.445440 0.009107 -0.132176
0.444067 0.007124 -0.141103
0.442616 0.005552 -0.148287
0.441082 0.004382 -0.153772
0.439557 0.003218 -0.159224
0.438042 0.002061 -0.164644
0.436438 0.001293 -0.168416
0.434840 0.000528 -0.172173
0.433148 0.000147 -0.174310
0.431561 -0.000613 -0.178045
0.429878 -0.000992 -0.180169
0.428302 -0.001748 -0.183882
0.426627 -0.002124 -0.185995
0.425062 -0.002876 -0.189685
0.423503 -0.003624 -0.193362
0.421840 -0.003997 -0.195455
0.420292 -0.004742 -0.199110
0.418637 -0.005112 -0.201192
0.417100 -0.005852 -0.204825
0.415452 -0.006221 -0.206895
0.413925 -0.006957 -0.210507
0.412286 -0.007323 -0.212566
0.410770 -0.008055 -0.216156
0.409259 -0.008783 -0.219733
0.407632 -0.009147 -0.221773
0.406008 -0.009509 -0.223810
0.404387 -0.009871 -0.225843
0.402769 -0.010232 -0.227872
0.401154 -0.010593 -0.229897
0.399413 -0.010593 -0.230410
0.397803 -0.010953 -0.232430
0.396196 -0.011312 -0.234447
0.394592 -0.011670 -0.236460
0.392991 -0.012028 -0.238470
0.391393 -0.012385 -0.240475
0.389798 -0.012741 -0.242477
0.388206 -0.013097 -0.244475
0.386617 -0.013452 -0.246469
0.384889 -0.013452 -0.246978
0.383305 -0.013807 -0.248968
0.381578 -0.013807 -0.249476
0.379999 -0.014160 -0.251462
0.378274 -0.014160 -0.251970
0.376699 -0.014514 -0.253951
0.375127 -0.014866 -0.255929
0.373558 -0.015218 -0.257903
0.371838 -0.015218 -0.258410
0.370273 -0.015569 -0.260380
0.368555 -0.015569 -0.260886
0.366994 -0.015919 -0.262851
0.365437 -0.016269 -0.264814
0.363722 -0.016269 -0.265319
0.362169 -0.016618 -0.267277
0.360456 -0.016618 -0.267781
0.358908 -0.016967 -0.269735
0.357196 -0.016967 -0.270239
0.355652 -0.017314 -0.272189
0.353942 -0.017314 -0.272692
0.352402 -0.017662 -0.274638
0.350694 -0.017662 -0.275141
0.349159 -0.018008 -0.277083
0.347452 -0.018008 -0.277585
0.345921 -0.018354 -0.279523
0.344394 -0.018699 -0.281457
0.342690 -0.018699 -0.281959
0.341167 -0.019044 -0.283888
0.339464 -0.019044 -0.284390
0.337946 -0.019388 -0.286315
0.336245 -0.019388 -0.286816
0.334731 -0.019731 -0.288738
0.333219 -0.020074 -0.290656
0.331521 -0.020074 -0.291156
0.330014 -0.020416 -0.293070
0.328318 -0.020416 -0.293570
0.326815 -0.020757 -0.295480
0.325121 -0.020757 -0.295979
0.323622 -0.021098 -0.297885
0.322127 -0.021438 -0.299788
0.320435 -0.021438 -0.300286
0.318944 -0.021778 -0.302185
0.317254 -0.021778 -0.302682
0.315767 -0.022117 -0.304577
0.314079 -0.022117 -0.305074
0.312596 -0.022455 -0.306965
0.310909 -0.022455 -0.307462
0.309430 -0.022793 -0.309349
0.307745 -0.022793 -0.309845
0.306271 -0.023130 -0.311728
0.304799 -0.023466 -0.313607
0.303117 -0.023466 -0.314103
0.301650 -0.023802 -0.315978
0.299969 -0.023802 -0.316473
0.298506 -0.024137 -0.318345
0.297046 -0.024472 -0.320213
0.295368 -0.024472 -0.320707
0.293912 -0.024806 -0.322572
0.292236 -0.024806 -0.323065
0.291008 -0.025472 -0.326290
0.289335 -0.025472 -0.326783
0.287888 -0.025804 -0.328637
0.286216 -0.025804 -0.329129
0.284774 -0.026136 -0.330979
0.283104 -0.026136 -0.331471
0.281666 -0.026467 -0.333317
0.280230 -0.026797 -0.335160
0.278563 -0.026797 -0.335651
0.277131 -0.027127 -0.337490
0.275466 -0.027127 -0.337980
0.274038 -0.027456 -0.339815
0.272613 -0.027785 -0.341647
0.270951 -0.027785 -0.342137
0.269530 -0.028113 -0.343965
0.267626 -0.027785 -0.343116
0.290833 -0.061164 -0.479766
0.289527 -0.061435 -0.481313
0.288223 -0.061705 -0.482857
0.286920 -0.061974 -0.484399
0.285825 -0.062512 -0.487033
0.284528 -0.062780 -0.488567
0.283233 -0.063048 -0.490099
0.281733 -0.063048 -0.490541
0.280023 -0.062780 -0.489894
0.278521 -0.062780 -0.490336
0.277019 -0.062780 -0.490778
0.275304 -0.062512 -0.490131
0.273801 -0.062512 -0.490573
0.272298 -0.062512 -0.491016
0.270795 -0.062512 -0.491458
0.269073 -0.062243 -0.490811
0.267569 -0.062243 -0.491254
0.266065 -0.062243 -0.491697
0.264338 -0.061974 -0.491049
0.262832 -0.061974 -0.491492
0.261327 -0.061974 -0.491935
0.259595 -0.061705 -0.491287
0.258088 -0.061705 -0.491731
0.256352 -0.061435 -0.491082
0.254844 -0.061435 -0.491526
0.253336 -0.061435 -0.491970
0.251828 -0.061435 -0.492414
0.250320 -0.061435 -0.492858
0.248576 -0.061164 -0.492209
0.246829 -0.060894 -0.491560
0.245318 -0.060894 -0.492004
0.243808 -0.060894 -0.492449
0.242297 -0.060894 -0.492894
0.240544 -0.060622 -0.492244
0.239032 -0.060622 -0.492689
0.237520 -0.060622 -0.493135
0.235761 -0.060351 -0.492485
0.234249 -0.060351 -0.492930
0.232485 -0.060079 -0.492279
0.230971 -0.060079 -0.492725
0.229457 -0.060079 -0.493171
0.227689 -0.059806 -0.492520
0.226173 -0.059806 -0.492966
0.224400 -0.059533 -0.492315
0.222625 -0.059259 -0.491662
0.221107 -0.059259 -0.492109
0.219589 -0.059259 -0.492556
0.217808 -0.058985 -0.491903
0.216289 -0.058985 -0.492350
0.214503 -0.058711 -0.491696
0.212983 -0.058711 -0.492144
0.211462 -0.058711 -0.492592
0.209671 -0.058436 -0.491937
0.208150 -0.058436 -0.492386
0.206355 -0.058161 -0.491731
0.204832 -0.058161 -0.492179
0.203309 -0.058161 -0.492628
0.201508 -0.057885 -0.491972
0.199984 -0.057885 -0.492421
0.198179 -0.057609 -0.491765
0.196654 -0.057609 -0.492214
0.195128 -0.057609 -0.492664
0.193603 -0.057609 -0.493113
0.191791 -0.057332 -0.492457
0.190264 -0.057332 -0.492906
0.188448 -0.057055 -0.492250
0.186920 -0.057055 -0.492700
0.185392 -0.057055 -0.493150
0.183571 -0.056777 -0.492493
0.182041 -0.056777 -0.492943
0.180216 -0.056499 -0.492285
0.178685 -0.056499 -0.492736
0.177154 -0.056499 -0.493187
0.175323 -0.056221 -0.492529
0.173791 -0.056221 -0.492980
0.171955 -0.055942 -0.492321
0.170422 -0.055942 -0.492772
0.168889 -0.055942 -0.493224
0.167356 -0.055942 -0.493675
0.165513 -0.055662 -0.493016
0.163979 -0.055662 -0.493468
0.162132 -0.055382 -0.492809
0.160596 -0.055382 -0.493261
0.159060 -0.055382 -0.493713
0.157208 -0.055102 -0.493053
0.155671 -0.055102 -0.493506
0.153814 -0.054821 -0.492845
0.152275 -0.054821 -0.493298
0.150737 -0.054821 -0.493751
0.148874 -0.054540 -0.493091
0.147335 -0.054540 -0.493544
0.145467 -0.054258 -0.492882
0.143927 -0.054258 -0.493336
0.142386 -0.054258 -0.493790
0.140845 -0.054258 -0.494243
0.138971 -0.053976 -0.493582
0.137428 -0.053976 -0.494036
0.135550 -0.053693 -0.493374
0.134006 -0.053693 -0.493828
0.132123 -0.053410 -0.493165
0.130578 -0.053410 -0.493620
0.129034 -0.053410 -0.494075
0.127145 -0.053126 -0.493411
0.125599 -0.053126 -0.493867
0.123357 -0.052557 -0.492081
0.121809 -0.052557 -0.492537
0.120260 -0.052557 -0.492993
0.118359 -0.052272 -0.492327
0.116454 -0.051986 -0.491660
0.114903 -0.051986 -0.492117
0.112994 -0.051700 -0.491449
0.111442 -0.051700 -0.491906
0.109889 -0.051700 -0.492364
0.108337 -0.051700 -0.492821
0.106420 -0.051413 -0.492153
0.104867 -0.051413 -0.492610
0.102946 -0.051126 -0.491942
0.101391 -0.051126 -0.492400
0.099466 -0.050839 -0.491730
0.097909 -0.050839 -0.492189
0.096352 -0.050839 -0.492647
0.094421 -0.050551 -0.491977
0.092863 -0.050551 -0.492436
0.090928 -0.050262 -0.491766
0.089369 -0.050262 -0.492225
0.087428 -0.049973 -0.491554
0.085868 -0.049973 -0.492013
0.084307 -0.049973 -0.492473
0.082361 -0.049683 -0.491801
0.080799 -0.049683 -0.492261
0.079237 -0.049683 -0.492721
0.077285 -0.049393 -0.492049
0.075722 -0.049393 -0.492509
0.073765 -0.049103 -0.491837
0.072200 -0.049103 -0.492297
0.070636 -0.049103 -0.492758
0.068673 -0.048812 -0.492085
0.067107 -0.048812 -0.492546
0.065139 -0.048520 -0.491872
0.063572 -0.048520 -0.492334
0.061600 -0.048228 -0.491659
0.060031 -0.048228 -0.492121
0.058054 -0.047936 -0.491446
0.056484 -0.047936 -0.491908
0.054503 -0.047643 -0.491232
0.052931 -0.047643 -0.491695
0.051360 -0.047643 -0.492157
0.049372 -0.047349 -0.491481
0.047800 -0.047349 -0.491944
0.045807 -0.047055 -0.491267
0.044233 -0.047055 -0.491730
0.042659 -0.047055 -0.492194
0.040661 -0.046761 -0.491516
0.039085 -0.046761 -0.491980
0.037082 -0.046466 -0.491302
0.035505 -0.046466 -0.491766
0.033497 -0.046170 -0.491087
0.031919 -0.046170 -0.491552
0.029906 -0.045874 -0.490872
0.028327 -0.045874 -0.491337
0.026309 -0.045577 -0.490656
0.024728 -0.045577 -0.491122
0.023147 -0.045577 -0.491587
0.021123 -0.045280 -0.490906
0.019541 -0.045280 -0.491372
0.017512 -0.044983 -0.490690
0.015929 -0.044983 -0.491156
0.014345 -0.044983 -0.491623
0.012310 -0.044685 -0.490940
0.010725 -0.044685 -0.491407
0.008685 -0.044386 -0.490724
0.007099 -0.044386 -0.491191
0.005513 -0.044386 -0.491658
0.003926 -0.044386 -0.492125
0.001879 -0.044087 -0.491443
0.000291 -0.044087 -0.491910
-0.001762 -0.043787 -0.491226
-0.003351 -0.043787 -0.491694
-0.004939 -0.043787 -0.492162
-0.006998 -0.043487 -0.491478
-0.008589 -0.043487 -0.491946
-0.010653 -0.043186 -0.491262
-0.012244 -0.043186 -0.491730
-0.013836 -0.043186 -0.492199
-0.015906 -0.042885 -0.491514
-0.017499 -0.042885 -0.491983
-0.019575 -0.042583 -0.491297
-0.021169 -0.042583 -0.491766
-0.023249 -0.042281 -0.491080
-0.024845 -0.042281 -0.491549
-0.026931 -0.041978 -0.490862
-0.028528 -0.041978 -0.491332
-0.030618 -0.041675 -0.490644
-0.032217 -0.041675 -0.491115
-0.033815 -0.041675 -0.491585
-0.035912 -0.041371 -0.490897
-0.037512 -0.041371 -0.491368
-0.039614 -0.041067 -0.490678
-0.041215 -0.041067 -0.491150
-0.042817 -0.041067 -0.491621
-0.044925 -0.040762 -0.490931
-0.046528 -0.040762 -0.491403
-0.048641 -0.040456 -0.490713
-0.050245 -0.040456 -0.491185
-0.052364 -0.040150 -0.490494
-0.053969 -0.040150 -0.490966
-0.056093 -0.039844 -0.490274
-0.057700 -0.039844 -0.490747
-0.059829 -0.039537 -0.490054
-0.061437 -0.039537 -0.490528
-0.063045 -0.039537 -0.491001
-0.065181 -0.039229 -0.490308
-0.066790 -0.039229 -0.490782
-0.068931 -0.038921 -0.490088
-0.070542 -0.038921 -0.490562
-0.072153 -0.038921 -0.491037
-0.074300 -0.038612 -0.490342
-0.075913 -0.038612 -0.490817
-0.078065 -0.038303 -0.490121
-0.079679 -0.038303 -0.490597
-0.081837 -0.037993 -0.489900
-0.083452 -0.037993 -0.490376
-0.085615 -0.037683 -0.489679
-0.087232 -0.037683 -0.490155
-0.089400 -0.037372 -0.489457
-0.091018 -0.037372 -0.489934
-0.092636 -0.037372 -0.490410
-0.094811 -0.037061 -0.489712
-0.096431 -0.037061 -0.490189
-0.098611 -0.036749 -0.489490
-0.100232 -0.036749 -0.489967
-0.101853 -0.036749 -0.490445
-0.104040 -0.036436 -0.489745
-0.105662 -0.036436 -0.490223
-0.107854 -0.036123 -0.489523
-0.109478 -0.036123 -0.490001
-0.111102 -0.036123 -0.490479
-0.112726 -0.036123 -0.490957
-0.114926 -0.035810 -0.490257
-0.116552 -0.035810 -0.490736
-0.118757 -0.035496 -0.490035
-0.120384 -0.035496 -0.490514
-0.122011 -0.035496 -0.490993
-0.124223 -0.035181 -0.490292
-0.125852 -0.035181 -0.490771
-0.128069 -0.034866 -0.490069
-0.129699 -0.034866 -0.490549
-0.131329 -0.034866 -0.491029
-0.133553 -0.034550 -0.490326
-0.135185 -0.034550 -0.490806
-0.137415 -0.034233 -0.490103
-0.139047 -0.034233 -0.490583
-0.141283 -0.033916 -0.489879
-0.142917 -0.033916 -0.490360
-0.145158 -0.033599 -0.489655
-0.146793 -0.033599 -0.490137
-0.149039 -0.033281 -0.489431
-0.150676 -0.033281 -0.489913
-0.152314 -0.033281 -0.490395
-0.154567 -0.032962 -0.489689
-0.156205 -0.032962 -0.490171
-0.158464 -0.032643 -0.489464
-0.160104 -0.032643 -0.489947
-0.161744 -0.032643 -0.490430
-0.164009 -0.032323 -0.489722
-0.165651 -0.032323 -0.490205
-0.167922 -0.032003 -0.489497
-0.169565 -0.032003 -0.489981
-0.171842 -0.031682 -0.489271
-0.173486 -0.031682 -0.489756
-0.175768 -0.031360 -0.489046
-0.177414 -0.031360 -0.489530
-0.179702 -0.031038 -0.488819
-0.181349 -0.031038 -0.489304
-0.183643 -0.030715 -0.488593
-0.185292 -0.030715 -0.489078
-0.186940 -0.030715 -0.489564
-0.189241 -0.030392 -0.488851
-0.190891 -0.030392 -0.489337
-0.193197 -0.030068 -0.488624
-0.194849 -0.030068 -0.489111
-0.197161 -0.029744 -0.488397
-0.198814 -0.029744 -0.488884
-0.201132 -0.029419 -0.488169
-0.202786 -0.029419 -0.488656
-0.204441 -0.029419 -0.489143
-0.206766 -0.029093 -0.488428
-0.208422 -0.029093 -0.488916
-0.210752 -0.028767 -0.488200
-0.212410 -0.028767 -0.488688
-0.214746 -0.028440 -0.487971
-0.216405 -0.028440 -0.488460
-0.218747 -0.028113 -0.487742
-0.220408 -0.028113 -0.488231
-0.222755 -0.027785 -0.487513
-0.224418 -0.027785 -0.488002
-0.226771 -0.027456 -0.487283
-0.228435 -0.027456 -0.487773
-0.230794 -0.027127 -0.487052
-0.233157 -0.026797 -0.486331
-0.235525 -0.026467 -0.485608
-0.237193 -0.026467 -0.486099
-0.239566 -0.026136 -0.485375
-0.241236 -0.026136 -0.485867
-0.243615 -0.025804 -0.485142
-0.245999 -0.025472 -0.484416
-0.249103 -0.024806 -0.482467
-0.251498 -0.024472 -0.481737
-0.253898 -0.024137 -0.481005
-0.256302 -0.023802 -0.480272
-0.257982 -0.023802 -0.480767
-0.260392 -0.023466 -0.480033
-0.262806 -0.023130 -0.479297
-0.265225 -0.022793 -0.478561
-0.267648 -0.022455 -0.477823
-0.270076 -0.022117 -0.477083
-0.272508 -0.021778 -0.476342
-0.274945 -0.021438 -0.475600
-0.277386 -0.021098 -0.474857
-0.279831 -0.020757 -0.474112
-0.282281 -0.020416 -0.473366
-0.284736 -0.020074 -0.472618
-0.287195 -0.019731 -0.471869
-0.289659 -0.019388 -0.471119
-0.292127 -0.019044 -0.470367
-0.294600 -0.018699 -0.469614
-0.297852 -0.018008 -0.467601
-0.300338 -0.017662 -0.466843
-0.302827 -0.017314 -0.466083
-0.305322 -0.016967 -0.465323
-0.308609 -0.016269 -0.463292
-0.311116 -0.015919 -0.462527
-0.313628 -0.015569 -0.461760
-0.316144 -0.015218 -0.460991
-0.319467 -0.014514 -0.458943
-0.322803 -0.013807 -0.456887
-0.325340 -0.013452 -0.456111
-0.328696 -0.012741 -0.454043
-0.331246 -0.012385 -0.453262
-0.334623 -0.011670 -0.451184
-0.338013 -0.010953 -0.449097
-0.340583 -0.010593 -0.448307
-0.343994 -0.009871 -0.446210
-0.347418 -0.009147 -0.444104
-0.350010 -0.008783 -0.443306
-0.353455 -0.008055 -0.441188
-0.356060 -0.007690 -0.440385
-0.359527 -0.006957 -0.438256
-0.363007 -0.006221 -0.436119
-0.365633 -0.005852 -0.435306
-0.369135 -0.005112 -0.433157
-0.372650 -0.004370 -0.431000
-0.375299 -0.003997 -0.430179
-0.378836 -0.003250 -0.428010
-0.381498 -0.002876 -0.427184
-0.385058 -0.002124 -0.425002
-0.388632 -0.001370 -0.422812
-0.391316 -0.000992 -0.421977
-0.394913 -0.000233 -0.419775
-0.398523 0.000528 -0.417564
-0.402147 0.001293 -0.415344
-0.405786 0.002061 -0.413116
-0.409439 0.002831 -0.410879
-0.413106 0.003605 -0.408633
-0.416788 0.004382 -0.406379
-0.421431 0.005552 -0.402713
-0.426101 0.006730 -0.399025
-0.430799 0.007915 -0.395315
-0.435525 0.009107 -0.391583
-0.441257 0.010707 -0.386392
-0.448026 0.012726 -0.379708
0.479668 0.054254 0.081407
0.477944 0.051788 0.070245
0.476239 0.049348 0.059206
0.474417 0.047898 0.052403
0.472538 0.046936 0.047695
0.470667 0.045978 0.043008
0.468804 0.045025 0.038341
0.467024 0.043603 0.031673
0.465179 0.042660 0.027056
0.463263 0.042190 0.024462
0.461352 0.041721 0.021873
0.459444 0.041253 0.019290
0.457626 0.040320 0.014725
0.455642 0.040320 0.014141
0.453835 0.039391 0.009596
0.451946 0.038928 0.007041
0.450061 0.038466 0.004490
0.448180 0.038005 0.001945
0.446304 0.037545 -0.000594
0.444529 0.036629 -0.005078
0.447223 0.015331 -0.096285
0.446268 0.011243 -0.114226
0.445150 0.008032 -0.128428
0.443684 0.006445 -0.135713
0.442416 0.004089 -0.146265
0.440881 0.002921 -0.151761
0.439355 0.001760 -0.157224
0.437839 0.000606 -0.162656
0.436234 -0.000159 -0.166435
0.434734 -0.001302 -0.171813
0.433042 -0.001681 -0.173950
0.431456 -0.002438 -0.177685
0.429875 -0.003191 -0.181406
0.428092 -0.003191 -0.181932
0.426521 -0.003942 -0.185637
0.424957 -0.004690 -0.189328
0.423289 -0.005063 -0.191430
0.421735 -0.005806 -0.195099
0.420076 -0.006177 -0.197189
0.418532 -0.006916 -0.200837
0.416881 -0.007285 -0.202915
0.415348 -0.008020 -0.206541
0.413704 -0.008386 -0.208608
0.412182 -0.009117 -0.212213
0.410666 -0.009845 -0.215804
0.409034 -0.010208 -0.217852
0.407528 -0.010931 -0.221422
0.405904 -0.011292 -0.223459
0.404283 -0.011652 -0.225492
0.402666 -0.012012 -0.227521
0.401051 -0.012371 -0.229547
0.399310 -0.012371 -0.230060
0.397700 -0.012729 -0.232081
0.396093 -0.013086 -0.234098
0.394489 -0.013443 -0.236111
0.392888 -0.013799 -0.238121
0.391290 -0.014155 -0.240127
0.389696 -0.014509 -0.242129
0.388104 -0.014863 -0.244127
0.386374 -0.014863 -0.244636
0.384787 -0.015217 -0.246630
0.383059 -0.015217 -0.247139
0.381476 -0.015570 -0.249129
0.379897 -0.015922 -0.251115
0.378172 -0.015922 -0.251623
0.376597 -0.016273 -0.253605
0.375025 -0.016624 -0.255583
0.373303 -0.016624 -0.256090
0.371736 -0.016974 -0.258064
0.370171 -0.017324 -0.260034
0.368453 -0.017324 -0.260540
0.366734 -0.017324 -0.261046
0.365176 -0.017672 -0.263012
0.363459 -0.017672 -0.263517
0.361905 -0.018020 -0.265479
0.360354 -0.018368 -0.267437
