ply
format ascii 1.0
element vertex 1668
property float x
property float y
property float z
end_header
-0.388148 0.152378 -0.100735
-0.386118 0.149077 -0.091825
-0.383468 0.145177 -0.081472
-0.378358 0.138943 -0.065513
-0.370647 0.130226 -0.043579
0.333641 0.117039 -0.486973
0.329387 0.118265 -0.487892
0.325150 0.119486 -0.488808
0.320930 0.120702 -0.489721
0.318041 0.121308 -0.489642
0.315158 0.121913 -0.489564
0.312281 0.122517 -0.489486
0.308107 0.123721 -0.490393
0.305245 0.124321 -0.490314
0.302389 0.124920 -0.490236
0.299538 0.125518 -0.490158
0.295410 0.126710 -0.491058
0.292574 0.127304 -0.490979
0.289744 0.127897 -0.490901
0.286920 0.128489 -0.490822
0.282837 0.129670 -0.491717
0.280028 0.130258 -0.491638
0.277224 0.130846 -0.491559
0.274426 0.131432 -0.491480
0.270386 0.132601 -0.492370
0.267603 0.133184 -0.492290
0.264825 0.133765 -0.492211
0.262052 0.134346 -0.492132
0.258057 0.135504 -0.493016
0.255298 0.136081 -0.492937
0.252546 0.136657 -0.492857
0.249798 0.137232 -0.492778
0.245846 0.138379 -0.493656
0.243113 0.138950 -0.493576
0.240385 0.139521 -0.493497
0.237662 0.140090 -0.493417
0.233752 0.141226 -0.494290
0.231043 0.141792 -0.494210
0.228340 0.142357 -0.494130
0.225642 0.142921 -0.494050
0.222950 0.143484 -0.493971
0.220262 0.144046 -0.493891
0.217579 0.144607 -0.493812
0.214902 0.145166 -0.493733
0.212229 0.145725 -0.493654
0.209562 0.146282 -0.493575
0.206900 0.146839 -0.493497
0.204243 0.147394 -0.493418
0.200444 0.148502 -0.494280
0.197801 0.149054 -0.494201
0.195162 0.149606 -0.494123
0.192529 0.150156 -0.494044
0.189900 0.150705 -0.493965
0.187277 0.151253 -0.493887
0.184658 0.151800 -0.493809
0.182044 0.152346 -0.493730
0.179435 0.152891 -0.493653
0.176832 0.153436 -0.493575
0.174233 0.153978 -0.493497
0.171639 0.154520 -0.493420
0.169049 0.155061 -0.493342
0.166465 0.155601 -0.493265
0.163886 0.156140 -0.493188
0.161311 0.156678 -0.493111
0.158741 0.157215 -0.493034
0.156176 0.157751 -0.492957
0.153615 0.158286 -0.492881
0.151060 0.158820 -0.492804
0.148509 0.159353 -0.492728
0.145963 0.159885 -0.492652
0.143422 0.160416 -0.492576
0.140885 0.160946 -0.492500
0.138353 0.161475 -0.492425
0.135826 0.162003 -0.492349
0.133303 0.162530 -0.492274
0.130785 0.163056 -0.492199
0.128272 0.163581 -0.492124
0.125764 0.164105 -0.492049
0.123259 0.164628 -0.491974
0.120760 0.165151 -0.491899
0.118265 0.165672 -0.491825
0.115775 0.166192 -0.491750
0.113290 0.166711 -0.491676
0.110808 0.167230 -0.491602
0.108332 0.167747 -0.491528
0.105860 0.168264 -0.491454
0.103393 0.168779 -0.491380
0.100930 0.169294 -0.491306
0.098471 0.169807 -0.491233
0.095011 0.170832 -0.492066
0.092564 0.171343 -0.491992
0.090122 0.171853 -0.491918
0.087685 0.172362 -0.491844
0.085252 0.172870 -0.491771
0.082823 0.173377 -0.491697
0.080399 0.173883 -0.491624
0.077979 0.174388 -0.491551
0.075564 0.174893 -0.491478
0.073153 0.175396 -0.491405
0.070746 0.175899 -0.491332
0.068344 0.176400 -0.491260
0.065946 0.176901 -0.491187
0.063552 0.177401 -0.491115
0.061163 0.177900 -0.491043
0.058778 0.178398 -0.490970
0.056397 0.178895 -0.490898
0.054020 0.179391 -0.490827
0.051648 0.179887 -0.490755
0.049280 0.180381 -0.490683
0.046916 0.180875 -0.490612
0.044557 0.181368 -0.490541
0.042201 0.181859 -0.490469
0.039850 0.182350 -0.490398
0.037503 0.182841 -0.490327
0.035161 0.183330 -0.490256
0.032822 0.183818 -0.490186
0.030488 0.184306 -0.490115
0.028157 0.184792 -0.490045
0.025831 0.185278 -0.489974
0.023509 0.185763 -0.489904
0.021191 0.186247 -0.489834
0.018877 0.186730 -0.489764
0.016568 0.187212 -0.489694
0.014262 0.187694 -0.489625
0.011961 0.188174 -0.489555
0.009663 0.188654 -0.489486
0.007370 0.189133 -0.489416
0.005080 0.189611 -0.489347
0.002795 0.190088 -0.489278
0.000514 0.190565 -0.489209
-0.001764 0.191040 -0.489140
-0.004037 0.191515 -0.489071
-0.006306 0.191989 -0.489003
-0.009447 0.192934 -0.489807
-0.011705 0.193405 -0.489738
-0.013960 0.193876 -0.489669
-0.016211 0.194346 -0.489600
-0.018458 0.194815 -0.489531
-0.020701 0.195283 -0.489463
-0.022940 0.195750 -0.489394
-0.025175 0.196217 -0.489326
-0.027406 0.196682 -0.489258
-0.029633 0.197147 -0.489190
-0.031857 0.197611 -0.489121
-0.034076 0.198074 -0.489054
-0.036292 0.198537 -0.488986
-0.038504 0.198998 -0.488918
-0.040712 0.199459 -0.488851
-0.042916 0.199919 -0.488783
-0.045117 0.200379 -0.488716
-0.047314 0.200837 -0.488649
-0.049506 0.201295 -0.488582
-0.051696 0.201752 -0.488515
-0.053881 0.202208 -0.488448
-0.056062 0.202663 -0.488381
-0.058240 0.203118 -0.488315
-0.060414 0.203571 -0.488248
-0.062585 0.204024 -0.488182
-0.064751 0.204476 -0.488116
-0.066914 0.204928 -0.488049
-0.069074 0.205379 -0.487983
-0.071229 0.205828 -0.487917
-0.073381 0.206277 -0.487852
-0.075529 0.206726 -0.487786
-0.077674 0.207173 -0.487720
-0.079815 0.207620 -0.487655
-0.081952 0.208066 -0.487590
-0.084085 0.208512 -0.487524
-0.086215 0.208956 -0.487459
-0.088342 0.209400 -0.487394
-0.090465 0.209843 -0.487329
-0.092584 0.210285 -0.487264
-0.094699 0.210727 -0.487200
-0.096811 0.211168 -0.487135
-0.098920 0.211608 -0.487071
-0.101024 0.212047 -0.487006
-0.103126 0.212485 -0.486942
-0.105984 0.213360 -0.487719
-0.108076 0.213797 -0.487654
-0.110164 0.214232 -0.487590
-0.112249 0.214667 -0.487525
-0.114330 0.215101 -0.487461
-0.116408 0.215535 -0.487397
-0.118483 0.215967 -0.487332
-0.120553 0.216399 -0.487268
-0.122621 0.216831 -0.487204
-0.124685 0.217261 -0.487141
-0.126745 0.217691 -0.487077
-0.128802 0.218120 -0.487013
-0.130856 0.218548 -0.486950
-0.132906 0.218976 -0.486886
-0.134953 0.219403 -0.486823
-0.136996 0.219829 -0.486760
-0.139036 0.220255 -0.486697
-0.141073 0.220680 -0.486634
-0.143106 0.221104 -0.486571
-0.145136 0.221527 -0.486508
-0.147162 0.221950 -0.486445
-0.149185 0.222372 -0.486383
-0.151205 0.222793 -0.486320
-0.153221 0.223214 -0.486258
-0.155234 0.223634 -0.486196
-0.157244 0.224053 -0.486134
-0.159251 0.224471 -0.486072
-0.161254 0.224889 -0.486010
-0.163254 0.225306 -0.485948
-0.165250 0.225723 -0.485886
-0.167243 0.226139 -0.485824
-0.169233 0.226554 -0.485763
-0.171220 0.226968 -0.485701
-0.173204 0.227382 -0.485640
-0.175865 0.228207 -0.486397
-0.177840 0.228619 -0.486335
-0.179135 0.228619 -0.485457
-0.181105 0.229030 -0.485396
-0.183072 0.229440 -0.485335
-0.185036 0.229850 -0.485274
-0.186997 0.230259 -0.485213
-0.188955 0.230668 -0.485153
-0.190910 0.231075 -0.485092
-0.192861 0.231482 -0.485032
-0.194809 0.231889 -0.484972
-0.196754 0.232294 -0.484912
-0.198696 0.232699 -0.484852
-0.200635 0.233104 -0.484792
-0.202570 0.233508 -0.484732
-0.204503 0.233911 -0.484672
-0.206432 0.234313 -0.484612
-0.208358 0.234715 -0.484553
-0.210281 0.235116 -0.484493
-0.212201 0.235517 -0.484434
-0.213478 0.235517 -0.483567
-0.215394 0.235916 -0.483509
-0.217306 0.236316 -0.483450
-0.219216 0.236714 -0.483392
-0.220490 0.236714 -0.482527
-0.222395 0.237112 -0.482470
-0.224298 0.237509 -0.482412
-0.226197 0.237906 -0.482355
-0.227467 0.237906 -0.481492
-0.229363 0.238302 -0.481436
-0.231255 0.238697 -0.481379
-0.232524 0.238697 -0.480518
-0.233792 0.238697 -0.479657
-0.235679 0.239092 -0.479602
-0.236947 0.239092 -0.478742
-0.238830 0.239486 -0.478688
-0.239481 0.239092 -0.477021
-0.241362 0.239486 -0.476968
-0.242629 0.239486 -0.476109
-0.243895 0.239486 -0.475249
-0.245771 0.239880 -0.475198
-0.247036 0.239880 -0.474339
-0.248909 0.240273 -0.474288
-0.250173 0.240273 -0.473430
-0.251437 0.240273 -0.472572
-0.252701 0.240273 -0.471713
-0.254568 0.240665 -0.471665
-0.255831 0.240665 -0.470807
-0.257693 0.241057 -0.470759
-0.258955 0.241057 -0.469903
-0.259621 0.240665 -0.468235
-0.261480 0.241057 -0.468189
-0.262742 0.241057 -0.467332
-0.264004 0.241057 -0.466475
-0.265266 0.241057 -0.465618
-0.266529 0.241057 -0.464761
-0.267791 0.241057 -0.463905
-0.269053 0.241057 -0.463048
-0.270315 0.241057 -0.462191
-0.271578 0.241057 -0.461334
-0.272840 0.241057 -0.460477
-0.274102 0.241057 -0.459620
-0.275948 0.241448 -0.459581
-0.277209 0.241448 -0.458725
-0.278471 0.241448 -0.457869
-0.279732 0.241448 -0.457013
-0.280993 0.241448 -0.456157
-0.282254 0.241448 -0.455300
-0.283516 0.241448 -0.454444
-0.284777 0.241448 -0.453588
-0.286038 0.241448 -0.452732
-0.287299 0.241448 -0.451876
-0.288561 0.241448 -0.451020
-0.289822 0.241448 -0.450163
-0.291083 0.241448 -0.449307
-0.292344 0.241448 -0.448451
-0.293605 0.241448 -0.447595
-0.294867 0.241448 -0.446739
-0.296128 0.241448 -0.445883
-0.297389 0.241448 -0.445026
-0.298650 0.241448 -0.444170
-0.299347 0.241057 -0.442483
-0.300609 0.241057 -0.441626
-0.301871 0.241057 -0.440769
-0.302571 0.240665 -0.439078
-0.303834 0.240665 -0.438221
-0.305097 0.240665 -0.437363
-0.306360 0.240665 -0.436505
-0.307624 0.240665 -0.435648
-0.308887 0.240665 -0.434790
-0.310150 0.240665 -0.433933
-0.310857 0.240273 -0.432235
-0.312121 0.240273 -0.431377
-0.313385 0.240273 -0.430518
-0.314650 0.240273 -0.429660
-0.315914 0.240273 -0.428802
-0.317178 0.240273 -0.427944
-0.317891 0.239880 -0.426239
-0.319707 0.240273 -0.426227
-0.320971 0.240273 -0.425369
-0.321687 0.239880 -0.423663
-0.322952 0.239880 -0.422804
-0.324217 0.239880 -0.421945
-0.325482 0.239880 -0.421086
-0.326748 0.239880 -0.420227
-0.327469 0.239486 -0.418515
-0.328735 0.239486 -0.417656
-0.330001 0.239486 -0.416796
-0.331268 0.239486 -0.415936
-0.332534 0.239486 -0.415077
-0.333260 0.239092 -0.413360
-0.334528 0.239092 -0.412499
-0.335256 0.238697 -0.410779
-0.336524 0.238697 -0.409918
-0.337255 0.238302 -0.408194
-0.338524 0.238302 -0.407332
-0.339257 0.237906 -0.405604
-0.340527 0.237906 -0.404742
-0.341798 0.237906 -0.403880
-0.342534 0.237509 -0.402148
-0.343805 0.237509 -0.401285
-0.345077 0.237509 -0.400422
-0.345816 0.237112 -0.398686
-0.347088 0.237112 -0.397822
-0.347830 0.236714 -0.396083
-0.349103 0.236714 -0.395218
-0.349847 0.236316 -0.393476
-0.351121 0.236316 -0.392610
-0.352396 0.236316 -0.391745
-0.353143 0.235916 -0.389998
-0.353891 0.235517 -0.388248
-0.355167 0.235517 -0.387382
-0.355918 0.235116 -0.385628
-0.357195 0.235116 -0.384761
-0.357948 0.234715 -0.383004
-0.359227 0.234715 -0.382136
-0.359982 0.234313 -0.380376
-0.361261 0.234313 -0.379507
-0.362018 0.233911 -0.377743
-0.363299 0.233911 -0.376874
-0.364058 0.233508 -0.375106
-0.365340 0.233508 -0.374236
-0.365581 0.232699 -0.371562
-0.366865 0.232699 -0.370691
-0.368148 0.232699 -0.369819
-0.369432 0.232699 -0.368948
-0.370716 0.232699 -0.368077
-0.372000 0.232699 -0.367205
-0.373283 0.232699 -0.366334
-0.374053 0.232294 -0.364553
-0.375338 0.232294 -0.363681
-0.376622 0.232294 -0.362809
-0.377395 0.231889 -0.361024
-0.378681 0.231889 -0.360151
-0.379967 0.231889 -0.359278
-0.380743 0.231482 -0.357489
-0.381520 0.231075 -0.355697
-0.382808 0.231075 -0.354823
-0.383588 0.230668 -0.353027
-0.384877 0.230668 -0.352152
-0.385659 0.230259 -0.350353
-0.386442 0.229850 -0.348551
-0.387226 0.229440 -0.346746
-0.388519 0.229440 -0.345868
-0.389305 0.229030 -0.344060
-0.390094 0.228619 -0.342248
-0.390883 0.228207 -0.340433
-0.391674 0.227795 -0.338615
-0.392466 0.227382 -0.336795
-0.393763 0.227382 -0.335914
-0.394558 0.226968 -0.334090
-0.395353 0.226554 -0.332262
-0.396150 0.226139 -0.330432
-0.397451 0.226139 -0.329549
-0.398250 0.225723 -0.327715
-0.399051 0.225306 -0.325878
-0.399853 0.224889 -0.324037
-0.401157 0.224889 -0.323152
-0.401961 0.224471 -0.321308
-0.402767 0.224053 -0.319461
-0.403574 0.223634 -0.317611
-0.404881 0.223634 -0.316724
-0.406188 0.223634 -0.315837
-0.406999 0.223214 -0.313982
-0.407811 0.222793 -0.312124
-0.408624 0.222372 -0.310264
-0.409439 0.221950 -0.308400
-0.410750 0.221950 -0.307510
-0.411072 0.221104 -0.304663
-0.411891 0.220680 -0.302790
-0.412215 0.219829 -0.299928
-0.412541 0.218976 -0.297057
-0.413364 0.218548 -0.295170
-0.413693 0.217691 -0.292284
-0.414022 0.216831 -0.289388
-0.414353 0.215967 -0.286482
-0.415183 0.215535 -0.284575
-0.415516 0.214667 -0.281654
-0.415850 0.213797 -0.278723
-0.415186 0.212047 -0.273739
-0.414014 0.209843 -0.267689
-0.410796 0.205828 -0.257404
-0.386093 0.182841 -0.202770
-0.386951 0.182350 -0.200666
-0.387811 0.181859 -0.198557
-0.388117 0.180875 -0.195292
-0.388424 0.179887 -0.192014
-0.388732 0.178895 -0.188724
-0.389599 0.178398 -0.186592
-0.389910 0.177401 -0.183284
-0.390223 0.176400 -0.179964
-0.391094 0.175899 -0.177814
-0.390851 0.174388 -0.173288
-0.390606 0.172870 -0.168736
-0.390923 0.171853 -0.165363
-0.391240 0.170832 -0.161977
-0.390995 0.169294 -0.157365
-0.390749 0.167747 -0.152729
-0.391068 0.166711 -0.149295
-0.390821 0.165151 -0.144615
-0.391142 0.164105 -0.141150
-0.390893 0.162530 -0.136425
-0.390644 0.160946 -0.131674
-0.390393 0.159353 -0.126897
-0.390140 0.157751 -0.122093
-0.389886 0.156140 -0.117262
-0.389631 0.154520 -0.112404
-0.389374 0.152891 -0.107518
-0.389116 0.151253 -0.102605
-0.387094 0.147949 -0.093714
-0.384453 0.144046 -0.083384
-0.378750 0.137232 -0.066091
-0.371669 0.129080 -0.045577
0.334577 0.114653 -0.486573
0.328982 0.116499 -0.488489
0.326074 0.117112 -0.488411
0.323171 0.117723 -0.488334
0.318955 0.118943 -0.489247
0.314756 0.120157 -0.490157
0.311879 0.120763 -0.490078
0.309007 0.121367 -0.490000
0.306142 0.121970 -0.489922
0.301988 0.123173 -0.490826
0.299138 0.123772 -0.490747
0.296293 0.124371 -0.490668
0.293454 0.124968 -0.490590
0.289346 0.126159 -0.491488
0.286522 0.126753 -0.491409
0.283704 0.127345 -0.491330
0.280891 0.127937 -0.491251
0.276827 0.129116 -0.492143
0.274029 0.129704 -0.492064
0.271237 0.130291 -0.491985
0.268450 0.130876 -0.491906
0.264430 0.132044 -0.492792
0.261658 0.132626 -0.492713
0.258891 0.133207 -0.492634
0.256129 0.133787 -0.492554
0.252153 0.134944 -0.493436
0.249406 0.135521 -0.493356
0.246664 0.136096 -0.493276
0.243928 0.136670 -0.493197
0.239994 0.137816 -0.494072
0.237272 0.138387 -0.493992
0.234555 0.138957 -0.493912
0.231843 0.139526 -0.493833
0.229137 0.140094 -0.493753
0.226435 0.140660 -0.493674
0.223739 0.141226 -0.493594
0.221048 0.141790 -0.493515
0.218362 0.142354 -0.493436
0.214515 0.143478 -0.494303
0.211843 0.144038 -0.494224
0.209176 0.144597 -0.494144
0.206514 0.145155 -0.494065
0.203857 0.145712 -0.493986
0.201206 0.146268 -0.493907
0.198559 0.146823 -0.493829
0.195917 0.147377 -0.493750
0.193281 0.147930 -0.493672
0.190649 0.148482 -0.493593
0.188022 0.149032 -0.493515
0.185400 0.149582 -0.493437
0.182783 0.150131 -0.493360
0.180172 0.150679 -0.493282
0.177565 0.151225 -0.493204
0.174962 0.151771 -0.493127
0.172365 0.152315 -0.493050
0.169773 0.152859 -0.492973
0.167185 0.153401 -0.492896
0.164603 0.153943 -0.492819
0.162025 0.154483 -0.492742
0.158362 0.155561 -0.493592
0.155797 0.156099 -0.493515
0.153237 0.156635 -0.493438
0.150682 0.157171 -0.493361
0.148131 0.157705 -0.493285
0.146659 0.157705 -0.492285
0.144115 0.158239 -0.492209
0.141575 0.158771 -0.492134
0.139040 0.159303 -0.492058
0.136510 0.159833 -0.491983
0.133984 0.160363 -0.491908
0.131463 0.160891 -0.491833
0.128947 0.161419 -0.491758
0.126436 0.161946 -0.491684
0.123929 0.162471 -0.491609
0.121426 0.162996 -0.491535
0.117892 0.164042 -0.492375
0.115402 0.164564 -0.492300
0.112917 0.165085 -0.492225
0.110436 0.165605 -0.492150
0.107960 0.166124 -0.492076
0.106509 0.166124 -0.491091
0.104039 0.166642 -0.491017
0.101573 0.167159 -0.490944
0.099112 0.167675 -0.490871
0.096655 0.168190 -0.490798
0.093198 0.169217 -0.491632
0.090753 0.169730 -0.491558
0.088313 0.170241 -0.491485
0.085877 0.170751 -0.491411
0.083446 0.171261 -0.491338
0.081019 0.171769 -0.491265
0.077612 0.172784 -0.492093
0.075197 0.173290 -0.492019
0.072786 0.173795 -0.491946
0.070379 0.174299 -0.491873
0.067977 0.174802 -0.491799
0.066549 0.174802 -0.490830
0.064152 0.175304 -0.490758
0.061760 0.175805 -0.490686
0.059373 0.176306 -0.490614
0.056989 0.176805 -0.490542
0.054610 0.177304 -0.490470
0.052235 0.177801 -0.490399
0.049864 0.178298 -0.490328
0.047498 0.178794 -0.490256
0.045136 0.179289 -0.490185
0.042778 0.179783 -0.490114
0.039488 0.180769 -0.490932
0.037141 0.181260 -0.490861
0.034799 0.181751 -0.490789
0.032460 0.182241 -0.490718
0.030126 0.182730 -0.490647
0.028718 0.182730 -0.489691
0.026389 0.183218 -0.489621
0.024065 0.183705 -0.489551
0.021744 0.184191 -0.489481
0.019428 0.184676 -0.489412
0.017116 0.185161 -0.489342
0.014808 0.185645 -0.489273
0.012504 0.186128 -0.489203
0.010204 0.186610 -0.489134
0.007908 0.187091 -0.489065
0.005616 0.187571 -0.488996
0.002438 0.188529 -0.489804
0.000157 0.189007 -0.489735
-0.002120 0.189484 -0.489666
-0.004393 0.189960 -0.489596
-0.006662 0.190435 -0.489527
-0.008927 0.190909 -0.489458
-0.011188 0.191383 -0.489390
-0.013445 0.191856 -0.489321
-0.015699 0.192328 -0.489252
-0.017948 0.192799 -0.489184
-0.020193 0.193269 -0.489116
-0.022435 0.193738 -0.489047
-0.024672 0.194207 -0.488979
-0.026906 0.194675 -0.488911
-0.029135 0.195142 -0.488843
-0.031361 0.195608 -0.488776
-0.034428 0.196538 -0.489572
-0.036644 0.197002 -0.489504
-0.038855 0.197465 -0.489436
-0.041063 0.197927 -0.489368
-0.043267 0.198388 -0.489300
-0.044635 0.198388 -0.488371
-0.046834 0.198849 -0.488304
-0.049029 0.199309 -0.488238
-0.051221 0.199768 -0.488171
-0.053409 0.200226 -0.488104
-0.055592 0.200683 -0.488038
-0.057772 0.201140 -0.487972
-0.059949 0.201596 -0.487905
-0.062121 0.202051 -0.487839
-0.064290 0.202505 -0.487773
-0.066456 0.202959 -0.487707
-0.069421 0.203863 -0.488495
-0.071576 0.204314 -0.488429
-0.073728 0.204765 -0.488362
-0.075876 0.205214 -0.488296
-0.078020 0.205663 -0.488230
-0.079369 0.205663 -0.487314
-0.081509 0.206111 -0.487249
-0.083644 0.206559 -0.487184
-0.085777 0.207005 -0.487119
-0.087905 0.207451 -0.487054
-0.090030 0.207896 -0.486990
-0.092151 0.208341 -0.486925
-0.094269 0.208784 -0.486861
-0.096383 0.209227 -0.486796
-0.098494 0.209669 -0.486732
-0.100601 0.210110 -0.486668
-0.103468 0.210991 -0.487447
-0.106326 0.211868 -0.488223
-0.108418 0.212306 -0.488158
-0.110506 0.212743 -0.488093
-0.112590 0.213179 -0.488028
-0.113920 0.213179 -0.487125
-0.116000 0.213614 -0.487061
-0.118077 0.214049 -0.486997
-0.120150 0.214483 -0.486933
-0.122219 0.214916 -0.486869
-0.124285 0.215348 -0.486806
-0.126347 0.215780 -0.486742
-0.128407 0.216211 -0.486679
-0.130462 0.216641 -0.486616
-0.132514 0.217071 -0.486552
-0.134563 0.217500 -0.486489
-0.137334 0.218356 -0.487257
-0.139373 0.218782 -0.487194
-0.141410 0.219208 -0.487130
-0.143443 0.219634 -0.487067
-0.145472 0.220058 -0.487004
-0.146785 0.220058 -0.486113
-0.148810 0.220482 -0.486051
-0.150831 0.220905 -0.485988
-0.152850 0.221328 -0.485926
-0.154865 0.221750 -0.485864
-0.156877 0.222171 -0.485802
-0.158885 0.222591 -0.485740
-0.160890 0.223011 -0.485679
-0.162892 0.223430 -0.485617
-0.164890 0.223849 -0.485556
-0.166886 0.224266 -0.485494
-0.169567 0.225099 -0.486254
-0.171553 0.225515 -0.486192
-0.173536 0.225930 -0.486130
-0.175516 0.226344 -0.486069
-0.177493 0.226758 -0.486007
-0.178788 0.226758 -0.485128
-0.180761 0.227171 -0.485067
-0.182730 0.227583 -0.485006
-0.184696 0.227995 -0.484946
-0.186659 0.228405 -0.484885
-0.188618 0.228816 -0.484825
-0.190575 0.229225 -0.484765
-0.192528 0.229634 -0.484705
-0.194478 0.230042 -0.484645
-0.196425 0.230450 -0.484585
-0.198368 0.230857 -0.484525
-0.200309 0.231263 -0.484465
-0.202246 0.231669 -0.484405
-0.204181 0.232073 -0.484346
-0.206112 0.232478 -0.484286
-0.208040 0.232881 -0.484227
-0.209965 0.233284 -0.484168
-0.211886 0.233686 -0.484109
-0.213805 0.234088 -0.484050
-0.215721 0.234489 -0.483991
-0.217633 0.234890 -0.483932
-0.218908 0.234890 -0.483067
-0.220816 0.235289 -0.483008
-0.222721 0.235688 -0.482950
-0.224624 0.236087 -0.482893
-0.225895 0.236087 -0.482030
-0.227793 0.236485 -0.481972
-0.229688 0.236882 -0.481915
-0.230958 0.236882 -0.481054
-0.232849 0.237278 -0.480997
-0.234737 0.237674 -0.480941
-0.235385 0.237278 -0.479275
-0.237272 0.237674 -0.479221
-0.238539 0.237674 -0.478360
-0.239806 0.237674 -0.477500
-0.241073 0.237674 -0.476640
-0.242953 0.238069 -0.476587
-0.244220 0.238069 -0.475728
-0.245486 0.238069 -0.474868
-0.247361 0.238464 -0.474817
-0.248626 0.238464 -0.473958
-0.250497 0.238858 -0.473908
-0.251761 0.238858 -0.473049
-0.253026 0.238858 -0.472191
-0.254892 0.239251 -0.472142
-0.256155 0.239251 -0.471285
-0.257418 0.239251 -0.470427
-0.259279 0.239644 -0.470379
-0.259945 0.239251 -0.468712
-0.261803 0.239644 -0.468666
-0.263066 0.239644 -0.467809
-0.264328 0.239644 -0.466952
-0.265590 0.239644 -0.466095
-0.266852 0.239644 -0.465238
-0.268115 0.239644 -0.464381
-0.269377 0.239644 -0.463525
-0.270639 0.239644 -0.462668
-0.272488 0.240036 -0.462626
-0.273749 0.240036 -0.461770
-0.275010 0.240036 -0.460914
-0.276272 0.240036 -0.460058
-0.277533 0.240036 -0.459202
-0.278794 0.240036 -0.458346
-0.280055 0.240036 -0.457489
-0.281317 0.240036 -0.456633
-0.282578 0.240036 -0.455777
-0.283839 0.240036 -0.454921
-0.285100 0.240036 -0.454065
-0.286362 0.240036 -0.453208
-0.287623 0.240036 -0.452352
-0.288884 0.240036 -0.451496
-0.290145 0.240036 -0.450640
-0.291406 0.240036 -0.449784
-0.292668 0.240036 -0.448928
-0.293929 0.240036 -0.448071
-0.295190 0.240036 -0.447215
-0.296451 0.240036 -0.446359
-0.297713 0.240036 -0.445503
-0.298974 0.240036 -0.444647
-0.300235 0.240036 -0.443790
-0.300933 0.239644 -0.442103
-0.302195 0.239644 -0.441246
-0.303457 0.239644 -0.440389
-0.304719 0.239644 -0.439532
-0.305982 0.239644 -0.438676
-0.306684 0.239251 -0.436983
-0.307948 0.239251 -0.436125
-0.309211 0.239251 -0.435268
-0.310474 0.239251 -0.434410
-0.311737 0.239251 -0.433553
-0.313001 0.239251 -0.432695
-0.314264 0.239251 -0.431837
-0.314974 0.238858 -0.430138
-0.316238 0.238858 -0.429280
-0.317502 0.238858 -0.428421
-0.318767 0.238858 -0.427563
-0.320031 0.238858 -0.426705
-0.321295 0.238858 -0.425847
-0.322559 0.238858 -0.424988
-0.323824 0.238858 -0.424130
-0.325088 0.238858 -0.423272
-0.325807 0.238464 -0.421564
-0.327072 0.238464 -0.420705
-0.328338 0.238464 -0.419846
-0.329603 0.238464 -0.418987
-0.330868 0.238464 -0.418128
-0.331592 0.238069 -0.416415
-0.332859 0.238069 -0.415555
-0.334125 0.238069 -0.414696
-0.335391 0.238069 -0.413836
-0.336120 0.237674 -0.412118
-0.337387 0.237674 -0.411258
-0.338118 0.237278 -0.409536
-0.339386 0.237278 -0.408675
-0.340119 0.236882 -0.406950
-0.341388 0.236882 -0.406088
-0.342658 0.236882 -0.405227
-0.343394 0.236485 -0.403497
-0.344664 0.236485 -0.402635
-0.345403 0.236087 -0.400902
-0.346674 0.236087 -0.400039
-0.347945 0.236087 -0.399176
-0.349217 0.236087 -0.398313
-0.349959 0.235688 -0.396576
-0.351232 0.235688 -0.395712
-0.351977 0.235289 -0.393971
-0.353250 0.235289 -0.393106
-0.353997 0.234890 -0.391362
-0.355272 0.234890 -0.390496
-0.356021 0.234489 -0.388748
-0.357296 0.234489 -0.387883
-0.358048 0.234088 -0.386131
-0.359324 0.234088 -0.385265
-0.360078 0.233686 -0.383509
-0.361356 0.233686 -0.382642
-0.362112 0.233284 -0.380883
-0.363390 0.233284 -0.380016
-0.364148 0.232881 -0.378253
-0.365428 0.232881 -0.377385
-0.366189 0.232478 -0.375619
-0.367469 0.232478 -0.374750
-0.367713 0.231669 -0.372079
-0.368996 0.231669 -0.371208
-0.370279 0.231669 -0.370337
-0.371562 0.231669 -0.369467
-0.372844 0.231669 -0.368596
-0.373613 0.231263 -0.366819
-0.374896 0.231263 -0.365947
-0.376180 0.231263 -0.365076
-0.377464 0.231263 -0.364204
-0.378237 0.230857 -0.362422
-0.379521 0.230857 -0.361550
-0.380806 0.230857 -0.360678
-0.381582 0.230450 -0.358891
-0.382868 0.230450 -0.358018
-0.383647 0.230042 -0.356228
-0.384933 0.230042 -0.355355
-0.385714 0.229634 -0.353561
-0.386496 0.229225 -0.351764
-0.387785 0.229225 -0.350889
-0.388569 0.228816 -0.349089
-0.389355 0.228405 -0.347286
-0.390142 0.227995 -0.345479
-0.391434 0.227995 -0.344602
-0.392223 0.227583 -0.342793
-0.393014 0.227171 -0.340980
-0.393806 0.226758 -0.339164
-0.394599 0.226344 -0.337345
-0.395393 0.225930 -0.335523
-0.396189 0.225515 -0.333699
-0.397488 0.225515 -0.332817
-0.398286 0.225099 -0.330989
-0.399085 0.224683 -0.329157
-0.400386 0.224683 -0.328274
-0.401188 0.224266 -0.326439
-0.401991 0.223849 -0.324601
-0.402795 0.223430 -0.322760
-0.403601 0.223011 -0.320915
-0.404906 0.223011 -0.320030
-0.405714 0.222591 -0.318182
-0.407020 0.222591 -0.317295
-0.407831 0.222171 -0.315443
-0.408643 0.221750 -0.313588
-0.409951 0.221750 -0.312700
-0.410765 0.221328 -0.310842
-0.411581 0.220905 -0.308980
-0.412398 0.220482 -0.307115
-0.413216 0.220058 -0.305247
-0.413543 0.219208 -0.302394
-0.413870 0.218356 -0.299532
-0.414693 0.217928 -0.297650
-0.415023 0.217071 -0.294773
-0.415354 0.216211 -0.291886
-0.415687 0.215348 -0.288989
-0.416516 0.214916 -0.287087
-0.416851 0.214049 -0.284175
-0.417187 0.213179 -0.281253
-0.417525 0.212306 -0.278322
-0.416366 0.210110 -0.272312
-0.415197 0.207896 -0.266251
-0.411475 0.203411 -0.254894
-0.387868 0.181260 -0.202345
-0.388173 0.180277 -0.199092
-0.388480 0.179289 -0.195827
-0.389343 0.178794 -0.193709
-0.389653 0.177801 -0.190425
-0.389964 0.176805 -0.187130
-0.390832 0.176306 -0.184994
-0.391146 0.175304 -0.181680
-0.390903 0.173795 -0.177172
-0.391219 0.172784 -0.173829
-0.391535 0.171769 -0.170474
-0.391853 0.170751 -0.167106
-0.391610 0.169217 -0.162522
-0.391366 0.167675 -0.157912
-0.391686 0.166642 -0.154497
-0.391441 0.165085 -0.149844
-0.391762 0.164042 -0.146398
-0.391516 0.162471 -0.141701
-0.391839 0.161419 -0.138225
-0.391592 0.159833 -0.133483
-0.391344 0.158239 -0.128715
-0.391095 0.156635 -0.123921
-0.390266 0.154483 -0.117821
-0.390012 0.152859 -0.112965
-0.389756 0.151225 -0.108081
-0.389499 0.149582 -0.103169
-0.387479 0.146268 -0.094282
-0.384840 0.142354 -0.083955
-0.379749 0.136096 -0.068038
-0.372689 0.127937 -0.047571
0.334171 0.112882 -0.487171
0.329912 0.114117 -0.488091
0.325670 0.115347 -0.489007
0.322767 0.115961 -0.488929
0.318552 0.117184 -0.489841
0.315666 0.117793 -0.489763
0.312785 0.118402 -0.489685
0.308606 0.119615 -0.490592
0.305741 0.120220 -0.490513
0.302881 0.120824 -0.490434
0.300027 0.121426 -0.490356
0.295894 0.122627 -0.491257
0.293055 0.123226 -0.491178
0.290222 0.123824 -0.491099
0.287394 0.124421 -0.491020
0.283306 0.125610 -0.491915
0.280494 0.126203 -0.491836
0.277687 0.126795 -0.491757
0.274885 0.127386 -0.491678
0.270841 0.128564 -0.492568
0.268055 0.129151 -0.492488
0.265273 0.129738 -0.492409
0.262498 0.130323 -0.492329
0.258497 0.131489 -0.493214
0.255736 0.132071 -0.493134
0.252980 0.132652 -0.493054
0.250230 0.133231 -0.492975
0.246272 0.134386 -0.493853
0.243536 0.134962 -0.493773
0.240805 0.135537 -0.493693
0.238080 0.136111 -0.493614
0.234165 0.137255 -0.494487
0.231454 0.137826 -0.494407
0.228747 0.138395 -0.494327
0.226047 0.138964 -0.494247
0.223351 0.139531 -0.494167
0.220660 0.140097 -0.494087
0.217975 0.140662 -0.494008
0.215294 0.141226 -0.493928
0.212619 0.141789 -0.493849
0.208790 0.142912 -0.494713
0.206128 0.143471 -0.494634
0.203472 0.144030 -0.494554
0.200820 0.144588 -0.494475
0.198174 0.145144 -0.494396
0.195533 0.145700 -0.494316
0.192896 0.146254 -0.494238
0.190265 0.146808 -0.494159
0.188769 0.146808 -0.493143
0.186144 0.147360 -0.493065
0.182401 0.148461 -0.493923
0.179789 0.149011 -0.493845
0.177183 0.149559 -0.493767
0.174581 0.150106 -0.493689
0.171984 0.150652 -0.493611
0.169392 0.151197 -0.493534
0.166805 0.151741 -0.493456
0.164223 0.152284 -0.493379
0.161645 0.152826 -0.493302
0.159073 0.153367 -0.493224
0.156505 0.153907 -0.493148
0.153942 0.154446 -0.493071
0.151384 0.154985 -0.492994
0.148830 0.155521 -0.492918
0.146281 0.156058 -0.492841
0.143737 0.156593 -0.492765
0.141198 0.157127 -0.492689
0.138663 0.157660 -0.492613
0.136134 0.158192 -0.492537
0.133608 0.158723 -0.492462
0.131088 0.159253 -0.492386
0.128572 0.159782 -0.492311
0.126061 0.160310 -0.492236
0.123554 0.160837 -0.492161
0.121052 0.161363 -0.492086
0.118555 0.161889 -0.492011
0.116062 0.162413 -0.491936
0.113574 0.162936 -0.491862
0.111090 0.163458 -0.491787
0.108611 0.163980 -0.491713
0.106137 0.164500 -0.491639
0.103667 0.165020 -0.491565
0.101202 0.165538 -0.491491
0.098741 0.166056 -0.491418
0.096284 0.166572 -0.491344
0.092828 0.167603 -0.492177
0.090383 0.168116 -0.492103
0.087943 0.168629 -0.492029
0.085508 0.169141 -0.491955
0.083077 0.169652 -0.491881
0.080650 0.170162 -0.491808
0.078228 0.170671 -0.491734
0.075810 0.171179 -0.491661
0.073397 0.171687 -0.491588
0.070988 0.172193 -0.491515
0.068583 0.172699 -0.491442
0.066182 0.173203 -0.491369
0.063786 0.173707 -0.491297
0.061395 0.174210 -0.491224
0.059007 0.174711 -0.491152
0.056624 0.175212 -0.491080
0.054245 0.175712 -0.491008
0.051871 0.176211 -0.490936
0.049500 0.176710 -0.490864
0.047134 0.177207 -0.490792
0.044772 0.177703 -0.490721
0.042415 0.178199 -0.490649
0.040061 0.178694 -0.490578
0.037712 0.179187 -0.490507
0.035367 0.179680 -0.490436
0.033026 0.180172 -0.490365
0.030689 0.180663 -0.490294
0.028357 0.181154 -0.490223
0.026029 0.181643 -0.490153
0.023704 0.182132 -0.490082
0.021384 0.182619 -0.490012
0.019068 0.183106 -0.489942
0.016756 0.183592 -0.489872
0.014449 0.184077 -0.489802
0.012145 0.184561 -0.489732
0.009845 0.185045 -0.489662
0.007550 0.185527 -0.489593
0.005258 0.186009 -0.489523
0.002971 0.186490 -0.489454
0.000687 0.186970 -0.489385
-0.001592 0.187449 -0.489316
-0.003868 0.187927 -0.489247
-0.006139 0.188405 -0.489178
-0.009283 0.189357 -0.489983
-0.011544 0.189832 -0.489913
-0.013801 0.190306 -0.489844
-0.016054 0.190779 -0.489775
-0.018302 0.191252 -0.489706
-0.020547 0.191723 -0.489637
-0.022788 0.192194 -0.489569
-0.025026 0.192664 -0.489500
-0.027259 0.193133 -0.489432
-0.029488 0.193602 -0.489363
-0.031714 0.194069 -0.489295
-0.033936 0.194536 -0.489227
-0.036153 0.195002 -0.489159
-0.038367 0.195467 -0.489091
-0.040577 0.195931 -0.489023
-0.042784 0.196395 -0.488956
-0.044986 0.196857 -0.488888
-0.047185 0.197319 -0.488821
-0.049380 0.197780 -0.488754
-0.051571 0.198241 -0.488687
-0.053758 0.198700 -0.488620
-0.055942 0.199159 -0.488553
-0.058122 0.199617 -0.488486
-0.060298 0.200074 -0.488419
-0.062470 0.200530 -0.488352
-0.064639 0.200986 -0.488286
-0.066803 0.201441 -0.488220
-0.068965 0.201895 -0.488153
-0.071122 0.202348 -0.488087
-0.073276 0.202801 -0.488021
-0.075426 0.203252 -0.487955
-0.077572 0.203703 -0.487890
-0.079715 0.204153 -0.487824
-0.081854 0.204603 -0.487758
-0.083990 0.205051 -0.487693
-0.086122 0.205499 -0.487628
-0.088250 0.205946 -0.487562
-0.090375 0.206393 -0.487497
-0.092496 0.206838 -0.487432
-0.094613 0.207283 -0.487367
-0.096727 0.207727 -0.487303
-0.098837 0.208170 -0.487238
-0.100944 0.208613 -0.487173
-0.103047 0.209055 -0.487109
-0.105147 0.209496 -0.487045
-0.108002 0.210376 -0.487821
-0.110092 0.210815 -0.487757
-0.112178 0.211253 -0.487692
-0.114262 0.211690 -0.487627
-0.116341 0.212127 -0.487563
-0.118417 0.212563 -0.487499
-0.120490 0.212998 -0.487434
-0.122559 0.213432 -0.487370
-0.124625 0.213866 -0.487306
-0.126687 0.214299 -0.487242
-0.128746 0.214731 -0.487179
-0.130801 0.215163 -0.487115
-0.132853 0.215594 -0.487051
-0.134902 0.216024 -0.486988
-0.136947 0.216453 -0.486924
-0.138988 0.216882 -0.486861
-0.141027 0.217310 -0.486798
-0.143062 0.217737 -0.486735
-0.145093 0.218164 -0.486672
-0.147121 0.218590 -0.486609
-0.149146 0.219015 -0.486546
-0.151168 0.219439 -0.486483
-0.153186 0.219863 -0.486421
-0.155200 0.220286 -0.486358
-0.157212 0.220708 -0.486296
-0.159220 0.221130 -0.486234
-0.161225 0.221551 -0.486172
-0.163226 0.221971 -0.486110
-0.165225 0.222391 -0.486048
-0.167219 0.222810 -0.485986
-0.169211 0.223228 -0.485924
-0.171200 0.223645 -0.485863
-0.173185 0.224062 -0.485801
-0.175849 0.224894 -0.486558
-0.177825 0.225308 -0.486496
-0.179120 0.225308 -0.485617
-0.181093 0.225722 -0.485556
-0.183062 0.226136 -0.485495
-0.185027 0.226549 -0.485434
-0.186990 0.226961 -0.485373
-0.188949 0.227372 -0.485312
-0.190905 0.227783 -0.485252
-0.192858 0.228193 -0.485191
-0.194808 0.228602 -0.485131
-0.196755 0.229011 -0.485070
-0.198698 0.229419 -0.485010
-0.200638 0.229826 -0.484950
-0.202575 0.230233 -0.484890
-0.204509 0.230639 -0.484830
-0.206440 0.231045 -0.484770
-0.207721 0.231045 -0.483901
-0.210293 0.231853 -0.484651
-0.212214 0.232257 -0.484591
-0.214133 0.232660 -0.484532
-0.215409 0.232660 -0.483665
-0.217323 0.233062 -0.483607
-0.219235 0.233463 -0.483548
-0.221143 0.233864 -0.483490
-0.222416 0.233864 -0.482625
-0.224320 0.234264 -0.482567
-0.226221 0.234664 -0.482510
-0.228119 0.235063 -0.482452
-0.229389 0.235063 -0.481590
-0.231283 0.235461 -0.481533
-0.233174 0.235859 -0.481477
-0.234442 0.235859 -0.480616
-0.235711 0.235859 -0.479755
-0.237597 0.236256 -0.479700
-0.238864 0.236256 -0.478839
-0.240746 0.236652 -0.478785
-0.241398 0.236256 -0.477119
-0.242666 0.236256 -0.476258
-0.244544 0.236652 -0.476206
-0.245811 0.236652 -0.475346
-0.247685 0.237048 -0.475295
-0.248951 0.237048 -0.474436
-0.250216 0.237048 -0.473577
-0.252086 0.237443 -0.473527
-0.253350 0.237443 -0.472669
-0.254614 0.237443 -0.471810
-0.256479 0.237838 -0.471762
-0.257742 0.237838 -0.470904
-0.259005 0.237838 -0.470047
-0.260269 0.237838 -0.469189
-0.261532 0.237838 -0.468332
-0.263389 0.238231 -0.468286
-0.264652 0.238231 -0.467429
-0.265914 0.238231 -0.466572
-0.267176 0.238231 -0.465715
-0.268438 0.238231 -0.464858
-0.269701 0.238231 -0.464001
-0.270963 0.238231 -0.463145
-0.272812 0.238625 -0.463103
-0.274073 0.238625 -0.462247
-0.275334 0.238625 -0.461391
-0.276595 0.238625 -0.460534
-0.277856 0.238625 -0.459678
-0.279118 0.238625 -0.458822
-0.280379 0.238625 -0.457966
-0.281640 0.238625 -0.457110
-0.282901 0.238625 -0.456254
-0.284163 0.238625 -0.455397
-0.285424 0.238625 -0.454541
-0.286685 0.238625 -0.453685
-0.287946 0.238625 -0.452829
-0.289207 0.238625 -0.451973
-0.290469 0.238625 -0.451116
-0.291730 0.238625 -0.450260
-0.292991 0.238625 -0.449404
-0.294252 0.238625 -0.448548
-0.295514 0.238625 -0.447692
-0.296775 0.238625 -0.446836
-0.298036 0.238625 -0.445979
-0.299297 0.238625 -0.445123
-0.300559 0.238625 -0.444267
-0.301256 0.238231 -0.442580
-0.302519 0.238231 -0.441723
-0.303781 0.238231 -0.440866
-0.305043 0.238231 -0.440009
-0.306305 0.238231 -0.439153
-0.307568 0.238231 -0.438296
-0.308830 0.238231 -0.437439
-0.310092 0.238231 -0.436582
-0.310798 0.237838 -0.434887
-0.312061 0.237838 -0.434030
-0.313325 0.237838 -0.433172
-0.314588 0.237838 -0.432315
-0.315851 0.237838 -0.431457
-0.317114 0.237838 -0.430600
-0.317827 0.237443 -0.428899
-0.319091 0.237443 -0.428041
-0.320904 0.237838 -0.428027
-0.322167 0.237838 -0.427170
-0.322884 0.237443 -0.425466
-0.324148 0.237443 -0.424608
-0.325412 0.237443 -0.423750
-0.326676 0.237443 -0.422891
-0.327941 0.237443 -0.422033
-0.329205 0.237443 -0.421175
-0.329927 0.237048 -0.419465
-0.331193 0.237048 -0.418606
-0.332458 0.237048 -0.417747
-0.333723 0.237048 -0.416889
-0.334450 0.236652 -0.415174
-0.335716 0.236652 -0.414315
-0.336982 0.236652 -0.413455
-0.338249 0.236652 -0.412595
-0.338979 0.236256 -0.410876
-0.340247 0.236256 -0.410016
-0.340980 0.235859 -0.408293
-0.342248 0.235859 -0.407432
-0.343516 0.235859 -0.406571
-0.344253 0.235461 -0.404844
-0.345522 0.235461 -0.403983
-0.346260 0.235063 -0.402253
-0.347531 0.235063 -0.401390
-0.348801 0.235063 -0.400528
-0.349543 0.234664 -0.398793
-0.350814 0.234664 -0.397930
-0.352086 0.234664 -0.397067
-0.352830 0.234264 -0.395329
-0.354103 0.234264 -0.394465
-0.354850 0.233864 -0.392723
-0.356123 0.233864 -0.391858
-0.356873 0.233463 -0.390113
-0.358147 0.233463 -0.389248
-0.358899 0.233062 -0.387499
-0.360174 0.233062 -0.386633
-0.360928 0.232660 -0.384880
-0.362205 0.232660 -0.384014
-0.362961 0.232257 -0.382258
-0.364238 0.232257 -0.381390
-0.364997 0.231853 -0.379631
-0.366275 0.231853 -0.378763
-0.367036 0.231449 -0.376999
-0.368315 0.231449 -0.376131
-0.369078 0.231045 -0.374364
-0.370359 0.231045 -0.373495
-0.370608 0.230233 -0.370822
-0.371891 0.230233 -0.369951
-0.373173 0.230233 -0.369080
-0.374456 0.230233 -0.368210
-0.375739 0.230233 -0.367339
-0.377021 0.230233 -0.366468
-0.377793 0.229826 -0.364689
-0.379077 0.229826 -0.363818
-0.380361 0.229826 -0.362946
-0.381644 0.229826 -0.362075
-0.382420 0.229419 -0.360291
-0.383705 0.229419 -0.359419
-0.384484 0.229011 -0.357631
-0.385769 0.229011 -0.356758
-0.386550 0.228602 -0.354967
-0.387837 0.228602 -0.354094
-0.388620 0.228193 -0.352299
-0.389405 0.227783 -0.350501
-0.390190 0.227372 -0.348701
-0.391480 0.227372 -0.347825
-0.392268 0.226961 -0.346021
-0.393058 0.226549 -0.344213
-0.393848 0.226136 -0.342403
-0.395141 0.226136 -0.341525
-0.395433 0.225308 -0.338774
-0.396729 0.225308 -0.337895
-0.397524 0.224894 -0.336075
-0.398321 0.224478 -0.334252
-0.399119 0.224062 -0.332426
-0.400418 0.224062 -0.331545
-0.401218 0.223645 -0.329715
-0.402020 0.223228 -0.327883
-0.402823 0.222810 -0.326047
-0.403628 0.222391 -0.324209
-0.404930 0.222391 -0.323324
-0.405737 0.221971 -0.321482
-0.406545 0.221551 -0.319637
-0.407850 0.221551 -0.318751
-0.409155 0.221551 -0.317865
-0.409967 0.221130 -0.316015
-0.410780 0.220708 -0.314162
-0.411594 0.220286 -0.312307
-0.412410 0.219863 -0.310447
-0.413719 0.219863 -0.309559
-0.414537 0.219439 -0.307696
-0.414865 0.218590 -0.304852
-0.415194 0.217737 -0.301999
-0.416017 0.217310 -0.300122
-0.416349 0.216453 -0.297253
-0.416682 0.215594 -0.294375
-0.417509 0.215163 -0.292484
-0.417845 0.214299 -0.289591
-0.418182 0.213432 -0.286688
-0.418519 0.212563 -0.283775
-0.419353 0.212127 -0.281864
-0.419694 0.211253 -0.278936
-0.418047 0.208613 -0.271909
-0.416383 0.205946 -0.264810
-0.412157 0.200986 -0.252374
-0.389089 0.179187 -0.200774
-0.389398 0.178199 -0.197515
-0.389707 0.177207 -0.194244
-0.390017 0.176211 -0.190962
-0.390884 0.175712 -0.188834
-0.391198 0.174711 -0.185532
-0.391512 0.173707 -0.182219
-0.391828 0.172699 -0.178894
-0.392144 0.171687 -0.175557
-0.391904 0.170162 -0.171017
-0.392222 0.169141 -0.167650
-0.392541 0.168116 -0.164271
-0.391737 0.166056 -0.158459
-0.392058 0.165020 -0.155045
-0.392379 0.163980 -0.151618
-0.392136 0.162413 -0.146948
-0.392459 0.161363 -0.143491
-0.392214 0.159782 -0.138777
-0.391969 0.158192 -0.134037
-0.391722 0.156593 -0.129271
-0.391473 0.154985 -0.124478
-0.391223 0.153367 -0.119658
-0.390972 0.151741 -0.114812
-0.390719 0.150106 -0.109937
-0.390465 0.148461 -0.105036
-0.387864 0.144588 -0.094849
-0.385228 0.140662 -0.084526
-0.380747 0.134962 -0.069981
-0.373707 0.126795 -0.049561
0.333765 0.111110 -0.487769
0.329507 0.112349 -0.488688
0.326595 0.112967 -0.488610
0.323689 0.113583 -0.488532
0.320788 0.114198 -0.488455
0.315263 0.116036 -0.490356
0.312382 0.116646 -0.490277
0.309508 0.117255 -0.490199
0.306639 0.117863 -0.490120
0.302480 0.119075 -0.491024
0.299627 0.119679 -0.490945
0.296779 0.120282 -0.490867
0.293936 0.120884 -0.490788
0.289823 0.122084 -0.491686
0.286996 0.122682 -0.491607
0.284174 0.123280 -0.491528
0.281358 0.123876 -0.491449
0.277290 0.125064 -0.492342
0.274489 0.125656 -0.492262
0.271693 0.126248 -0.492183
0.268903 0.126838 -0.492103
0.264878 0.128015 -0.492990
0.262103 0.128601 -0.492911
0.259333 0.129187 -0.492831
0.256568 0.129771 -0.492751
0.252587 0.130937 -0.493633
0.249837 0.131518 -0.493553
0.247092 0.132098 -0.493473
0.244353 0.132677 -0.493393
0.240414 0.133831 -0.494270
0.237689 0.134406 -0.494189
0.234969 0.134981 -0.494109
0.232255 0.135554 -0.494029
0.228358 0.136697 -0.494900
0.226841 0.136697 -0.493870
0.224142 0.137267 -0.493790
0.220272 0.138404 -0.494659
0.217587 0.138970 -0.494579
0.214907 0.139536 -0.494499
0.212232 0.140101 -0.494419
0.209562 0.140664 -0.494340
0.206897 0.141226 -0.494260
0.204238 0.141788 -0.494181
0.201583 0.142348 -0.494102
0.198933 0.142907 -0.494023
0.196289 0.143465 -0.493944
0.194789 0.143465 -0.492925
0.192151 0.144022 -0.492848
0.188385 0.145133 -0.493708
0.185761 0.145687 -0.493630
0.183141 0.146240 -0.493552
0.180526 0.146792 -0.493474
0.177917 0.147343 -0.493396
0.175312 0.147893 -0.493319
0.172712 0.148441 -0.493241
0.170117 0.148989 -0.493164
0.167526 0.149536 -0.493087
0.164941 0.150081 -0.493010
0.162361 0.150626 -0.492933
0.159785 0.151169 -0.492856
0.157214 0.151712 -0.492779
0.154648 0.152254 -0.492703
0.152087 0.152794 -0.492626
0.149530 0.153334 -0.492550
0.146978 0.153872 -0.492474
0.144431 0.154410 -0.492398
0.141889 0.154946 -0.492322
0.139351 0.155482 -0.492247
0.136819 0.156016 -0.492171
0.134290 0.156550 -0.492096
0.131767 0.157083 -0.492021
0.129248 0.157614 -0.491946
0.126734 0.158145 -0.491871
0.124224 0.158674 -0.491796
0.121720 0.159203 -0.491721
0.119219 0.159731 -0.491647
0.116724 0.160257 -0.491572
0.114233 0.160783 -0.491498
0.111746 0.161308 -0.491424
0.109264 0.161832 -0.491350
0.106787 0.162355 -0.491276
0.104314 0.162877 -0.491202
0.101846 0.163397 -0.491129
0.099382 0.163917 -0.491055
0.096923 0.164436 -0.490982
0.094468 0.164955 -0.490909
0.091015 0.165988 -0.491742
0.088572 0.166503 -0.491669
0.086134 0.167017 -0.491595
0.083700 0.167531 -0.491522
0.081271 0.168043 -0.491448
0.078846 0.168555 -0.491375
0.076425 0.169065 -0.491302
0.074009 0.169575 -0.491230
0.071597 0.170084 -0.491157
0.069189 0.170592 -0.491084
0.066786 0.171099 -0.491012
0.064388 0.171604 -0.490939
0.061993 0.172110 -0.490867
0.059603 0.172614 -0.490795
0.057217 0.173117 -0.490723
0.054836 0.173619 -0.490651
0.052458 0.174121 -0.490580
0.050085 0.174621 -0.490508
0.047717 0.175121 -0.490437
0.045352 0.175620 -0.490365
0.042992 0.176118 -0.490294
0.040636 0.176615 -0.490223
0.038284 0.177111 -0.490152
0.035936 0.177606 -0.490081
0.033593 0.178100 -0.490011
0.031254 0.178594 -0.489940
0.028918 0.179086 -0.489870
0.026588 0.179578 -0.489799
0.024261 0.180069 -0.489729
0.021938 0.180559 -0.489659
0.019619 0.181048 -0.489589
0.017305 0.181536 -0.489520
0.014995 0.182023 -0.489450
0.012689 0.182510 -0.489380
0.010386 0.182995 -0.489311
0.008088 0.183480 -0.489242
0.005794 0.183964 -0.489172
0.003504 0.184447 -0.489103
0.001218 0.184929 -0.489034
-0.001064 0.185411 -0.488966
-0.003342 0.185891 -0.488897
-0.005616 0.186371 -0.488828
-0.008763 0.187327 -0.489634
-0.011026 0.187805 -0.489565
-0.013285 0.188281 -0.489496
-0.015541 0.188756 -0.489427
-0.017792 0.189231 -0.489359
-0.020039 0.189705 -0.489290
-0.022283 0.190178 -0.489222
-0.024522 0.190650 -0.489153
-0.026758 0.191121 -0.489085
-0.028990 0.191592 -0.489017
-0.031218 0.192061 -0.488949
-0.033442 0.192530 -0.488881
-0.035662 0.192998 -0.488813
-0.037878 0.193466 -0.488746
-0.040091 0.193932 -0.488678
-0.042299 0.194398 -0.488611
-0.044504 0.194862 -0.488544
-0.046705 0.195327 -0.488477
-0.048902 0.195790 -0.488409
-0.051096 0.196252 -0.488343
-0.053285 0.196714 -0.488276
-0.055471 0.197175 -0.488209
-0.057653 0.197635 -0.488143
-0.059832 0.198094 -0.488076
-0.062006 0.198552 -0.488010
-0.064177 0.199010 -0.487944
-0.066344 0.199467 -0.487877
-0.068508 0.199923 -0.487811
-0.070667 0.200378 -0.487746
-0.072823 0.200833 -0.487680
-0.074976 0.201287 -0.487614
-0.077124 0.201740 -0.487549
-0.079269 0.202192 -0.487483
-0.081411 0.202643 -0.487418
-0.083548 0.203094 -0.487353
-0.085683 0.203544 -0.487287
-0.087813 0.203993 -0.487222
-0.089940 0.204441 -0.487158
-0.092063 0.204889 -0.487093
-0.094183 0.205336 -0.487028
-0.096299 0.205782 -0.486964
-0.098411 0.206227 -0.486899
-0.100520 0.206672 -0.486835
-0.102625 0.207116 -0.486771
-0.104727 0.207559 -0.486706
-0.106825 0.208001 -0.486643
-0.109677 0.208884 -0.487420
-0.111766 0.209324 -0.487356
-0.113851 0.209763 -0.487291
-0.115933 0.210202 -0.487227
-0.118011 0.210640 -0.487163
-0.120086 0.211077 -0.487099
-0.122157 0.211513 -0.487035
-0.124225 0.211949 -0.486971
-0.126289 0.212384 -0.486907
-0.128350 0.212818 -0.486844
-0.130407 0.213252 -0.486780
-0.132461 0.213684 -0.486717
-0.134512 0.214116 -0.486654
-0.136559 0.214548 -0.486591
-0.138603 0.214978 -0.486528
-0.140643 0.215408 -0.486465
-0.142680 0.215838 -0.486402
-0.144713 0.216266 -0.486339
-0.146744 0.216694 -0.486276
-0.148770 0.217121 -0.486214
-0.150794 0.217547 -0.486151
-0.152814 0.217973 -0.486089
-0.154831 0.218398 -0.486027
-0.156844 0.218822 -0.485965
-0.158854 0.219246 -0.485903
-0.160861 0.219668 -0.485841
-0.162864 0.220091 -0.485779
-0.164865 0.220512 -0.485717
-0.166861 0.220933 -0.485656
-0.168855 0.221353 -0.485594
-0.170845 0.221772 -0.485533
-0.172832 0.222191 -0.485471
-0.175499 0.223026 -0.486230
-0.177478 0.223443 -0.486168
-0.178774 0.223443 -0.485288
-0.180748 0.223859 -0.485227
-0.182719 0.224274 -0.485166
-0.184686 0.224689 -0.485106
-0.186651 0.225103 -0.485045
-0.188612 0.225516 -0.484985
-0.190570 0.225928 -0.484924
-0.192525 0.226340 -0.484864
-0.194476 0.226752 -0.484804
-0.196425 0.227162 -0.484743
-0.198370 0.227572 -0.484683
-0.200312 0.227981 -0.484623
-0.202251 0.228390 -0.484564
-0.204187 0.228798 -0.484504
-0.206120 0.229205 -0.484444
-0.208049 0.229612 -0.484385
-0.209976 0.230017 -0.484325
-0.211899 0.230423 -0.484266
-0.213819 0.230827 -0.484207
-0.215736 0.231231 -0.484148
-0.217650 0.231635 -0.484089
-0.218926 0.231635 -0.483223
-0.220836 0.232037 -0.483164
-0.222743 0.232439 -0.483106
-0.224647 0.232841 -0.483048
-0.225919 0.232841 -0.482184
-0.227819 0.233241 -0.482127
-0.229715 0.233641 -0.482070
-0.231609 0.234041 -0.482013
-0.232878 0.234041 -0.481151
-0.234768 0.234440 -0.481095
-0.236036 0.234440 -0.480234
-0.237922 0.234838 -0.480178
-0.239189 0.234838 -0.479318
-0.240456 0.234838 -0.478458
-0.241724 0.234838 -0.477597
-0.242991 0.234838 -0.476737
-0.244258 0.234838 -0.475877
-0.246135 0.235235 -0.475825
-0.247402 0.235235 -0.474965
-0.249275 0.235632 -0.474914
-0.250540 0.235632 -0.474055
-0.252410 0.236028 -0.474005
-0.253674 0.236028 -0.473146
-0.254938 0.236028 -0.472288
-0.256203 0.236028 -0.471430
-0.258066 0.236424 -0.471382
-0.259329 0.236424 -0.470524
-0.260593 0.236424 -0.469666
-0.261856 0.236424 -0.468809
-0.263713 0.236819 -0.468763
-0.264975 0.236819 -0.467906
-0.266238 0.236819 -0.467049
-0.267500 0.236819 -0.466192
-0.268762 0.236819 -0.465335
-0.270024 0.236819 -0.464478
-0.271287 0.236819 -0.463622
-0.273135 0.237213 -0.463579
-0.274396 0.237213 -0.462723
-0.275657 0.237213 -0.461867
-0.276919 0.237213 -0.461011
-0.278180 0.237213 -0.460155
-0.279441 0.237213 -0.459299
-0.280702 0.237213 -0.458442
-0.281964 0.237213 -0.457586
-0.283225 0.237213 -0.456730
-0.284486 0.237213 -0.455874
-0.285747 0.237213 -0.455018
-0.287583 0.237607 -0.454983
-0.288843 0.237607 -0.454127
-0.290103 0.237607 -0.453272
-0.290792 0.237213 -0.451593
-0.292053 0.237213 -0.450737
-0.293315 0.237213 -0.449881
-0.294576 0.237213 -0.449024
-0.295837 0.237213 -0.448168
-0.297098 0.237213 -0.447312
-0.298360 0.237213 -0.446456
-0.299621 0.237213 -0.445600
-0.300882 0.237213 -0.444744
-0.302143 0.237213 -0.443887
-0.303404 0.237213 -0.443031
-0.304666 0.237213 -0.442175
-0.305927 0.237213 -0.441319
-0.307188 0.237213 -0.440463
-0.307891 0.236819 -0.438773
-0.309154 0.236819 -0.437916
-0.310416 0.236819 -0.437059
-0.311678 0.236819 -0.436202
-0.312940 0.236819 -0.435345
-0.314202 0.236819 -0.434488
-0.314912 0.236424 -0.432792
-0.316175 0.236424 -0.431935
-0.317438 0.236424 -0.431077
-0.318702 0.236424 -0.430219
-0.319965 0.236424 -0.429362
-0.321228 0.236424 -0.428504
-0.322491 0.236424 -0.427647
-0.323755 0.236424 -0.426789
-0.325018 0.236424 -0.425932
-0.326281 0.236424 -0.425074
-0.327001 0.236028 -0.423369
-0.328265 0.236028 -0.422511
-0.329529 0.236028 -0.421653
-0.330793 0.236028 -0.420794
-0.332058 0.236028 -0.419936
-0.333322 0.236028 -0.419078
-0.334048 0.235632 -0.417367
-0.335313 0.235632 -0.416508
-0.336578 0.235632 -0.415649
-0.337843 0.235632 -0.414790
-0.338573 0.235235 -0.413074
-0.339840 0.235235 -0.412214
-0.341106 0.235235 -0.411355
-0.341839 0.234838 -0.409634
-0.343106 0.234838 -0.408774
-0.344374 0.234838 -0.407914
-0.345110 0.234440 -0.406189
-0.346378 0.234440 -0.405328
-0.347117 0.234041 -0.403601
-0.348386 0.234041 -0.402739
-0.349655 0.234041 -0.401877
-0.350397 0.233641 -0.400145
-0.351668 0.233641 -0.399283
-0.352412 0.233241 -0.397548
-0.354208 0.233641 -0.397558
-0.354954 0.233241 -0.395822
-0.356226 0.233241 -0.394959
-0.356974 0.232841 -0.393218
-0.357723 0.232439 -0.391475
-0.358997 0.232439 -0.390611
-0.359749 0.232037 -0.388864
-0.361023 0.232037 -0.387999
-0.361777 0.231635 -0.386249
-0.363052 0.231635 -0.385383
-0.364328 0.231635 -0.384517
-0.365085 0.231231 -0.382763
-0.366362 0.231231 -0.381896
