ply
format ascii 1.0
element vertex 1688
property float x
property float y
property float z
end_header
-0.018385 0.357474 -0.425910
-0.018787 0.357474 -0.427751
-0.020730 0.356721 -0.429684
-0.021131 0.356721 -0.431528
-0.023078 0.355966 -0.433466
-0.025029 0.355210 -0.435408
-0.026984 0.354452 -0.437354
-0.028943 0.353692 -0.439304
-0.034033 0.351405 -0.441464
-0.040732 0.348335 -0.443744
-0.045893 0.346016 -0.445933
-0.051086 0.343682 -0.448135
-0.056309 0.341335 -0.450350
-0.063186 0.338184 -0.452695
-0.068484 0.335803 -0.454940
-0.073813 0.333408 -0.457199
-0.079176 0.330998 -0.459471
-0.084571 0.328574 -0.461758
-0.091677 0.325318 -0.464188
-0.097150 0.322859 -0.466506
-0.102656 0.320384 -0.468838
-0.108197 0.317894 -0.471184
-0.113773 0.315388 -0.473545
-0.156621 0.294766 -0.479026
-0.154981 0.232451 0.083487
-0.147705 0.236501 0.079441
-0.142408 0.239514 0.075901
-0.135246 0.243500 0.071922
-0.130032 0.246466 0.068435
-0.122983 0.250389 0.064520
-0.117851 0.253309 0.061085
-0.112753 0.256209 0.057673
-0.107689 0.259089 0.054284
-0.104482 0.260999 0.051347
-0.099474 0.263848 0.047997
-0.096303 0.265737 0.045090
-0.093146 0.267617 0.042196
-0.091796 0.268555 0.039727
-0.088659 0.270423 0.036854
-0.085536 0.272283 0.033994
-0.082426 0.274135 0.031146
-0.079330 0.275978 0.028310
-0.076248 0.277814 0.025487
-0.073179 0.279642 0.022676
-0.070123 0.281462 0.019877
-0.067080 0.283274 0.017090
-0.064050 0.285078 0.014316
-0.061034 0.286875 0.011553
-0.058030 0.288664 0.008802
-0.055039 0.290445 0.006062
-0.053766 0.291333 0.003699
-0.050794 0.293103 0.000979
-0.049530 0.293985 -0.001372
-0.046576 0.295743 -0.004072
-0.043635 0.297494 -0.006761
-0.042385 0.298367 -0.009091
-0.039462 0.300107 -0.011760
-0.038220 0.300974 -0.014078
-0.035315 0.302703 -0.016728
-0.032422 0.304425 -0.019368
-0.031194 0.305283 -0.021665
-0.028319 0.306994 -0.024286
-0.025456 0.308698 -0.026896
-0.024242 0.309547 -0.029173
-0.021397 0.311240 -0.031765
-0.020191 0.312084 -0.034030
-0.018987 0.312926 -0.036291
-0.016164 0.314605 -0.038856
-0.014969 0.315442 -0.041105
-0.012163 0.317111 -0.043653
-0.010975 0.317942 -0.045890
-0.009790 0.318772 -0.048122
-0.007006 0.320427 -0.050645
-0.005829 0.321252 -0.052865
-0.004653 0.322075 -0.055080
-0.001892 0.323716 -0.057579
-0.000724 0.324535 -0.059783
0.002021 0.326166 -0.062264
0.003181 0.326979 -0.064456
0.004338 0.327790 -0.066644
0.007062 0.329408 -0.069101
0.008212 0.330215 -0.071277
0.009360 0.331020 -0.073449
0.012062 0.332624 -0.075883
0.013202 0.333424 -0.078043
0.015888 0.335019 -0.080460
0.017021 0.335814 -0.082610
0.018152 0.336608 -0.084755
0.020818 0.338190 -0.087148
0.021941 0.338979 -0.089282
0.023062 0.339766 -0.091412
0.024181 0.340551 -0.093538
0.025298 0.341335 -0.095659
0.027933 0.342899 -0.098016
0.029043 0.343678 -0.100127
0.028635 0.343678 -0.101998
0.029743 0.344456 -0.104102
0.030848 0.345232 -0.106202
0.031952 0.346006 -0.108298
0.033053 0.346779 -0.110390
0.034152 0.347551 -0.112478
0.035249 0.348321 -0.114561
0.034844 0.348321 -0.116421
0.037436 0.349856 -0.118716
0.038526 0.350622 -0.120787
0.038122 0.350622 -0.122641
0.039211 0.351386 -0.124707
0.040297 0.352148 -0.126768
0.041382 0.352909 -0.128825
0.040979 0.352909 -0.130674
0.042061 0.353668 -0.132725
0.041659 0.353668 -0.134572
0.041256 0.353668 -0.136419
0.042337 0.354426 -0.138462
0.043416 0.355182 -0.140502
0.043014 0.355182 -0.142345
0.044092 0.355937 -0.144379
0.045167 0.356691 -0.146408
0.044766 0.356691 -0.148248
0.045839 0.357442 -0.150272
0.045439 0.357442 -0.152110
0.045038 0.357442 -0.153948
0.044638 0.357442 -0.155786
0.045710 0.358193 -0.157800
0.045310 0.358193 -0.159636
0.044910 0.358193 -0.161472
0.044510 0.358193 -0.163308
0.045581 0.358942 -0.165313
0.045181 0.358942 -0.167148
0.044782 0.358942 -0.168982
0.044382 0.358942 -0.170817
0.043982 0.358942 -0.172651
0.043582 0.358942 -0.174485
0.044654 0.359689 -0.176477
0.044254 0.359689 -0.178310
0.043855 0.359689 -0.180142
0.043455 0.359689 -0.181975
0.043056 0.359689 -0.183808
0.042657 0.359689 -0.185640
0.042257 0.359689 -0.187473
0.041858 0.359689 -0.189305
0.041458 0.359689 -0.191138
0.041059 0.359689 -0.192970
0.040659 0.359689 -0.194803
0.040260 0.359689 -0.196636
0.039861 0.359689 -0.198468
0.037985 0.358942 -0.200166
0.037585 0.358942 -0.202001
0.037185 0.358942 -0.203835
0.035305 0.358193 -0.205540
0.034905 0.358193 -0.207376
0.034505 0.358193 -0.209213
0.034104 0.358193 -0.211049
0.032219 0.357442 -0.212763
0.031819 0.357442 -0.214601
0.031418 0.357442 -0.216439
0.029529 0.356691 -0.218160
0.029128 0.356691 -0.219999
0.028727 0.356691 -0.221839
0.026832 0.355937 -0.223567
0.026431 0.355937 -0.225409
0.026030 0.355937 -0.227250
0.024131 0.355182 -0.228985
0.023729 0.355182 -0.230829
0.023327 0.355182 -0.232672
0.021424 0.354426 -0.234414
0.021022 0.354426 -0.236259
0.020620 0.354426 -0.238105
0.020218 0.354426 -0.239950
0.019816 0.354426 -0.241795
0.017907 0.353668 -0.243548
0.017504 0.353668 -0.245395
0.017102 0.353668 -0.247242
0.016699 0.353668 -0.249089
0.016297 0.353668 -0.250936
0.015894 0.353668 -0.252783
0.015492 0.353668 -0.254630
0.013577 0.352909 -0.256397
0.013174 0.352909 -0.258246
0.012771 0.352909 -0.260095
0.012368 0.352909 -0.261944
0.011965 0.352909 -0.263793
0.010045 0.352148 -0.265571
0.009641 0.352148 -0.267422
0.009238 0.352148 -0.269272
0.008835 0.352148 -0.271123
0.008431 0.352148 -0.272974
0.008028 0.352148 -0.274824
0.006102 0.351386 -0.276615
0.005698 0.351386 -0.278468
0.005295 0.351386 -0.280320
0.004891 0.351386 -0.282173
0.004487 0.351386 -0.284025
0.002556 0.350622 -0.285827
0.002152 0.350622 -0.287681
0.001747 0.350622 -0.289536
0.001343 0.350622 -0.291390
0.000939 0.350622 -0.293244
0.000535 0.350622 -0.295099
-0.001402 0.349856 -0.296913
-0.001807 0.349856 -0.298770
-0.002211 0.349856 -0.300626
-0.002616 0.349856 -0.302482
-0.003021 0.349856 -0.304338
-0.003425 0.349856 -0.306194
-0.006910 0.348321 -0.307993
-0.007315 0.348321 -0.309853
-0.004639 0.349856 -0.311763
-0.005043 0.349856 -0.313619
-0.008531 0.348321 -0.315432
-0.008937 0.348321 -0.317292
-0.010889 0.347551 -0.319134
-0.011295 0.347551 -0.320996
-0.011701 0.347551 -0.322858
-0.012106 0.347551 -0.324719
-0.014064 0.346779 -0.326571
-0.014470 0.346779 -0.328434
-0.014876 0.346779 -0.330298
-0.015282 0.346779 -0.332162
-0.017245 0.346006 -0.334022
-0.017652 0.346006 -0.335887
-0.018058 0.346006 -0.337753
-0.018465 0.346006 -0.339618
-0.018871 0.346006 -0.341484
-0.019278 0.346006 -0.343349
-0.019685 0.346006 -0.345215
-0.021654 0.345232 -0.347090
-0.023626 0.344456 -0.348969
-0.025603 0.343678 -0.350852
-0.026011 0.343678 -0.352723
-0.027992 0.342899 -0.354612
-0.028401 0.342899 -0.356485
-0.030386 0.342118 -0.358379
-0.032376 0.341335 -0.360277
-0.032785 0.341335 -0.362154
-0.034779 0.340551 -0.364057
-0.035188 0.340551 -0.365936
-0.037187 0.339766 -0.367845
-0.039189 0.338979 -0.369759
-0.039600 0.338979 -0.371641
-0.040010 0.338979 -0.373524
-0.037236 0.340551 -0.375329
-0.036057 0.341335 -0.377168
-0.033299 0.342899 -0.378960
-0.030552 0.344456 -0.380746
-0.029386 0.345232 -0.382570
-0.028223 0.346006 -0.384390
-0.027062 0.346779 -0.386207
-0.025903 0.347551 -0.388020
-0.024746 0.348321 -0.389829
-0.020482 0.350622 -0.391527
-0.019335 0.351386 -0.393325
-0.018191 0.352148 -0.395120
-0.017049 0.352909 -0.396912
-0.015909 0.353668 -0.398700
-0.014771 0.354426 -0.400485
-0.015173 0.354426 -0.402330
-0.014038 0.355182 -0.404109
-0.012904 0.355937 -0.405885
-0.013305 0.355937 -0.407726
-0.012174 0.356691 -0.409497
-0.011044 0.357442 -0.411263
-0.011445 0.357442 -0.413101
-0.011846 0.357442 -0.414939
-0.012246 0.357442 -0.416777
-0.012647 0.357442 -0.418615
-0.013047 0.357442 -0.420453
-0.013448 0.357442 -0.422291
-0.012318 0.358193 -0.424044
-0.012719 0.358193 -0.425880
-0.013119 0.358193 -0.427716
-0.015050 0.357442 -0.429643
-0.015451 0.357442 -0.431481
-0.017387 0.356691 -0.433414
-0.019326 0.355937 -0.435350
-0.021270 0.355182 -0.437290
-0.021671 0.355182 -0.439134
-0.023619 0.354426 -0.441080
-0.028678 0.352148 -0.443239
-0.033768 0.349856 -0.445411
-0.040466 0.346779 -0.447706
-0.045626 0.344456 -0.449907
-0.050818 0.342118 -0.452121
-0.057652 0.338979 -0.454466
-0.062916 0.336608 -0.456710
-0.068213 0.334223 -0.458967
-0.073542 0.331823 -0.461238
-0.080559 0.328600 -0.463652
-0.085964 0.326166 -0.465953
-0.091403 0.323716 -0.468269
-0.096875 0.321252 -0.470599
-0.102380 0.318772 -0.472943
-0.128720 0.306139 -0.477041
-0.151337 0.231684 0.084873
-0.144087 0.235733 0.080826
-0.136901 0.239745 0.076815
-0.131670 0.242730 0.073303
-0.124597 0.246679 0.069358
-0.119448 0.249618 0.065899
-0.112485 0.253505 0.062018
-0.107417 0.256398 0.058610
-0.104207 0.258316 0.055660
-0.099194 0.261177 0.052293
-0.096020 0.263074 0.049373
-0.094662 0.264019 0.046889
-0.091509 0.265903 0.043990
-0.090161 0.266842 0.041520
-0.087028 0.268714 0.038643
-0.083908 0.270578 0.035779
-0.079032 0.273358 0.032524
-0.075947 0.275202 0.029688
-0.072875 0.277037 0.026865
-0.071565 0.277952 0.024446
-0.068513 0.279776 0.021643
-0.063739 0.282496 0.018469
-0.062447 0.283399 0.016074
-0.059434 0.285199 0.013307
-0.056434 0.286992 0.010552
-0.053446 0.288777 0.007809
-0.052175 0.289666 0.005444
-0.049206 0.291440 0.002720
-0.047944 0.292323 0.000368
-0.044993 0.294085 -0.002336
-0.042055 0.295840 -0.005028
-0.040807 0.296715 -0.007360
-0.037887 0.298458 -0.010034
-0.034980 0.300194 -0.012696
-0.033746 0.301059 -0.015007
-0.030856 0.302785 -0.017650
-0.027979 0.304503 -0.020282
-0.025114 0.306213 -0.022903
-0.023899 0.307066 -0.025187
-0.022686 0.307917 -0.027466
-0.019844 0.309613 -0.030062
-0.018639 0.310459 -0.032329
-0.017437 0.311303 -0.034591
-0.014618 0.312985 -0.037160
-0.013424 0.313824 -0.039411
-0.010621 0.315496 -0.041962
-0.009435 0.316329 -0.044200
-0.008251 0.317161 -0.046434
-0.005471 0.318819 -0.048961
-0.004295 0.319645 -0.051183
-0.003121 0.320470 -0.053400
-0.000363 0.322115 -0.055902
0.000803 0.322935 -0.058107
0.003545 0.324569 -0.060592
0.004704 0.325384 -0.062786
0.005860 0.326197 -0.064976
0.008580 0.327818 -0.067436
0.009728 0.328626 -0.069614
0.010875 0.329433 -0.071788
0.013574 0.331041 -0.074224
0.014713 0.331842 -0.076387
0.017396 0.333440 -0.078807
0.018527 0.334237 -0.080958
0.019657 0.335032 -0.083105
0.022319 0.336618 -0.085501
0.023441 0.337408 -0.087637
0.024561 0.338197 -0.089769
0.025678 0.338984 -0.091896
0.026793 0.339769 -0.094019
0.029426 0.341335 -0.096379
0.030534 0.342116 -0.098492
0.031640 0.342896 -0.100600
0.031232 0.342896 -0.102469
0.032336 0.343673 -0.104571
0.033438 0.344449 -0.106668
0.034538 0.345224 -0.108762
0.035636 0.345997 -0.110851
0.036731 0.346769 -0.112936
0.036326 0.346769 -0.114796
0.038915 0.348307 -0.117094
0.040004 0.349074 -0.119167
0.041091 0.349839 -0.121235
0.040687 0.349839 -0.123088
0.041772 0.350603 -0.125151
0.042855 0.351366 -0.127209
0.042452 0.351366 -0.129058
0.043533 0.352127 -0.131111
0.044612 0.352886 -0.133159
0.042728 0.352127 -0.134805
0.043807 0.352886 -0.136850
0.044885 0.353644 -0.138891
0.044483 0.353644 -0.140734
0.045559 0.354400 -0.142769
0.046633 0.355155 -0.144800
0.046232 0.355155 -0.146640
0.047304 0.355909 -0.148666
0.046903 0.355909 -0.150504
0.047974 0.356660 -0.152523
0.047573 0.356660 -0.154359
0.047173 0.356660 -0.156195
0.046773 0.356660 -0.158032
0.046373 0.356660 -0.159868
0.045973 0.356660 -0.161704
0.047043 0.357411 -0.163711
0.046643 0.357411 -0.165545
0.046243 0.357411 -0.167379
0.045843 0.357411 -0.169214
0.045444 0.357411 -0.171048
0.046513 0.358160 -0.173043
0.046114 0.358160 -0.174876
0.045714 0.358160 -0.176709
0.045315 0.358160 -0.178541
0.044916 0.358160 -0.180374
0.044516 0.358160 -0.182206
0.044117 0.358160 -0.184039
0.043717 0.358160 -0.185871
0.043318 0.358160 -0.187704
0.042919 0.358160 -0.189537
0.042519 0.358160 -0.191369
0.042120 0.358160 -0.193202
0.043192 0.358907 -0.195173
0.041321 0.358160 -0.196867
0.040921 0.358160 -0.198699
0.040522 0.358160 -0.200532
0.038647 0.357411 -0.202232
0.038247 0.357411 -0.204067
0.037847 0.357411 -0.205901
0.037448 0.357411 -0.207735
0.035567 0.356660 -0.209444
0.035167 0.356660 -0.211280
0.034767 0.356660 -0.213117
0.032883 0.355909 -0.214833
0.032482 0.355909 -0.216671
0.032081 0.355909 -0.218508
0.030193 0.355155 -0.220231
0.029792 0.355155 -0.222071
0.029391 0.355155 -0.223911
0.027497 0.354400 -0.225641
0.027096 0.354400 -0.227483
0.026694 0.354400 -0.229324
0.024796 0.353644 -0.231061
0.024394 0.353644 -0.232905
0.023993 0.353644 -0.234748
0.022090 0.352886 -0.236492
0.021688 0.352886 -0.238337
0.021286 0.352886 -0.240183
0.020884 0.352886 -0.242028
0.020481 0.352886 -0.243873
0.020079 0.352886 -0.245718
0.019677 0.352886 -0.247563
0.019275 0.352886 -0.249409
0.018873 0.352886 -0.251254
0.016963 0.352127 -0.253016
0.016561 0.352127 -0.254863
0.016158 0.352127 -0.256710
0.015756 0.352127 -0.258557
0.015353 0.352127 -0.260404
0.013438 0.351366 -0.262177
0.013035 0.351366 -0.264026
0.012632 0.351366 -0.265875
0.012229 0.351366 -0.267724
0.011826 0.351366 -0.269573
0.009906 0.350603 -0.271356
0.009503 0.350603 -0.273207
0.009099 0.350603 -0.275058
0.008696 0.350603 -0.276909
0.008293 0.350603 -0.278759
0.007889 0.350603 -0.280610
0.005963 0.349839 -0.282406
0.005559 0.349839 -0.284259
0.005156 0.349839 -0.286112
0.004752 0.349839 -0.287964
0.004348 0.349839 -0.289817
0.002417 0.349074 -0.291624
0.002012 0.349074 -0.293478
0.001608 0.349074 -0.295333
0.001204 0.349074 -0.297187
0.000800 0.349074 -0.299042
0.000396 0.349074 -0.300896
-0.001542 0.348307 -0.302716
-0.001946 0.348307 -0.304572
-0.002351 0.348307 -0.306429
-0.002755 0.348307 -0.308285
-0.003160 0.348307 -0.310141
-0.003564 0.348307 -0.311997
-0.003969 0.348307 -0.313853
-0.004374 0.348307 -0.315710
-0.004778 0.348307 -0.317566
-0.005183 0.348307 -0.319422
-0.008671 0.346769 -0.321247
-0.009076 0.346769 -0.323107
-0.011029 0.345997 -0.324954
-0.011434 0.345997 -0.326816
-0.011840 0.345997 -0.328678
-0.012246 0.345997 -0.330540
-0.014204 0.345224 -0.332397
-0.014610 0.345224 -0.334260
-0.015016 0.345224 -0.336124
-0.015422 0.345224 -0.337988
-0.017385 0.344449 -0.339854
-0.016235 0.345224 -0.341715
-0.016641 0.345224 -0.343578
-0.018605 0.344449 -0.345450
-0.020573 0.343673 -0.347326
-0.020980 0.343673 -0.349193
-0.022952 0.342896 -0.351074
-0.023359 0.342896 -0.352944
-0.025336 0.342116 -0.354830
-0.027317 0.341335 -0.356721
-0.027725 0.341335 -0.358594
-0.029710 0.340553 -0.360490
-0.030118 0.340553 -0.362365
-0.032108 0.339769 -0.364267
-0.034101 0.338984 -0.366173
-0.034510 0.338984 -0.368052
-0.036508 0.338197 -0.369963
-0.036918 0.338197 -0.371844
-0.037328 0.338197 -0.373724
-0.034562 0.339769 -0.375528
-0.031807 0.341335 -0.377324
-0.030637 0.342116 -0.379155
-0.027899 0.343673 -0.380938
-0.026736 0.344449 -0.382760
-0.025577 0.345224 -0.384578
-0.024419 0.345997 -0.386393
-0.023264 0.346769 -0.388204
-0.020556 0.348307 -0.389959
-0.017859 0.349839 -0.391707
-0.016716 0.350603 -0.393503
-0.015575 0.351366 -0.395296
-0.014437 0.352127 -0.397086
-0.013301 0.352886 -0.398872
-0.012167 0.353644 -0.400655
-0.011035 0.354400 -0.402434
-0.011437 0.354400 -0.404275
-0.010307 0.355155 -0.406049
-0.009179 0.355909 -0.407819
-0.009580 0.355909 -0.409657
-0.008454 0.356660 -0.411422
-0.007330 0.357411 -0.413184
-0.007730 0.357411 -0.415018
-0.008130 0.357411 -0.416853
-0.008530 0.357411 -0.418687
-0.008930 0.357411 -0.420521
-0.009329 0.357411 -0.422356
-0.009729 0.357411 -0.424190
-0.008606 0.358160 -0.425937
-0.009005 0.358160 -0.427770
-0.009404 0.358160 -0.429602
-0.009804 0.358160 -0.431435
-0.011728 0.357411 -0.433362
-0.013657 0.356660 -0.435293
-0.014057 0.356660 -0.437129
-0.015989 0.355909 -0.439065
-0.017925 0.355155 -0.441005
-0.019866 0.354400 -0.442949
-0.023355 0.352886 -0.445003
-0.028414 0.350603 -0.447174
-0.033502 0.348307 -0.449358
-0.040199 0.345224 -0.451669
-0.045359 0.342896 -0.453881
-0.052150 0.339769 -0.456227
-0.057382 0.337408 -0.458469
-0.062646 0.335032 -0.460724
-0.067942 0.332642 -0.462994
-0.074915 0.329433 -0.465407
-0.080287 0.327008 -0.467707
-0.085691 0.324569 -0.470021
-0.091128 0.322115 -0.472349
-0.110228 0.312985 -0.475834
-0.171204 0.283399 -0.482920
-0.151573 0.228881 0.087224
-0.140476 0.234967 0.082207
-0.133315 0.238977 0.078194
-0.126219 0.242952 0.074218
-0.121053 0.245910 0.070735
-0.114067 0.249823 0.066824
-0.107144 0.253700 0.062947
-0.103931 0.255626 0.059984
-0.100732 0.257544 0.057034
-0.097548 0.259453 0.054098
-0.094378 0.261354 0.051174
-0.091221 0.263246 0.048263
-0.088079 0.265130 0.045365
-0.086736 0.266069 0.042896
-0.083614 0.267940 0.040019
-0.082280 0.268873 0.037564
-0.077410 0.271659 0.034303
-0.074328 0.273506 0.031464
-0.071260 0.275345 0.028637
-0.068205 0.277176 0.025822
-0.065163 0.279000 0.023019
-0.062134 0.280815 0.020229
-0.059118 0.282623 0.017450
-0.057834 0.283524 0.015062
-0.053126 0.286215 0.011929
-0.051853 0.287108 0.009556
-0.050584 0.288000 0.007189
-0.047618 0.289776 0.004462
-0.044666 0.291546 0.001746
-0.043410 0.292428 -0.000600
-0.040476 0.294186 -0.003296
-0.037554 0.295936 -0.005981
-0.036313 0.296809 -0.008307
-0.033409 0.298549 -0.010973
-0.030517 0.300281 -0.013627
-0.029290 0.301144 -0.015933
-0.026416 0.302866 -0.018568
-0.025197 0.303724 -0.020862
-0.022341 0.305434 -0.023479
-0.021130 0.306287 -0.025760
-0.018291 0.307987 -0.028358
-0.017088 0.308834 -0.030627
-0.015887 0.309679 -0.032891
-0.013071 0.311365 -0.035464
-0.011878 0.312205 -0.037716
-0.010689 0.313044 -0.039964
-0.007895 0.314716 -0.042511
-0.006712 0.315549 -0.044747
-0.003935 0.317211 -0.047277
-0.002761 0.318039 -0.049500
-0.001589 0.318865 -0.051719
0.001167 0.320513 -0.054225
0.002331 0.321335 -0.056432
0.003493 0.322154 -0.058635
0.006226 0.323789 -0.061116
0.007381 0.324603 -0.063307
0.010098 0.326228 -0.065771
0.011245 0.327037 -0.067951
0.012390 0.327846 -0.070126
0.015086 0.329457 -0.072566
0.016223 0.330260 -0.074730
0.017358 0.331062 -0.076890
0.020033 0.332660 -0.079306
0.022698 0.334251 -0.081713
0.023820 0.335045 -0.083855
0.024941 0.335837 -0.085992
0.026059 0.336627 -0.088126
0.027175 0.337416 -0.090255
0.028289 0.338203 -0.092379
0.030918 0.339772 -0.094743
0.032025 0.340555 -0.096857
0.033129 0.341336 -0.098966
0.034231 0.342115 -0.101071
0.033824 0.342115 -0.102939
0.034925 0.342893 -0.105038
0.036023 0.343669 -0.107133
0.037119 0.344443 -0.109224
0.038213 0.345216 -0.111311
0.040799 0.346758 -0.113616
0.040394 0.346758 -0.115472
0.041482 0.347526 -0.117546
0.042567 0.348293 -0.119616
0.042163 0.348293 -0.121469
0.043247 0.349059 -0.123533
0.044328 0.349823 -0.125593
0.045407 0.350585 -0.127650
0.045005 0.350585 -0.129497
0.046082 0.351346 -0.131547
0.045680 0.351346 -0.133392
0.045278 0.351346 -0.135237
0.046354 0.352105 -0.137280
0.045952 0.352105 -0.139123
0.047027 0.352863 -0.141160
0.048099 0.353620 -0.143193
0.047698 0.353620 -0.145033
0.048768 0.354375 -0.147060
0.048368 0.354375 -0.148897
0.049437 0.355128 -0.150919
0.049036 0.355128 -0.152755
0.048636 0.355128 -0.154591
0.048236 0.355128 -0.156427
0.047836 0.355128 -0.158263
0.048904 0.355880 -0.160273
0.048504 0.355880 -0.162108
0.048105 0.355880 -0.163942
0.047705 0.355880 -0.165776
0.047305 0.355880 -0.167611
0.048373 0.356630 -0.169610
0.047973 0.356630 -0.171442
0.047574 0.356630 -0.173275
0.047175 0.356630 -0.175107
0.046775 0.356630 -0.176940
0.046376 0.356630 -0.178772
0.045976 0.356630 -0.180605
0.045577 0.356630 -0.182437
0.046645 0.357379 -0.184420
0.044778 0.356630 -0.186103
0.044379 0.356630 -0.187935
0.043979 0.356630 -0.189768
0.043580 0.356630 -0.191600
0.044650 0.357379 -0.193574
0.044251 0.357379 -0.195404
0.043852 0.357379 -0.197235
0.041982 0.356630 -0.198931
0.041583 0.356630 -0.200763
0.041183 0.356630 -0.202596
0.039309 0.355880 -0.204298
0.038909 0.355880 -0.206132
0.038509 0.355880 -0.207967
0.038110 0.355880 -0.209801
0.036230 0.355128 -0.211512
0.035830 0.355128 -0.213348
0.035430 0.355128 -0.215184
0.033546 0.354375 -0.216902
0.033145 0.354375 -0.218740
0.032745 0.354375 -0.220578
0.032344 0.354375 -0.222416
0.030456 0.353620 -0.224143
0.030055 0.353620 -0.225983
0.028162 0.352863 -0.227715
0.027760 0.352863 -0.229557
0.027359 0.352863 -0.231398
0.025462 0.352105 -0.233137
0.026556 0.352863 -0.235081
0.024658 0.352105 -0.236824
0.024256 0.352105 -0.238667
0.023854 0.352105 -0.240511
0.023453 0.352105 -0.242354
0.023051 0.352105 -0.244198
0.021147 0.351346 -0.245951
0.020745 0.351346 -0.247796
0.020343 0.351346 -0.249642
0.019941 0.351346 -0.251487
0.019539 0.351346 -0.253332
0.019137 0.351346 -0.255177
0.017227 0.350585 -0.256943
0.016825 0.350585 -0.258790
0.016422 0.350585 -0.260637
0.016020 0.350585 -0.262484
0.015617 0.350585 -0.264331
0.015215 0.350585 -0.266178
0.013300 0.349823 -0.267957
0.012897 0.349823 -0.269806
0.012494 0.349823 -0.271655
0.012091 0.349823 -0.273504
0.011688 0.349823 -0.275353
0.009767 0.349059 -0.277142
0.009364 0.349059 -0.278993
0.008961 0.349059 -0.280844
0.008557 0.349059 -0.282694
0.008154 0.349059 -0.284545
0.006228 0.348293 -0.286345
0.005824 0.348293 -0.288198
0.005420 0.348293 -0.290050
0.005017 0.348293 -0.291903
0.004613 0.348293 -0.293755
0.004209 0.348293 -0.295608
0.002278 0.347526 -0.297421
0.001873 0.347526 -0.299276
0.001469 0.347526 -0.301130
0.001065 0.347526 -0.302984
0.000661 0.347526 -0.304839
0.000257 0.347526 -0.306693
-0.001681 0.346758 -0.308519
-0.002085 0.346758 -0.310375
-0.000956 0.347526 -0.312256
-0.001360 0.347526 -0.314111
-0.001764 0.347526 -0.315965
-0.003704 0.346758 -0.317800
-0.004108 0.346758 -0.319656
-0.004513 0.346758 -0.321513
-0.004917 0.346758 -0.323369
-0.008405 0.345216 -0.325201
-0.008810 0.345216 -0.327061
-0.009216 0.345216 -0.328921
-0.011168 0.344443 -0.330775
-0.011574 0.344443 -0.332636
-0.011980 0.344443 -0.334498
-0.012386 0.344443 -0.336360
-0.014343 0.343669 -0.338223
-0.014750 0.343669 -0.340086
-0.013603 0.344443 -0.341945
-0.015562 0.343669 -0.343814
-0.015968 0.343669 -0.345677
-0.016374 0.343669 -0.347541
-0.018338 0.342893 -0.349417
-0.020306 0.342115 -0.351296
-0.020713 0.342115 -0.353163
-0.022685 0.341336 -0.355049
-0.024661 0.340555 -0.356938
-0.025068 0.340555 -0.358809
-0.027049 0.339772 -0.360703
-0.027457 0.339772 -0.362576
-0.029442 0.338988 -0.364477
-0.031430 0.338203 -0.366381
-0.031839 0.338203 -0.368257
-0.033832 0.337416 -0.370167
-0.034242 0.337416 -0.372046
-0.034651 0.337416 -0.373924
-0.031893 0.338988 -0.375726
-0.029146 0.340555 -0.377520
-0.027981 0.341336 -0.379348
-0.025250 0.342893 -0.381130
-0.024092 0.343669 -0.382950
-0.022936 0.344443 -0.384766
-0.021782 0.345216 -0.386578
-0.019077 0.346758 -0.388337
-0.016383 0.348293 -0.390088
-0.015241 0.349059 -0.391886
-0.014102 0.349823 -0.393681
-0.012965 0.350585 -0.395472
-0.011831 0.351346 -0.397260
-0.010698 0.352105 -0.399044
-0.008039 0.353620 -0.400762
-0.008440 0.353620 -0.402602
-0.007314 0.354375 -0.404375
-0.007715 0.354375 -0.406213
-0.006591 0.355128 -0.407982
-0.005469 0.355880 -0.409747
-0.005869 0.355880 -0.411581
-0.003232 0.357379 -0.413266
-0.003631 0.357379 -0.415097
-0.004030 0.357379 -0.416928
-0.004429 0.357379 -0.418758
-0.004828 0.357379 -0.420589
-0.005227 0.357379 -0.422420
-0.005626 0.357379 -0.424251
-0.006025 0.357379 -0.426081
-0.004907 0.358127 -0.427823
-0.005306 0.358127 -0.429652
-0.005705 0.358127 -0.431481
-0.006103 0.358127 -0.433310
-0.008020 0.357379 -0.435235
-0.008419 0.357379 -0.437066
-0.010341 0.356630 -0.438996
-0.012266 0.355880 -0.440931
-0.014195 0.355128 -0.442869
-0.016127 0.354375 -0.444811
-0.018063 0.353620 -0.446756
-0.023091 0.351346 -0.448926
-0.028149 0.349059 -0.451109
-0.033237 0.346758 -0.453304
-0.039933 0.343669 -0.455631
-0.046682 0.340555 -0.457976
-0.051882 0.338203 -0.460217
-0.057113 0.335837 -0.462471
-0.062376 0.333456 -0.464739
-0.069306 0.330260 -0.467152
-0.074644 0.327846 -0.469450
-0.080014 0.325416 -0.471762
-0.092115 0.319690 -0.474651
-0.130390 0.301144 -0.479797
-0.149869 0.227096 0.089093
-0.140698 0.232183 0.084542
-0.129737 0.238212 0.079571
-0.120793 0.243173 0.075129
-0.115656 0.246124 0.071651
-0.110555 0.249054 0.068196
-0.103654 0.252931 0.064317
-0.100453 0.254857 0.061354
-0.097266 0.256774 0.058405
-0.095902 0.257729 0.055902
-0.090933 0.260583 0.052545
-0.089583 0.261530 0.050060
-0.086444 0.263417 0.047158
-0.085103 0.264358 0.044687
-0.081984 0.266233 0.041806
-0.077109 0.269031 0.038528
-0.074025 0.270886 0.035676
-0.070954 0.272733 0.032837
-0.069644 0.273653 0.030408
-0.066593 0.275488 0.027590
-0.063554 0.277315 0.024783
-0.060529 0.279134 0.021989
-0.057517 0.280946 0.019207
-0.054517 0.282749 0.016436
-0.051531 0.284545 0.013678
-0.050260 0.285440 0.011303
-0.047292 0.287224 0.008565
-0.046031 0.288113 0.006203
-0.043081 0.289886 0.003484
-0.040144 0.291652 0.000776
-0.038896 0.292531 -0.001564
-0.035978 0.294286 -0.004253
-0.033071 0.296032 -0.006929
-0.031838 0.296903 -0.009250
-0.028949 0.298639 -0.011908
-0.026073 0.300367 -0.014554
-0.024853 0.301229 -0.016854
-0.023636 0.302088 -0.019150
-0.020783 0.303802 -0.021770
-0.019573 0.304657 -0.024053
-0.016738 0.306360 -0.026655
-0.015536 0.307209 -0.028926
-0.014337 0.308056 -0.031192
-0.011524 0.309745 -0.033768
-0.010333 0.310587 -0.036022
-0.009145 0.311427 -0.038271
-0.006354 0.313103 -0.040822
-0.005174 0.313938 -0.043059
-0.002400 0.315602 -0.045593
-0.001227 0.316432 -0.047818
-0.000056 0.317260 -0.050039
0.002696 0.318912 -0.052548
0.003858 0.319735 -0.054757
0.005019 0.320556 -0.056961
0.007749 0.322194 -0.059446
0.008902 0.323010 -0.061639
0.011616 0.324638 -0.064106
0.012762 0.325449 -0.066287
0.013905 0.326259 -0.068465
0.016598 0.327873 -0.070908
0.017734 0.328678 -0.073074
0.018867 0.329481 -0.075235
0.021539 0.331082 -0.077655
0.024201 0.332677 -0.080065
0.025322 0.333472 -0.082208
0.026441 0.334266 -0.084348
0.027558 0.335058 -0.086482
0.028672 0.335848 -0.088613
0.029784 0.336637 -0.090739
0.032410 0.338209 -0.093106
0.033516 0.338993 -0.095222
0.034618 0.339776 -0.097333
0.035719 0.340556 -0.099440
0.036818 0.341336 -0.101542
0.036411 0.341336 -0.103408
0.037508 0.342113 -0.105505
0.038603 0.342890 -0.107597
0.039695 0.343664 -0.109686
0.042278 0.345209 -0.111994
0.041873 0.345209 -0.113850
0.042959 0.345979 -0.115926
0.044043 0.346747 -0.117998
0.043639 0.346747 -0.119850
0.044721 0.347514 -0.121916
0.045801 0.348280 -0.123978
0.046879 0.349044 -0.126036
0.046476 0.349044 -0.127883
0.047552 0.349806 -0.129935
0.047150 0.349806 -0.131780
0.048224 0.350567 -0.133826
0.047823 0.350567 -0.135669
0.047421 0.350567 -0.137513
0.048494 0.351326 -0.139551
0.049565 0.352084 -0.141585
0.050634 0.352841 -0.143615
0.050233 0.352841 -0.145453
0.049832 0.352841 -0.147291
0.050900 0.353596 -0.149314
0.050500 0.353596 -0.151150
0.050099 0.353596 -0.152986
0.049699 0.353596 -0.154823
0.050766 0.354349 -0.156836
0.050366 0.354349 -0.158670
0.049966 0.354349 -0.160505
0.049566 0.354349 -0.162339
0.049166 0.354349 -0.164173
0.050232 0.355101 -0.166176
0.049833 0.355101 -0.168008
0.049434 0.355101 -0.169841
0.049034 0.355101 -0.171673
0.048635 0.355101 -0.173506
0.048235 0.355101 -0.175338
0.047836 0.355101 -0.177171
0.048902 0.355852 -0.179158
0.048503 0.355852 -0.180989
0.048104 0.355852 -0.182820
0.047705 0.355852 -0.184651
0.047306 0.355852 -0.186482
0.046907 0.355852 -0.188312
0.046508 0.355852 -0.190143
0.046109 0.355852 -0.191974
0.045710 0.355852 -0.193805
0.045311 0.355852 -0.195635
0.044912 0.355852 -0.197466
0.044513 0.355852 -0.199297
0.042644 0.355101 -0.200994
0.042244 0.355101 -0.202827
0.041845 0.355101 -0.204659
0.041445 0.355101 -0.206492
0.039571 0.354349 -0.208198
0.039171 0.354349 -0.210032
0.038772 0.354349 -0.211867
0.036893 0.353596 -0.213580
0.036493 0.353596 -0.215416
0.036092 0.353596 -0.217252
0.034209 0.352841 -0.218972
0.033809 0.352841 -0.220810
0.033408 0.352841 -0.222648
0.031521 0.352084 -0.224375
0.031120 0.352084 -0.226215
0.030719 0.352084 -0.228055
0.028826 0.351326 -0.229789
0.028425 0.351326 -0.231630
0.028024 0.351326 -0.233472
0.027622 0.351326 -0.235314
0.027221 0.351326 -0.237155
0.025323 0.350567 -0.238900
0.024922 0.350567 -0.240743
0.024520 0.350567 -0.242587
0.024118 0.350567 -0.244430
0.023716 0.350567 -0.246274
0.023314 0.350567 -0.248117
0.022913 0.350567 -0.249960
0.022511 0.350567 -0.251804
0.020607 0.349806 -0.253565
0.020205 0.349806 -0.255410
0.019803 0.349806 -0.257255
0.019400 0.349806 -0.259100
0.018998 0.349806 -0.260946
0.017089 0.349044 -0.262717
0.016686 0.349044 -0.264564
0.016284 0.349044 -0.266411
0.015881 0.349044 -0.268259
0.015479 0.349044 -0.270106
0.015076 0.349044 -0.271953
0.013161 0.348280 -0.273737
0.012758 0.348280 -0.275586
0.012355 0.348280 -0.277435
0.011952 0.348280 -0.279284
0.011549 0.348280 -0.281133
0.009628 0.347514 -0.282928
0.009225 0.347514 -0.284778
0.008822 0.347514 -0.286629
0.008418 0.347514 -0.288480
0.008015 0.347514 -0.290331
0.007612 0.347514 -0.292181
0.005685 0.346747 -0.293989
0.005282 0.346747 -0.295842
0.004878 0.346747 -0.297694
0.004474 0.346747 -0.299547
0.004070 0.346747 -0.301399
0.003666 0.346747 -0.303252
0.001734 0.345979 -0.305073
0.001330 0.345979 -0.306927
0.000926 0.345979 -0.308781
0.000522 0.345979 -0.310636
0.000118 0.345979 -0.312490
-0.000287 0.345979 -0.314345
-0.000691 0.345979 -0.316199
-0.001095 0.345979 -0.318053
-0.001499 0.345979 -0.319908
-0.001903 0.345979 -0.321762
-0.003843 0.345209 -0.323603
-0.004247 0.345209 -0.325459
-0.004652 0.345209 -0.327315
-0.008139 0.343664 -0.329156
-0.008544 0.343664 -0.331016
-0.008950 0.343664 -0.332875
-0.009355 0.343664 -0.334735
-0.011308 0.342890 -0.336595
-0.011714 0.342890 -0.338456
-0.012119 0.342890 -0.340318
-0.012525 0.342890 -0.342180
-0.012931 0.342890 -0.344042
-0.013337 0.342890 -0.345904
-0.013743 0.342890 -0.347765
-0.015702 0.342113 -0.349640
-0.017665 0.341336 -0.351517
-0.019632 0.340556 -0.353399
-0.020039 0.340556 -0.355266
-0.022010 0.339776 -0.357154
-0.022417 0.339776 -0.359023
-0.024393 0.338993 -0.360916
-0.026373 0.338209 -0.362813
-0.026781 0.338209 -0.364686
-0.028765 0.337424 -0.366588
-0.029174 0.337424 -0.368463
-0.029582 0.337424 -0.370338
-0.031571 0.336637 -0.372248
-0.031980 0.336637 -0.374124
-0.029230 0.338209 -0.375923
-0.026491 0.339776 -0.377715
-0.025330 0.340556 -0.379542
-0.022607 0.342113 -0.381321
-0.021452 0.342890 -0.383139
-0.020300 0.343664 -0.384953
-0.016049 0.345979 -0.386665
-0.014907 0.346747 -0.388469
-0.013767 0.347514 -0.390269
-0.012629 0.348280 -0.392065
-0.011494 0.349044 -0.393858
-0.010360 0.349806 -0.395647
-0.009229 0.350567 -0.397433
-0.006573 0.352084 -0.399154
-0.005449 0.352841 -0.400931
-0.004327 0.353596 -0.402705
-0.004728 0.353596 -0.404541
-0.003608 0.354349 -0.406309
-0.002490 0.355101 -0.408074
-0.002889 0.355101 -0.409907
-0.001773 0.355852 -0.411666
-0.002172 0.355852 -0.413497
0.000452 0.357348 -0.415175
0.000054 0.357348 -0.417002
-0.000344 0.357348 -0.418829
-0.000743 0.357348 -0.420657
-0.001141 0.357348 -0.422484
-0.001539 0.357348 -0.424311
-0.001937 0.357348 -0.426138
-0.002336 0.357348 -0.427965
-0.002734 0.357348 -0.429792
-0.001621 0.358094 -0.431527
-0.002019 0.358094 -0.433353
-0.002417 0.358094 -0.435178
-0.002815 0.358094 -0.437004
-0.004725 0.357348 -0.438928
-0.006639 0.356601 -0.440857
-0.007038 0.356601 -0.442686
-0.008956 0.355852 -0.444620
-0.010877 0.355101 -0.446558
-0.012803 0.354349 -0.448500
-0.017800 0.352084 -0.450668
-0.022828 0.349806 -0.452849
-0.027885 0.347514 -0.455044
-0.032972 0.345209 -0.457251
-0.041247 0.341336 -0.459716
-0.046415 0.338993 -0.461955
-0.051614 0.336637 -0.464207
-0.056844 0.334266 -0.466473
-0.063730 0.331082 -0.468886
-0.069035 0.328678 -0.471183
-0.074372 0.326259 -0.473493
-0.108403 0.309745 -0.478265
-0.150103 0.224285 0.091453
-0.139003 0.230409 0.086400
-0.129946 0.235448 0.081890
-0.120990 0.240431 0.077430
-0.110284 0.246337 0.072562
-0.105211 0.249260 0.069112
-0.100172 0.252164 0.065684
-0.096982 0.254089 0.062722
-0.095618 0.255048 0.060212
-0.092448 0.256961 0.057271
-0.089293 0.258865 0.054344
-0.087944 0.259813 0.051857
-0.084809 0.261705 0.048951
-0.081688 0.263588 0.046058
-0.078580 0.265463 0.043177
-0.073721 0.268260 0.039898
-0.072404 0.269188 0.037454
-0.069337 0.271039 0.034611
-0.066283 0.272882 0.031780
-0.063242 0.274716 0.028961
-0.060214 0.276543 0.026155
-0.057199 0.278362 0.023361
-0.055915 0.279268 0.020963
-0.052919 0.281075 0.018189
-0.049936 0.282875 0.015427
-0.048667 0.283771 0.013050
-0.045703 0.285559 0.010308
-0.044443 0.286450 0.007945
-0.041497 0.288227 0.005222
-0.040245 0.289112 0.002871
-0.037317 0.290877 0.000168
-0.034402 0.292635 -0.002524
-0.033164 0.293511 -0.004854
-0.030267 0.295257 -0.007527
-0.027381 0.296997 -0.010188
-0.024508 0.298729 -0.012839
-0.023290 0.299592 -0.015140
-0.020435 0.301313 -0.017772
-0.019225 0.302171 -0.020062
-0.018017 0.303027 -0.022346
-0.015184 0.304733 -0.024952
-0.013985 0.305584 -0.027224
-0.011169 0.307280 -0.029812
-0.009978 0.308125 -0.032072
-0.008788 0.308969 -0.034327
-0.005996 0.310651 -0.036889
-0.004814 0.311489 -0.039133
-0.003635 0.312326 -0.041372
-0.000864 0.313994 -0.043909
0.000307 0.314826 -0.046136
0.003061 0.316483 -0.048655
0.004225 0.317310 -0.050871
0.005386 0.318135 -0.053082
0.008118 0.319779 -0.055576
0.009272 0.320599 -0.057776
0.010424 0.321416 -0.059970
0.013135 0.323047 -0.062441
0.014279 0.323860 -0.064624
0.016974 0.325481 -0.067078
0.018110 0.326289 -0.069250
0.019244 0.327096 -0.071417
0.021918 0.328704 -0.073847
0.023045 0.329505 -0.076003
0.024170 0.330305 -0.078155
0.026823 0.331900 -0.080562
0.027941 0.332695 -0.082703
0.029056 0.333488 -0.084839
0.030169 0.334280 -0.086971
0.032797 0.335859 -0.089348
0.033903 0.336646 -0.091469
0.035006 0.337432 -0.093587
0.036108 0.338216 -0.095699
0.037207 0.338998 -0.097808
0.038304 0.339779 -0.099912
0.039399 0.340558 -0.102013
0.038993 0.340558 -0.103876
0.040086 0.341336 -0.105970
0.041177 0.342112 -0.108060
0.040772 0.342112 -0.109920
0.043352 0.343660 -0.112228
0.044437 0.344431 -0.114305
0.045519 0.345201 -0.116379
0.045115 0.345201 -0.118231
0.046196 0.345970 -0.120299
0.047274 0.346737 -0.122362
0.046871 0.346737 -0.124211
0.047948 0.347502 -0.126269
0.049023 0.348266 -0.128322
0.048620 0.348266 -0.130167
0.049693 0.349028 -0.132215
0.049292 0.349028 -0.134058
0.050363 0.349789 -0.136100
0.051432 0.350549 -0.138138
0.051031 0.350549 -0.139977
0.052098 0.351307 -0.142009
0.053163 0.352063 -0.144037
0.052763 0.352063 -0.145873
0.052363 0.352063 -0.147710
0.051963 0.352063 -0.149546
0.053027 0.352818 -0.151564
0.052627 0.352818 -0.153399
0.052227 0.352818 -0.155233
0.051828 0.352818 -0.157067
0.051428 0.352818 -0.158902
0.051028 0.352818 -0.160736
0.052092 0.353572 -0.162742
0.051693 0.353572 -0.164574
0.051293 0.353572 -0.166407
0.050894 0.353572 -0.168239
0.051957 0.354324 -0.170236
0.051558 0.354324 -0.172066
0.049696 0.353572 -0.173737
0.049296 0.353572 -0.175570
0.050361 0.354324 -0.177559
0.049962 0.354324 -0.179389
0.049563 0.354324 -0.181220
0.049164 0.354324 -0.183051
0.048765 0.354324 -0.184882
0.048366 0.354324 -0.186713
0.047967 0.354324 -0.188543
0.047568 0.354324 -0.190374
0.047169 0.354324 -0.192205
0.046770 0.354324 -0.194036
0.046371 0.354324 -0.195866
0.045972 0.354324 -0.197697
0.044104 0.353572 -0.199393
0.043704 0.353572 -0.201226
0.043305 0.353572 -0.203058
0.041433 0.352818 -0.204761
0.041033 0.352818 -0.206595
0.040633 0.352818 -0.208430
0.040233 0.352818 -0.210264
0.038356 0.352063 -0.211975
0.037956 0.352063 -0.213812
0.037556 0.352063 -0.215648
0.035674 0.351307 -0.217366
0.035273 0.351307 -0.219204
0.034873 0.351307 -0.221042
0.034472 0.351307 -0.222880
0.034071 0.351307 -0.224718
0.033671 0.351307 -0.226556
0.031784 0.350549 -0.228287
0.031383 0.350549 -0.230127
0.030982 0.350549 -0.231966
0.029090 0.349789 -0.233704
0.028688 0.349789 -0.235546
0.028287 0.349789 -0.237388
0.029378 0.350549 -0.239326
0.027484 0.349789 -0.241071
0.027083 0.349789 -0.242912
0.025185 0.349028 -0.244663
0.024783 0.349028 -0.246506
0.024381 0.349028 -0.248350
0.023980 0.349028 -0.250193
0.023578 0.349028 -0.252036
0.023176 0.349028 -0.253880
0.022774 0.349028 -0.255723
0.022373 0.349028 -0.257567
0.021971 0.349028 -0.259410
0.020066 0.348266 -0.261178
0.019664 0.348266 -0.263024
0.019262 0.348266 -0.264869
0.018860 0.348266 -0.266714
0.018458 0.348266 -0.268559
0.018055 0.348266 -0.270405
0.016145 0.347502 -0.272186
0.015743 0.347502 -0.274033
0.015340 0.347502 -0.275880
0.014938 0.347502 -0.277727
0.014535 0.347502 -0.279574
0.014132 0.347502 -0.281421
0.012216 0.346737 -0.283215
0.011813 0.346737 -0.285064
0.011410 0.346737 -0.286912
0.011007 0.346737 -0.288761
0.010604 0.346737 -0.290610
0.008683 0.345970 -0.292415
0.008280 0.345970 -0.294265
0.007876 0.345970 -0.296116
0.007473 0.345970 -0.297967
0.007069 0.345970 -0.299818
0.006666 0.345970 -0.301668
0.004739 0.345201 -0.303486
0.004335 0.345201 -0.305338
0.003931 0.345201 -0.307191
0.003528 0.345201 -0.309043
0.003124 0.345201 -0.310896
0.001191 0.344431 -0.312724
0.000787 0.344431 -0.314578
0.000383 0.344431 -0.316433
-0.000021 0.344431 -0.318287
-0.000426 0.344431 -0.320142
-0.000830 0.344431 -0.321996
-0.002768 0.343660 -0.323837
-0.003173 0.343660 -0.325693
-0.003578 0.343660 -0.327550
-0.003982 0.343660 -0.329406
-0.004387 0.343660 -0.331262
-0.007873 0.342112 -0.333110
-0.008278 0.342112 -0.334970
-0.008684 0.342112 -0.336830
-0.009089 0.342112 -0.338690
-0.009495 0.342112 -0.340550
-0.009900 0.342112 -0.342410
-0.010305 0.342112 -0.344270
-0.010711 0.342112 -0.346130
-0.012665 0.341336 -0.348000
-0.013071 0.341336 -0.349862
-0.013476 0.341336 -0.351724
-0.015435 0.340558 -0.353602
-0.017398 0.339779 -0.355484
-0.017805 0.339779 -0.357349
-0.019772 0.338998 -0.359237
-0.020179 0.338998 -0.361104
-0.022150 0.338216 -0.362997
-0.024126 0.337432 -0.364894
-0.024533 0.337432 -0.366765
-0.026513 0.336646 -0.368668
-0.028497 0.335859 -0.370574
-0.028906 0.335859 -0.372449
-0.029314 0.335859 -0.374324
-0.026573 0.337432 -0.376121
-0.023842 0.338998 -0.377910
-0.022684 0.339779 -0.379735
-0.019969 0.341336 -0.381512
-0.018818 0.342112 -0.383328
-0.014571 0.344431 -0.385045
-0.013431 0.345201 -0.386850
-0.012292 0.345970 -0.388652
-0.011156 0.346737 -0.390450
-0.010022 0.347502 -0.392244
-0.008890 0.348266 -0.394035
-0.007760 0.349028 -0.395822
-0.006633 0.349789 -0.397606
-0.003985 0.351307 -0.399325
-0.002864 0.352063 -0.401100
-0.001746 0.352818 -0.402872
0.000883 0.354324 -0.404574
0.000484 0.354324 -0.406405
0.001595 0.355074 -0.408166
0.002704 0.355823 -0.409924
0.002306 0.355823 -0.411751
0.003414 0.356571 -0.413504
0.004519 0.357317 -0.415253
0.002618 0.356571 -0.417155
0.002220 0.356571 -0.418980
0.003327 0.357317 -0.420724
0.002929 0.357317 -0.422547
0.002532 0.357317 -0.424371
0.002134 0.357317 -0.426195
0.001737 0.357317 -0.428018
0.002843 0.358062 -0.429752
0.002446 0.358062 -0.431573
0.002049 0.358062 -0.433395
0.001652 0.358062 -0.435217
0.002757 0.358805 -0.436942
0.000858 0.358062 -0.438861
-0.001045 0.357317 -0.440784
-0.002952 0.356571 -0.442710
-0.003350 0.356571 -0.444536
-0.005260 0.355823 -0.446468
-0.007175 0.355074 -0.448404
-0.009093 0.354324 -0.450343
-0.012541 0.352818 -0.452400
-0.019076 0.349789 -0.454695
-0.024112 0.347502 -0.456891
-0.029177 0.345201 -0.459099
-0.035844 0.342112 -0.461444
-0.042563 0.338998 -0.463808
-0.047741 0.336646 -0.466062
-0.052949 0.334280 -0.468329
-0.058189 0.331900 -0.470610
-0.063460 0.329505 -0.472905
-0.088632 0.317310 -0.476914
-0.148397 0.222498 0.093324
-0.137309 0.228634 0.088258
-0.128261 0.233683 0.083738
-0.119314 0.238676 0.079268
-0.108620 0.244593 0.074387
-0.101720 0.248495 0.070477
-0.098519 0.250432 0.067497
-0.095333 0.252361 0.064531
-0.092161 0.254282 0.061578
-0.089002 0.256194 0.058637
-0.087652 0.257147 0.056143
-0.084514 0.259046 0.053224
-0.083174 0.259993 0.050744
-0.080056 0.261879 0.047847
-0.076952 0.263758 0.044962
-0.072099 0.266561 0.041677
-0.069029 0.268419 0.038822
-0.065972 0.270269 0.035979
-0.062928 0.272112 0.033148
-0.059898 0.273946 0.030330
-0.058607 0.274860 0.027917
-0.055596 0.276682 0.025119
-0.052597 0.278497 0.022333
-0.051321 0.279401 0.019941
-0.048342 0.281204 0.017175
-0.045375 0.283000 0.014421
-0.044113 0.283894 0.012051
-0.041165 0.285678 0.009316
-0.039912 0.286567 0.006959
-0.036982 0.288340 0.004244
-0.035738 0.289223 0.001900
-0.032826 0.290984 -0.000796
-0.029926 0.292738 -0.003480
-0.028696 0.293612 -0.005804
-0.024163 0.296223 -0.008815
-0.022944 0.297090 -0.011123
-0.021727 0.297955 -0.013426
-0.018875 0.299679 -0.016062
-0.017667 0.300539 -0.018353
-0.016461 0.301397 -0.020639
-0.013631 0.303107 -0.023249
-0.012433 0.303959 -0.025523
-0.009621 0.305658 -0.028114
-0.008431 0.306505 -0.030376
-0.007243 0.307351 -0.032633
-0.004454 0.309036 -0.035199
-0.003274 0.309876 -0.037444
-0.002096 0.310714 -0.039685
0.000671 0.312386 -0.042225
0.001841 0.313219 -0.044454
0.004592 0.314880 -0.046977
0.005754 0.315708 -0.049194
0.006914 0.316535 -0.051406
0.009643 0.318182 -0.053904
0.010795 0.319003 -0.056105
0.011945 0.319823 -0.058302
0.014653 0.321457 -0.060776
0.015795 0.322272 -0.062961
0.018487 0.323896 -0.065418
0.019622 0.324706 -0.067591
0.020755 0.325514 -0.069761
0.023426 0.327125 -0.072194
0.024551 0.327928 -0.074352
0.025674 0.328729 -0.076505
0.028325 0.330327 -0.078915
0.029441 0.331124 -0.081058
0.030554 0.331919 -0.083196
0.031666 0.332712 -0.085330
0.034291 0.334294 -0.087710
0.035395 0.335083 -0.089833
0.036497 0.335870 -0.091951
0.037597 0.336656 -0.094066
0.038695 0.337440 -0.096176
0.039791 0.338222 -0.098282
0.040884 0.339003 -0.100384
0.041975 0.339782 -0.102482
0.041570 0.339782 -0.104343
0.042659 0.340560 -0.106435
0.045236 0.342110 -0.108750
0.044831 0.342110 -0.110606
0.045914 0.342884 -0.112685
0.046995 0.343655 -0.114760
0.046592 0.343655 -0.116613
0.047671 0.344425 -0.118682
0.048748 0.345194 -0.120747
0.048345 0.345194 -0.122596
0.049420 0.345961 -0.124655
0.050493 0.346726 -0.126710
0.050091 0.346726 -0.128555
0.051162 0.347490 -0.130604
0.052231 0.348252 -0.132649
0.051830 0.348252 -0.134491
0.052898 0.349013 -0.136530
0.053963 0.349773 -0.138565
0.053563 0.349773 -0.140403
0.054626 0.350531 -0.142433
0.054226 0.350531 -0.144269
0.055288 0.351287 -0.146293
0.053426 0.350531 -0.147941
0.054489 0.351287 -0.149961
0.054089 0.351287 -0.151796
0.053689 0.351287 -0.153630
0.053289 0.351287 -0.155464
0.054351 0.352042 -0.157475
0.053952 0.352042 -0.159308
0.053552 0.352042 -0.161140
0.053153 0.352042 -0.162973
0.052753 0.352042 -0.164805
0.053815 0.352796 -0.166805
0.053416 0.352796 -0.168636
0.053017 0.352796 -0.170467
0.051156 0.352042 -0.172136
0.052219 0.352796 -0.174128
0.051820 0.352796 -0.175959
0.051421 0.352796 -0.177790
0.051022 0.352796 -0.179620
0.050623 0.352796 -0.181451
0.050224 0.352796 -0.183282
0.051287 0.353548 -0.185262
0.050888 0.353548 -0.187091
0.050489 0.353548 -0.188919
0.050091 0.353548 -0.190748
0.049692 0.353548 -0.192577
0.049293 0.353548 -0.194406
0.047431 0.352796 -0.196097
0.047032 0.352796 -0.197928
0.046633 0.352796 -0.199759
0.044765 0.352042 -0.201457
0.044366 0.352042 -0.203289
0.043966 0.352042 -0.205122
0.043567 0.352042 -0.206954
0.041695 0.351287 -0.208661
0.041295 0.351287 -0.210495
0.040895 0.351287 -0.212330
0.039019 0.350531 -0.214043
0.038618 0.350531 -0.215879
0.038218 0.350531 -0.217716
0.036337 0.349773 -0.219436
0.035937 0.349773 -0.221274
0.035536 0.349773 -0.223112
0.035135 0.349773 -0.224950
0.034735 0.349773 -0.226788
0.034334 0.349773 -0.228626
0.032448 0.349013 -0.230359
0.032047 0.349013 -0.232199
0.030156 0.348252 -0.233937
0.031245 0.349013 -0.235878
0.030844 0.349013 -0.237718
0.030443 0.349013 -0.239558
0.030042 0.349013 -0.241397
0.028149 0.348252 -0.243145
0.027747 0.348252 -0.244986
0.027346 0.348252 -0.246828
0.026945 0.348252 -0.248669
0.026543 0.348252 -0.250511
0.024645 0.347490 -0.252269
0.024243 0.347490 -0.254112
0.025339 0.348252 -0.256036
0.023440 0.347490 -0.257799
0.023038 0.347490 -0.259643
0.022636 0.347490 -0.261486
0.022234 0.347490 -0.263329
0.021833 0.347490 -0.265173
0.019928 0.346726 -0.266947
0.019526 0.346726 -0.268792
0.019124 0.346726 -0.270637
0.018721 0.346726 -0.272483
0.018319 0.346726 -0.274328
0.017917 0.346726 -0.276173
0.016007 0.345961 -0.277960
0.015604 0.345961 -0.279807
0.015202 0.345961 -0.281654
0.014799 0.345961 -0.283501
0.014396 0.345961 -0.285348
0.012481 0.345194 -0.287146
0.012078 0.345194 -0.288995
0.011675 0.345194 -0.290843
0.011272 0.345194 -0.292692
0.010869 0.345194 -0.294541
0.010466 0.345194 -0.296390
0.008544 0.344425 -0.298200
0.008141 0.344425 -0.300051
0.007737 0.344425 -0.301902
0.007334 0.344425 -0.303752
0.006931 0.344425 -0.305603
0.006527 0.344425 -0.307454
0.004600 0.343655 -0.309277
0.004196 0.343655 -0.311130
0.003792 0.343655 -0.312982
0.003389 0.343655 -0.314835
0.001456 0.342884 -0.316667
0.001052 0.342884 -0.318521
0.000648 0.342884 -0.320376
0.000244 0.342884 -0.322230
-0.000161 0.342884 -0.324084
-0.000565 0.342884 -0.325939
-0.000969 0.342884 -0.327793
-0.002908 0.342110 -0.329640
-0.003312 0.342110 -0.331496
-0.003717 0.342110 -0.333352
-0.004121 0.342110 -0.335209
-0.004526 0.342110 -0.337065
-0.008013 0.340560 -0.338925
-0.008418 0.340560 -0.340784
-0.005740 0.342110 -0.342634
-0.009229 0.340560 -0.344504
-0.009634 0.340560 -0.346364
-0.010039 0.340560 -0.348224
-0.010445 0.340560 -0.350084
-0.010850 0.340560 -0.351944
-0.012805 0.339782 -0.353820
-0.014763 0.339003 -0.355701
-0.015169 0.339003 -0.357564
-0.017131 0.338222 -0.359450
-0.017538 0.338222 -0.361316
-0.019505 0.337440 -0.363207
-0.021476 0.336656 -0.365102
-0.021883 0.336656 -0.366971
-0.025429 0.335083 -0.368904
-0.025837 0.335083 -0.370777
-0.026246 0.335083 -0.372650
-0.025082 0.335870 -0.374486
-0.023920 0.336656 -0.376318
-0.021197 0.338222 -0.378105
-0.020043 0.339003 -0.379928
-0.017336 0.340560 -0.381703
-0.013094 0.342884 -0.383425
-0.011955 0.343655 -0.385231
-0.010817 0.344425 -0.387034
-0.009683 0.345194 -0.388834
-0.008550 0.345961 -0.390630
-0.007420 0.346726 -0.392422
-0.006292 0.347490 -0.394211
-0.005166 0.348252 -0.395997
-0.002520 0.349773 -0.397719
-0.001401 0.350531 -0.399496
-0.000284 0.351287 -0.401269
0.002341 0.352796 -0.402974
0.003451 0.353548 -0.404739
0.004559 0.354298 -0.406500
0.004160 0.354298 -0.408327
0.005266 0.355047 -0.410083
0.006370 0.355795 -0.411836
0.005972 0.355795 -0.413659
0.007074 0.356541 -0.415407
0.008174 0.357286 -0.417151
0.006280 0.356541 -0.419050
0.005883 0.356541 -0.420872
0.006984 0.357286 -0.422611
0.006587 0.357286 -0.424431
0.006190 0.357286 -0.426251
0.005794 0.357286 -0.428071
0.006894 0.358029 -0.429801
0.006497 0.358029 -0.431619
0.006101 0.358029 -0.433438
0.005705 0.358029 -0.435256
0.005308 0.358029 -0.437074
0.006408 0.358771 -0.438794
0.004516 0.358029 -0.440711
0.002620 0.357286 -0.442632
0.002224 0.357286 -0.444452
0.000324 0.356541 -0.446378
-0.001580 0.355795 -0.448308
-0.003487 0.355047 -0.450242
-0.005397 0.354298 -0.452180
-0.007312 0.353548 -0.454121
-0.013807 0.350531 -0.456417
-0.018813 0.348252 -0.458611
-0.023848 0.345961 -0.460818
-0.028913 0.343655 -0.463038
-0.037151 0.339782 -0.465527
-0.042296 0.337440 -0.467779
-0.047473 0.335083 -0.470044
-0.052680 0.332712 -0.472323
-0.070942 0.323896 -0.475733
-0.106579 0.306505 -0.480696
-0.146691 0.220711 0.095195
-0.137527 0.225840 0.090603
-0.126576 0.231919 0.085585
-0.117639 0.236921 0.081105
-0.108802 0.241868 0.076675
-0.100063 0.246759 0.072294
-0.096866 0.248701 0.069310
-0.091872 0.251597 0.065893
-0.090515 0.252558 0.063382
-0.087360 0.254474 0.060438
-0.084219 0.256381 0.057507
-0.081092 0.258280 0.054589
-0.079757 0.259226 0.052110
-0.076650 0.261113 0.049213
-0.071793 0.263927 0.045910
-0.070476 0.264861 0.043457
-0.067410 0.266723 0.040597
-0.064356 0.268577 0.037750
-0.061316 0.270423 0.034916
-0.058289 0.272261 0.032094
-0.055275 0.274091 0.029284
-0.053992 0.275003 0.026877
-0.050997 0.276821 0.024087
-0.048015 0.278632 0.021309
-0.046747 0.279534 0.018924
-0.043784 0.281333 0.016166
-0.040833 0.283124 0.013420
-0.039579 0.284017 0.011056
-0.036646 0.285796 0.008329
