ply
format ascii 1.0
element vertex 1622
property float x
property float y
property float z
end_header
-0.257912 -0.150949 -0.355647
-0.259772 -0.149648 -0.351480
-0.261592 -0.148777 -0.348625
-0.263418 -0.147902 -0.345760
-0.265305 -0.146585 -0.341539
-0.267146 -0.145703 -0.338648
-0.269110 -0.143928 -0.333029
-0.270968 -0.143036 -0.330107
-0.272895 -0.141692 -0.325800
-0.274769 -0.140791 -0.322851
-0.276715 -0.139435 -0.318505
-0.278605 -0.138526 -0.315529
-0.280571 -0.137157 -0.311142
-0.282476 -0.136240 -0.308138
-0.284462 -0.134858 -0.303710
-0.286383 -0.133932 -0.300678
-0.288390 -0.132537 -0.296209
-0.290327 -0.131603 -0.293149
-0.292354 -0.130195 -0.288638
-0.294393 -0.128779 -0.284101
-0.296356 -0.127830 -0.280994
-0.298416 -0.126401 -0.276414
-0.300396 -0.125443 -0.273279
-0.302477 -0.124000 -0.268655
-0.304475 -0.123034 -0.265490
-0.306577 -0.121577 -0.260821
-0.308692 -0.120111 -0.256126
-0.310818 -0.118638 -0.251404
-0.313061 -0.116659 -0.245134
-0.316074 -0.111140 -0.228003
-0.318260 -0.109614 -0.223115
-0.320345 -0.108591 -0.219771
-0.322439 -0.107565 -0.216413
-0.324659 -0.106018 -0.211457
-0.326771 -0.104981 -0.208066
-0.329015 -0.103419 -0.203061
-0.331147 -0.102372 -0.199637
-0.333542 -0.100266 -0.192961
-0.335696 -0.099207 -0.189496
-0.337991 -0.097610 -0.184379
-0.340164 -0.096540 -0.180880
-0.342484 -0.094927 -0.175712
-0.344818 -0.093304 -0.170513
-0.348618 -0.086156 -0.148343
0.395029 -0.061206 -0.149506
0.387268 -0.066655 -0.165274
0.382128 -0.069638 -0.173804
0.378268 -0.071413 -0.178789
0.375042 -0.072590 -0.182020
0.371829 -0.073762 -0.185237
0.368030 -0.075510 -0.190149
0.364849 -0.076670 -0.193333
0.361091 -0.078401 -0.198194
0.357941 -0.079548 -0.201345
0.355385 -0.080120 -0.202804
0.352256 -0.081261 -0.205935
0.349714 -0.081829 -0.207385
0.346606 -0.082963 -0.210496
0.344078 -0.083528 -0.211937
0.340992 -0.084654 -0.215030
0.338477 -0.085216 -0.216462
0.335967 -0.085776 -0.217891
0.333462 -0.086335 -0.219316
0.330413 -0.087450 -0.222378
0.327922 -0.088006 -0.223795
0.325435 -0.088561 -0.225209
0.322954 -0.089114 -0.226620
0.320478 -0.089667 -0.228028
0.318540 -0.089667 -0.227811
0.316070 -0.090218 -0.229216
0.313606 -0.090768 -0.230619
0.311672 -0.090768 -0.230401
0.309215 -0.091317 -0.231801
0.306763 -0.091865 -0.233199
0.304315 -0.092412 -0.234593
0.302387 -0.092412 -0.234376
0.299947 -0.092957 -0.235768
0.297511 -0.093502 -0.237157
0.295587 -0.093502 -0.236941
0.293159 -0.094046 -0.238327
0.290735 -0.094588 -0.239711
0.288815 -0.094588 -0.239495
0.286894 -0.094588 -0.239279
0.284479 -0.095129 -0.240660
0.282561 -0.095129 -0.240444
0.280153 -0.095669 -0.241823
0.278237 -0.095669 -0.241607
0.275835 -0.096208 -0.242983
0.273921 -0.096208 -0.242768
0.272006 -0.096208 -0.242553
0.269614 -0.096746 -0.243927
0.267701 -0.096746 -0.243711
0.265315 -0.097283 -0.245083
0.263404 -0.097283 -0.244868
0.261025 -0.097819 -0.246236
0.259117 -0.097819 -0.246022
0.257208 -0.097819 -0.245807
0.254837 -0.098354 -0.247173
0.252930 -0.098354 -0.246959
0.250566 -0.098888 -0.248323
0.248661 -0.098888 -0.248109
0.246304 -0.099420 -0.249470
0.244401 -0.099420 -0.249256
0.242498 -0.099420 -0.249042
0.240149 -0.099952 -0.250401
0.238248 -0.099952 -0.250187
0.236347 -0.099952 -0.249973
0.234007 -0.100483 -0.251330
0.232108 -0.100483 -0.251116
0.230208 -0.100483 -0.250903
0.227877 -0.101012 -0.252257
0.225979 -0.101012 -0.252044
0.224082 -0.101012 -0.251831
0.222185 -0.101012 -0.251617
0.220287 -0.101012 -0.251404
0.217968 -0.101540 -0.252756
0.215653 -0.102068 -0.254106
0.213759 -0.102068 -0.253893
0.211866 -0.102068 -0.253680
0.209972 -0.102068 -0.253467
0.208079 -0.102068 -0.253254
0.206185 -0.102068 -0.253042
0.204292 -0.102068 -0.252829
0.202398 -0.102068 -0.252616
0.141467 -0.179045 -0.480818
0.139555 -0.179429 -0.481777
0.137647 -0.179813 -0.482733
0.135742 -0.180196 -0.483689
0.133554 -0.180960 -0.485776
0.131657 -0.181341 -0.486726
0.129481 -0.182101 -0.488803
0.127592 -0.182480 -0.489748
0.125987 -0.182480 -0.489567
0.124381 -0.182480 -0.489387
0.122498 -0.182859 -0.490331
0.120894 -0.182859 -0.490150
0.119290 -0.182859 -0.489970
0.117686 -0.182859 -0.489790
0.115540 -0.183614 -0.491854
0.113938 -0.183614 -0.491674
0.112337 -0.183614 -0.491494
0.110735 -0.183614 -0.491314
0.109134 -0.183614 -0.491133
0.108060 -0.182859 -0.488707
0.106455 -0.182859 -0.488527
0.104851 -0.182859 -0.488346
0.103247 -0.182859 -0.488166
0.101642 -0.182859 -0.487985
0.100296 -0.182480 -0.486678
0.098690 -0.182480 -0.486497
0.097340 -0.182101 -0.485188
0.095733 -0.182101 -0.485007
0.094126 -0.182101 -0.484826
0.092519 -0.182101 -0.484645
0.090912 -0.182101 -0.484465
0.089554 -0.181721 -0.483152
0.087946 -0.181721 -0.482971
0.086337 -0.181721 -0.482791
0.084729 -0.181721 -0.482610
0.083120 -0.181721 -0.482429
0.081755 -0.181341 -0.481114
0.080145 -0.181341 -0.480932
0.078535 -0.181341 -0.480751
0.076926 -0.181341 -0.480570
0.075316 -0.181341 -0.480389
0.073706 -0.181341 -0.480208
0.072096 -0.181341 -0.480027
0.070720 -0.180960 -0.478709
0.069109 -0.180960 -0.478528
0.067498 -0.180960 -0.478346
0.066117 -0.180578 -0.477025
0.064504 -0.180578 -0.476844
0.062892 -0.180578 -0.476663
0.061506 -0.180196 -0.475339
0.059892 -0.180196 -0.475158
0.058278 -0.180196 -0.474976
0.056664 -0.180196 -0.474795
0.055271 -0.179813 -0.473468
0.053656 -0.179813 -0.473287
0.052041 -0.179813 -0.473105
0.050426 -0.179813 -0.472923
0.049026 -0.179429 -0.471594
0.047410 -0.179429 -0.471413
0.045793 -0.179429 -0.471231
0.044177 -0.179429 -0.471049
0.042771 -0.179045 -0.469717
0.041153 -0.179045 -0.469535
0.039535 -0.179045 -0.469353
0.037917 -0.179045 -0.469171
0.036505 -0.178660 -0.467837
0.034885 -0.178660 -0.467655
0.033266 -0.178660 -0.467473
0.031647 -0.178660 -0.467291
0.030228 -0.178274 -0.465953
0.028607 -0.178274 -0.465771
0.026986 -0.178274 -0.465589
0.025366 -0.178274 -0.465407
0.023940 -0.177888 -0.464067
0.022318 -0.177888 -0.463884
0.020696 -0.177888 -0.463702
0.019074 -0.177888 -0.463519
0.017642 -0.177501 -0.462177
0.016018 -0.177501 -0.461994
0.014395 -0.177501 -0.461812
0.012771 -0.177501 -0.461629
0.011333 -0.177113 -0.460284
0.009708 -0.177113 -0.460101
0.008083 -0.177113 -0.459918
0.006458 -0.177113 -0.459735
0.005013 -0.176725 -0.458387
0.003387 -0.176725 -0.458204
0.001760 -0.176725 -0.458021
0.000134 -0.176725 -0.457838
-0.001318 -0.176336 -0.456487
-0.002946 -0.176336 -0.456304
-0.004573 -0.176336 -0.456121
-0.006201 -0.176336 -0.455938
-0.007659 -0.175947 -0.454585
-0.009288 -0.175947 -0.454401
-0.010918 -0.175947 -0.454218
-0.012547 -0.175947 -0.454035
-0.014012 -0.175556 -0.452678
-0.015642 -0.175556 -0.452495
-0.017273 -0.175556 -0.452312
-0.018903 -0.175556 -0.452128
-0.020375 -0.175165 -0.450769
-0.022007 -0.175165 -0.450585
-0.023639 -0.175165 -0.450402
-0.025425 -0.175556 -0.451395
-0.026903 -0.175165 -0.450035
-0.028534 -0.175165 -0.449851
-0.030166 -0.175165 -0.449668
-0.031798 -0.175165 -0.449484
-0.033282 -0.174774 -0.448121
-0.034916 -0.174774 -0.447938
-0.036549 -0.174774 -0.447754
-0.038182 -0.174774 -0.447570
-0.039673 -0.174381 -0.446205
-0.041308 -0.174381 -0.446021
-0.042943 -0.174381 -0.445837
-0.044577 -0.174381 -0.445653
-0.046075 -0.173989 -0.444285
-0.047711 -0.173989 -0.444101
-0.049347 -0.173989 -0.443917
-0.050983 -0.173989 -0.443733
-0.052488 -0.173595 -0.442361
-0.054126 -0.173595 -0.442177
-0.055763 -0.173595 -0.441993
-0.057400 -0.173595 -0.441809
-0.058912 -0.173201 -0.440435
-0.060551 -0.173201 -0.440250
-0.062190 -0.173201 -0.440066
-0.063829 -0.173201 -0.439882
-0.065347 -0.172806 -0.438505
-0.066987 -0.172806 -0.438320
-0.068628 -0.172806 -0.438136
-0.070268 -0.172806 -0.437951
-0.071793 -0.172410 -0.436572
-0.073435 -0.172410 -0.436387
-0.075077 -0.172410 -0.436202
-0.076718 -0.172410 -0.436018
-0.078250 -0.172014 -0.434635
-0.079894 -0.172014 -0.434450
-0.081537 -0.172014 -0.434265
-0.083180 -0.172014 -0.434081
-0.084719 -0.171616 -0.432695
-0.086363 -0.171616 -0.432510
-0.088008 -0.171616 -0.432325
-0.089653 -0.171616 -0.432140
-0.091199 -0.171219 -0.430752
-0.092845 -0.171219 -0.430567
-0.094490 -0.171219 -0.430381
-0.096136 -0.171219 -0.430196
-0.097689 -0.170820 -0.428805
-0.099337 -0.170820 -0.428620
-0.100984 -0.170820 -0.428434
-0.102632 -0.170820 -0.428249
-0.104192 -0.170421 -0.426855
-0.105840 -0.170421 -0.426670
-0.107489 -0.170421 -0.426484
-0.109138 -0.170421 -0.426299
-0.110705 -0.170021 -0.424902
-0.112355 -0.170021 -0.424716
-0.114006 -0.170021 -0.424530
-0.115656 -0.170021 -0.424345
-0.117230 -0.169621 -0.422945
-0.118881 -0.169621 -0.422759
-0.120533 -0.169621 -0.422573
-0.122185 -0.169621 -0.422387
-0.123766 -0.169220 -0.420984
-0.125419 -0.169220 -0.420799
-0.127072 -0.169220 -0.420613
-0.128725 -0.169220 -0.420427
-0.130313 -0.168818 -0.419021
-0.131968 -0.168818 -0.418835
-0.133622 -0.168818 -0.418649
-0.135216 -0.168415 -0.417240
-0.136872 -0.168415 -0.417054
-0.138470 -0.168012 -0.415643
-0.140128 -0.168012 -0.415456
-0.141785 -0.168012 -0.415270
-0.143389 -0.167608 -0.413856
-0.145048 -0.167608 -0.413669
-0.146655 -0.167203 -0.412252
-0.148316 -0.167203 -0.412066
-0.149976 -0.167203 -0.411879
-0.151590 -0.166798 -0.410459
-0.153251 -0.166798 -0.410273
-0.154869 -0.166392 -0.408850
-0.156490 -0.165985 -0.407426
-0.158155 -0.165985 -0.407239
-0.159819 -0.165985 -0.407051
-0.161446 -0.165577 -0.405624
-0.163112 -0.165577 -0.405437
-0.164743 -0.165169 -0.404006
-0.166410 -0.165169 -0.403819
-0.168078 -0.165169 -0.403631
-0.169715 -0.164760 -0.402198
-0.171384 -0.164760 -0.402011
-0.173025 -0.164350 -0.400575
-0.174695 -0.164350 -0.400387
-0.176366 -0.164350 -0.400199
-0.178012 -0.163940 -0.398761
-0.179685 -0.163940 -0.398573
-0.181357 -0.163940 -0.398385
-0.183009 -0.163529 -0.396943
-0.184683 -0.163529 -0.396755
-0.186340 -0.163117 -0.395311
-0.187999 -0.162704 -0.393864
-0.189676 -0.162704 -0.393676
-0.191340 -0.162291 -0.392227
-0.193018 -0.162291 -0.392038
-0.194687 -0.161877 -0.390586
-0.196366 -0.161877 -0.390397
-0.198039 -0.161462 -0.388942
-0.199720 -0.161462 -0.388753
-0.201398 -0.161046 -0.387296
-0.203080 -0.161046 -0.387106
-0.204762 -0.160630 -0.385646
-0.206447 -0.160213 -0.384183
-0.208130 -0.160630 -0.385267
-0.209818 -0.160213 -0.383804
-0.211503 -0.160213 -0.383615
-0.213196 -0.159796 -0.382149
-0.214892 -0.159377 -0.380680
-0.216580 -0.159377 -0.380490
-0.218280 -0.158958 -0.379019
-0.219970 -0.158958 -0.378829
-0.221674 -0.158538 -0.377355
-0.223382 -0.158117 -0.375878
-0.225093 -0.157696 -0.374398
-0.226787 -0.157696 -0.374208
-0.228502 -0.157273 -0.372726
-0.230198 -0.157273 -0.372535
-0.231894 -0.157273 -0.372344
-0.233615 -0.156850 -0.370859
-0.235313 -0.156850 -0.370668
-0.237010 -0.156850 -0.370477
-0.238737 -0.156427 -0.368989
-0.240405 -0.156850 -0.370095
-0.242135 -0.156427 -0.368607
-0.243869 -0.156002 -0.367116
-0.245605 -0.155577 -0.365622
-0.247345 -0.155151 -0.364125
-0.249088 -0.154724 -0.362626
-0.250834 -0.154297 -0.361124
-0.252626 -0.153439 -0.358305
-0.254380 -0.153009 -0.356795
-0.256137 -0.152579 -0.355282
-0.257992 -0.151282 -0.351114
-0.259858 -0.149979 -0.346924
-0.261682 -0.149106 -0.344053
-0.263513 -0.148229 -0.341171
-0.265406 -0.146909 -0.336927
-0.267309 -0.145582 -0.332659
-0.269222 -0.144247 -0.328368
-0.271086 -0.143353 -0.325429
-0.273018 -0.142006 -0.321098
-0.274897 -0.141104 -0.318132
-0.276850 -0.139744 -0.313761
-0.278744 -0.138833 -0.310767
-0.280716 -0.137461 -0.306355
-0.282627 -0.136542 -0.303334
-0.284619 -0.135157 -0.298880
-0.286546 -0.134229 -0.295831
-0.288559 -0.132831 -0.291335
-0.290502 -0.131895 -0.288257
-0.292535 -0.130484 -0.283719
-0.294580 -0.129065 -0.279156
-0.296550 -0.128114 -0.276031
-0.298615 -0.126681 -0.271424
-0.300602 -0.125721 -0.268270
-0.302689 -0.124275 -0.263618
-0.304788 -0.122820 -0.258940
-0.306900 -0.121357 -0.254235
-0.309023 -0.119886 -0.249503
-0.311261 -0.117910 -0.243219
-0.314151 -0.112905 -0.227609
-0.316223 -0.111892 -0.224283
-0.318413 -0.110365 -0.219374
-0.320503 -0.109342 -0.216016
-0.322601 -0.108315 -0.212644
-0.324826 -0.106767 -0.207667
-0.326943 -0.105730 -0.204262
-0.329192 -0.104167 -0.199235
-0.331453 -0.102594 -0.194179
-0.333729 -0.101012 -0.189092
-0.335887 -0.099952 -0.185612
-0.338187 -0.098354 -0.180474
-0.340365 -0.097283 -0.176960
-0.342691 -0.095669 -0.171770
-0.346315 -0.089114 -0.151346
0.391145 -0.064969 -0.153982
0.384070 -0.069771 -0.167905
0.379573 -0.072141 -0.174666
0.376338 -0.073319 -0.177912
0.372508 -0.075077 -0.182868
0.369304 -0.076242 -0.186080
0.365517 -0.077981 -0.190985
0.362345 -0.079134 -0.194163
0.359185 -0.080283 -0.197328
0.356039 -0.081427 -0.200480
0.353485 -0.081997 -0.201941
0.350936 -0.082566 -0.203398
0.347820 -0.083700 -0.206524
0.345284 -0.084265 -0.207972
0.342190 -0.085393 -0.211079
0.339668 -0.085955 -0.212518
0.337152 -0.086515 -0.213954
0.334086 -0.087633 -0.217036
0.331033 -0.088747 -0.220106
0.328539 -0.089302 -0.221526
0.326049 -0.089856 -0.222944
0.323564 -0.090409 -0.224359
0.321085 -0.090960 -0.225771
0.319145 -0.090960 -0.225553
0.316673 -0.091511 -0.226962
0.314205 -0.092060 -0.228369
0.312269 -0.092060 -0.228151
0.309809 -0.092608 -0.229555
0.307354 -0.093156 -0.230956
0.305422 -0.093156 -0.230738
0.302973 -0.093702 -0.232137
0.300530 -0.094247 -0.233532
0.298091 -0.094790 -0.234925
0.296165 -0.094790 -0.234708
0.293733 -0.095333 -0.236098
0.291307 -0.095875 -0.237486
0.289385 -0.095875 -0.237269
0.287462 -0.095875 -0.237053
0.285540 -0.095875 -0.236837
0.283124 -0.096415 -0.238222
0.281204 -0.096415 -0.238006
0.278795 -0.096955 -0.239389
0.276876 -0.096955 -0.239173
0.274474 -0.097493 -0.240553
0.272557 -0.097493 -0.240337
0.270162 -0.098030 -0.241715
0.268247 -0.098030 -0.241499
0.266333 -0.098030 -0.241284
0.263946 -0.098566 -0.242659
0.262033 -0.098566 -0.242444
0.259653 -0.099102 -0.243817
0.257742 -0.099102 -0.243602
0.255369 -0.099636 -0.244972
0.253460 -0.099636 -0.244757
0.251093 -0.100169 -0.246124
0.249186 -0.100169 -0.245910
0.247280 -0.100169 -0.245695
0.244921 -0.100700 -0.247060
0.243016 -0.100700 -0.246846
0.241112 -0.100700 -0.246632
0.238762 -0.101231 -0.247995
0.236859 -0.101231 -0.247781
0.234956 -0.101231 -0.247567
0.232615 -0.101761 -0.248927
0.230713 -0.101761 -0.248713
0.228812 -0.101761 -0.248500
0.226480 -0.102290 -0.249858
0.225010 -0.101761 -0.248072
0.222681 -0.102290 -0.249431
0.220782 -0.102290 -0.249217
0.218883 -0.102290 -0.249003
0.216562 -0.102817 -0.250360
0.214665 -0.102817 -0.250146
0.212768 -0.102817 -0.249933
0.210870 -0.102817 -0.249720
0.208560 -0.103344 -0.251074
0.206665 -0.103344 -0.250861
0.204769 -0.103344 -0.250648
0.202874 -0.103344 -0.250434
0.200978 -0.103344 -0.250221
0.199083 -0.103344 -0.250008
0.138290 -0.180584 -0.479928
0.136381 -0.180967 -0.480887
0.134476 -0.181350 -0.481845
0.132287 -0.182113 -0.483937
0.130390 -0.182493 -0.484889
0.128214 -0.183252 -0.486971
0.126606 -0.183252 -0.486790
0.124440 -0.184008 -0.488865
0.122557 -0.184385 -0.489809
0.120953 -0.184385 -0.489629
0.118802 -0.185138 -0.491693
0.117200 -0.185138 -0.491513
0.116140 -0.184385 -0.489087
0.114536 -0.184385 -0.488907
0.112931 -0.184385 -0.488726
0.111327 -0.184385 -0.488546
0.109723 -0.184385 -0.488366
0.108383 -0.184008 -0.487059
0.106777 -0.184008 -0.486878
0.105172 -0.184008 -0.486697
0.103566 -0.184008 -0.486517
0.101960 -0.184008 -0.486336
0.100613 -0.183630 -0.485026
0.099006 -0.183630 -0.484846
0.097655 -0.183252 -0.483534
0.096046 -0.183252 -0.483353
0.094438 -0.183252 -0.483172
0.092830 -0.183252 -0.482991
0.091221 -0.183252 -0.482810
0.089862 -0.182873 -0.481495
0.088253 -0.182873 -0.481314
0.086643 -0.182873 -0.481133
0.085033 -0.182873 -0.480952
0.083668 -0.182493 -0.479634
0.082057 -0.182493 -0.479453
0.080446 -0.182493 -0.479272
0.078835 -0.182493 -0.479091
0.077224 -0.182493 -0.478909
0.075613 -0.182493 -0.478728
0.074238 -0.182113 -0.477408
0.072626 -0.182113 -0.477226
0.071013 -0.182113 -0.477045
0.069634 -0.181732 -0.475722
0.068020 -0.181732 -0.475540
0.066406 -0.181732 -0.475359
0.064792 -0.181732 -0.475177
0.063406 -0.181350 -0.473851
0.061791 -0.181350 -0.473670
0.060176 -0.181350 -0.473488
0.058561 -0.181350 -0.473306
0.057168 -0.180967 -0.471978
0.055552 -0.180967 -0.471796
0.053935 -0.180967 -0.471614
0.052319 -0.180967 -0.471432
0.050920 -0.180584 -0.470101
0.049302 -0.180584 -0.469919
0.047684 -0.180584 -0.469737
0.046066 -0.180584 -0.469555
0.044661 -0.180201 -0.468221
0.043041 -0.180201 -0.468039
0.041422 -0.180201 -0.467857
0.039803 -0.180201 -0.467675
0.038391 -0.179816 -0.466338
0.036770 -0.179816 -0.466155
0.035149 -0.179816 -0.465973
0.033528 -0.179816 -0.465791
0.032110 -0.179432 -0.464451
0.030488 -0.179432 -0.464269
0.028866 -0.179432 -0.464086
0.027244 -0.179432 -0.463904
0.025819 -0.179046 -0.462562
0.024195 -0.179046 -0.462379
0.022572 -0.179046 -0.462196
0.020948 -0.179046 -0.462014
0.019517 -0.178660 -0.460669
0.017892 -0.178660 -0.460486
0.016267 -0.178660 -0.460303
0.014642 -0.178660 -0.460121
0.013204 -0.178273 -0.458773
0.011577 -0.178273 -0.458590
0.009951 -0.178273 -0.458407
0.008325 -0.178273 -0.458224
0.006880 -0.177885 -0.456873
0.005252 -0.177885 -0.456690
0.003625 -0.177885 -0.456507
0.001997 -0.177885 -0.456324
0.000545 -0.177497 -0.454971
-0.001084 -0.177497 -0.454788
-0.002713 -0.177497 -0.454604
-0.004342 -0.177497 -0.454421
-0.005800 -0.177108 -0.453065
-0.007430 -0.177108 -0.452881
-0.009061 -0.177108 -0.452698
-0.010691 -0.177108 -0.452515
-0.012156 -0.176718 -0.451156
-0.013788 -0.176718 -0.450972
-0.015420 -0.176718 -0.450789
-0.017052 -0.176718 -0.450605
-0.018523 -0.176328 -0.449243
-0.020157 -0.176328 -0.449060
-0.021790 -0.176328 -0.448876
-0.023423 -0.176328 -0.448692
-0.025056 -0.176328 -0.448508
-0.026690 -0.176328 -0.448325
-0.028323 -0.176328 -0.448141
-0.029956 -0.176328 -0.447957
-0.031440 -0.175937 -0.446592
-0.033075 -0.175937 -0.446408
-0.034710 -0.175937 -0.446224
-0.036344 -0.175937 -0.446041
-0.037835 -0.175545 -0.444672
-0.039471 -0.175545 -0.444488
-0.041107 -0.175545 -0.444304
-0.042743 -0.175545 -0.444120
-0.044241 -0.175153 -0.442750
-0.045878 -0.175153 -0.442565
-0.047516 -0.175153 -0.442381
-0.049153 -0.175153 -0.442197
-0.050658 -0.174760 -0.440823
-0.052296 -0.174760 -0.440639
-0.053935 -0.174760 -0.440455
-0.055574 -0.174760 -0.440270
-0.057085 -0.174366 -0.438894
-0.058726 -0.174366 -0.438709
-0.060366 -0.174366 -0.438525
-0.062006 -0.174366 -0.438340
-0.063524 -0.173972 -0.436961
-0.065166 -0.173972 -0.436776
-0.066808 -0.173972 -0.436591
-0.068450 -0.173972 -0.436407
-0.069975 -0.173577 -0.435025
-0.071618 -0.173577 -0.434840
-0.073261 -0.173577 -0.434655
-0.074904 -0.173577 -0.434470
-0.076436 -0.173181 -0.433085
-0.078080 -0.173181 -0.432900
-0.079725 -0.173181 -0.432715
-0.081370 -0.173181 -0.432530
-0.082908 -0.172785 -0.431142
-0.084554 -0.172785 -0.430957
-0.086200 -0.172785 -0.430772
-0.087846 -0.172785 -0.430587
-0.089392 -0.172388 -0.429196
-0.091040 -0.172388 -0.429010
-0.092687 -0.172388 -0.428825
-0.094334 -0.172388 -0.428640
-0.095887 -0.171990 -0.427246
-0.097536 -0.171990 -0.427060
-0.099185 -0.171990 -0.426875
-0.100834 -0.171990 -0.426690
-0.102393 -0.171592 -0.425293
-0.104044 -0.171592 -0.425107
-0.105694 -0.171592 -0.424922
-0.107344 -0.171592 -0.424736
-0.108911 -0.171193 -0.423336
-0.110562 -0.171193 -0.423151
-0.112214 -0.171193 -0.422965
-0.113866 -0.171193 -0.422779
-0.115440 -0.170793 -0.421376
-0.117093 -0.170793 -0.421190
-0.118746 -0.170793 -0.421005
-0.120399 -0.170793 -0.420819
-0.121980 -0.170392 -0.419413
-0.123634 -0.170392 -0.419227
-0.125289 -0.170392 -0.419041
-0.126944 -0.170392 -0.418855
-0.128531 -0.169991 -0.417446
-0.130188 -0.169991 -0.417260
-0.131844 -0.169991 -0.417074
-0.133437 -0.169589 -0.415663
-0.135095 -0.169589 -0.415476
-0.136692 -0.169186 -0.414062
-0.138351 -0.169186 -0.413876
-0.140010 -0.169186 -0.413689
-0.141614 -0.168783 -0.412273
-0.143274 -0.168783 -0.412086
-0.144934 -0.168783 -0.411899
-0.146543 -0.168379 -0.410480
-0.148205 -0.168379 -0.410293
-0.149819 -0.167974 -0.408871
-0.151482 -0.167974 -0.408684
-0.153145 -0.167974 -0.408496
-0.154720 -0.167163 -0.405832
-0.156386 -0.167163 -0.405644
-0.158053 -0.167163 -0.405457
-0.159679 -0.166756 -0.404027
-0.161347 -0.166756 -0.403839
-0.162977 -0.166348 -0.402406
-0.164646 -0.166348 -0.402219
-0.166315 -0.166348 -0.402031
-0.167952 -0.165940 -0.400595
-0.169622 -0.165940 -0.400407
-0.171263 -0.165531 -0.398969
-0.172935 -0.165531 -0.398781
-0.174607 -0.165531 -0.398593
-0.176254 -0.165121 -0.397152
-0.177927 -0.165121 -0.396964
-0.179578 -0.164711 -0.395520
-0.181253 -0.164711 -0.395331
-0.182928 -0.164711 -0.395143
-0.184585 -0.164299 -0.393696
-0.186262 -0.164299 -0.393508
-0.187923 -0.163888 -0.392058
-0.189601 -0.163888 -0.391869
-0.191267 -0.163475 -0.390417
-0.192935 -0.163062 -0.388963
-0.194616 -0.163062 -0.388773
-0.196289 -0.162647 -0.387316
-0.197972 -0.162647 -0.387127
-0.199649 -0.162233 -0.385667
-0.201333 -0.162233 -0.385477
-0.203015 -0.161817 -0.384014
-0.204700 -0.161817 -0.383825
-0.206387 -0.161401 -0.382359
-0.208074 -0.161401 -0.382169
-0.209761 -0.161401 -0.381979
-0.211453 -0.160984 -0.380511
-0.213141 -0.160984 -0.380321
-0.214838 -0.160566 -0.378849
-0.216528 -0.160566 -0.378659
-0.218230 -0.160147 -0.377185
-0.219934 -0.159728 -0.375708
-0.221627 -0.159728 -0.375518
-0.223336 -0.159308 -0.374038
-0.225048 -0.158887 -0.372555
-0.226744 -0.158887 -0.372365
-0.228440 -0.158887 -0.372174
-0.230158 -0.158466 -0.370689
-0.231856 -0.158466 -0.370498
-0.233553 -0.158466 -0.370307
-0.235277 -0.158043 -0.368819
-0.236976 -0.158043 -0.368627
-0.238675 -0.158043 -0.368436
-0.240374 -0.158043 -0.368245
-0.242106 -0.157620 -0.366754
-0.243841 -0.157197 -0.365260
-0.245579 -0.156772 -0.363763
-0.247321 -0.156347 -0.362263
-0.249105 -0.155494 -0.359448
-0.250854 -0.155066 -0.357941
-0.252606 -0.154638 -0.356431
-0.254406 -0.153779 -0.353595
-0.256258 -0.152484 -0.349419
-0.258073 -0.151617 -0.346557
-0.259944 -0.150311 -0.342343
-0.261773 -0.149436 -0.339456
-0.263609 -0.148558 -0.336558
-0.265563 -0.146793 -0.330927
-0.267416 -0.145905 -0.327997
-0.269335 -0.144567 -0.323682
-0.271204 -0.143672 -0.320726
-0.273142 -0.142322 -0.316370
-0.275027 -0.141418 -0.313386
-0.276984 -0.140055 -0.308990
-0.278885 -0.139143 -0.305979
-0.280863 -0.137767 -0.301541
-0.282779 -0.136846 -0.298502
-0.284777 -0.135458 -0.294023
-0.286710 -0.134528 -0.290956
-0.288729 -0.133127 -0.286434
-0.290678 -0.132189 -0.283338
-0.292717 -0.130774 -0.278773
-0.294768 -0.129352 -0.274182
-0.296744 -0.128399 -0.271040
-0.298816 -0.126963 -0.266405
-0.300809 -0.126001 -0.263232
-0.302903 -0.124551 -0.258553
-0.305009 -0.123093 -0.253847
-0.307127 -0.121627 -0.249113
-0.309458 -0.119164 -0.241301
-0.312124 -0.115173 -0.228768
-0.314296 -0.113660 -0.223887
-0.316372 -0.112647 -0.220547
-0.318567 -0.111119 -0.215618
-0.320662 -0.110096 -0.212246
-0.322764 -0.109068 -0.208860
-0.324994 -0.107519 -0.203862
-0.327116 -0.106482 -0.200443
-0.329493 -0.104394 -0.193776
-0.331636 -0.103344 -0.190316
-0.333916 -0.101761 -0.185208
-0.336079 -0.100700 -0.181714
-0.338385 -0.099102 -0.176553
-0.340568 -0.098030 -0.173024
-0.344020 -0.092060 -0.154336
0.387917 -0.068108 -0.156654
0.381505 -0.072282 -0.168776
0.377024 -0.074639 -0.175526
0.373798 -0.075811 -0.178767
0.370584 -0.076977 -0.181994
0.366785 -0.078717 -0.186922
0.363010 -0.080447 -0.191819
0.360435 -0.081021 -0.193295
0.357279 -0.082165 -0.196462
0.354718 -0.082736 -0.197930
0.351585 -0.083873 -0.201077
0.349038 -0.084440 -0.202535
0.345926 -0.085571 -0.205664
0.343392 -0.086134 -0.207112
0.340864 -0.086697 -0.208558
0.337782 -0.087818 -0.211661
0.335267 -0.088377 -0.213098
0.332206 -0.089491 -0.216182
0.329157 -0.090600 -0.219253
0.327209 -0.090600 -0.219034
0.324176 -0.091706 -0.222093
0.322232 -0.091706 -0.221875
0.319752 -0.092256 -0.223291
0.317810 -0.092256 -0.223072
0.315336 -0.092806 -0.224486
0.312868 -0.093355 -0.225896
0.310404 -0.093902 -0.227303
0.307946 -0.094449 -0.228708
0.306012 -0.094449 -0.228491
0.303560 -0.094994 -0.229893
0.301114 -0.095538 -0.231292
0.299184 -0.095538 -0.231075
0.296744 -0.096081 -0.232471
0.294309 -0.096623 -0.233865
0.292383 -0.096623 -0.233648
0.290457 -0.096623 -0.233432
0.288031 -0.097164 -0.234823
0.286107 -0.097164 -0.234607
0.283688 -0.097704 -0.235996
0.281766 -0.097704 -0.235779
0.279844 -0.097704 -0.235563
0.277433 -0.098243 -0.236949
0.275513 -0.098243 -0.236733
0.273110 -0.098780 -0.238117
0.271191 -0.098780 -0.237902
0.268795 -0.099317 -0.239283
0.266878 -0.099317 -0.239067
0.264962 -0.099317 -0.238852
0.262574 -0.099852 -0.240231
0.260659 -0.099852 -0.240015
0.258278 -0.100386 -0.241392
0.256365 -0.100386 -0.241176
0.253991 -0.100920 -0.242550
0.251621 -0.101452 -0.243921
0.249712 -0.101452 -0.243707
0.247804 -0.101452 -0.243492
0.245895 -0.101452 -0.243277
0.243536 -0.101983 -0.244646
0.241629 -0.101983 -0.244432
0.239722 -0.101983 -0.244217
0.237371 -0.102513 -0.245584
0.235466 -0.102513 -0.245370
0.233562 -0.102513 -0.245155
0.231219 -0.103042 -0.246520
0.229316 -0.103042 -0.246306
0.227413 -0.103042 -0.246092
0.225510 -0.103042 -0.245878
0.223607 -0.103042 -0.245664
0.221277 -0.103570 -0.247026
0.218952 -0.104097 -0.248386
0.217053 -0.104097 -0.248172
0.215154 -0.104097 -0.247958
0.213255 -0.104097 -0.247745
0.211355 -0.104097 -0.247531
0.209456 -0.104097 -0.247318
0.207557 -0.104097 -0.247104
0.205658 -0.104097 -0.246890
0.203758 -0.104097 -0.246677
0.201453 -0.104623 -0.248036
0.199556 -0.104623 -0.247822
0.197658 -0.104623 -0.247609
0.195761 -0.104623 -0.247395
0.193864 -0.104623 -0.247182
0.132920 -0.182887 -0.481138
0.131019 -0.183267 -0.482094
0.129121 -0.183647 -0.483049
0.127227 -0.184026 -0.484003
0.125336 -0.184405 -0.484955
0.123170 -0.185160 -0.487034
0.121287 -0.185536 -0.487981
0.119681 -0.185536 -0.487800
0.118076 -0.185536 -0.487620
0.116470 -0.185536 -0.487439
0.114864 -0.185536 -0.487259
0.113259 -0.185536 -0.487078
0.111653 -0.185536 -0.486897
0.110314 -0.185160 -0.485588
0.108707 -0.185160 -0.485407
0.107100 -0.185160 -0.485227
0.105493 -0.185160 -0.485046
0.103886 -0.185160 -0.484865
0.102539 -0.184782 -0.483553
0.100930 -0.184782 -0.483372
0.099580 -0.184405 -0.482058
0.097970 -0.184405 -0.481877
0.096360 -0.184405 -0.481696
0.094751 -0.184405 -0.481515
0.093141 -0.184405 -0.481334
0.091783 -0.184026 -0.480016
0.090171 -0.184026 -0.479835
0.088560 -0.184026 -0.479654
0.086949 -0.184026 -0.479473
0.085338 -0.184026 -0.479291
0.083972 -0.183647 -0.477971
0.082360 -0.183647 -0.477790
0.080747 -0.183647 -0.477609
0.079135 -0.183647 -0.477427
0.077762 -0.183267 -0.476104
0.076148 -0.183267 -0.475923
0.074534 -0.183267 -0.475741
0.072921 -0.183267 -0.475560
0.071542 -0.182887 -0.474234
0.069926 -0.182887 -0.474053
0.068311 -0.182887 -0.473871
0.066696 -0.182887 -0.473689
0.065311 -0.182506 -0.472361
0.063694 -0.182506 -0.472179
0.062077 -0.182506 -0.471997
0.060461 -0.182506 -0.471816
0.059069 -0.182124 -0.470485
0.057451 -0.182124 -0.470303
0.055833 -0.182124 -0.470121
0.054215 -0.182124 -0.469939
0.052817 -0.181742 -0.468605
0.051197 -0.181742 -0.468423
0.049578 -0.181742 -0.468241
0.047959 -0.181742 -0.468058
0.046554 -0.181359 -0.466722
0.044933 -0.181359 -0.466540
0.043312 -0.181359 -0.466357
0.041691 -0.181359 -0.466175
0.040280 -0.180975 -0.464836
0.038658 -0.180975 -0.464653
0.037036 -0.180975 -0.464471
0.035414 -0.180975 -0.464289
0.033996 -0.180591 -0.462947
0.032372 -0.180591 -0.462764
0.030749 -0.180591 -0.462581
0.029125 -0.180591 -0.462399
0.027700 -0.180206 -0.461054
0.026076 -0.180206 -0.460871
0.024451 -0.180206 -0.460689
0.022826 -0.180206 -0.460506
0.021395 -0.179820 -0.459158
0.019768 -0.179820 -0.458975
0.018142 -0.179820 -0.458792
0.016516 -0.179820 -0.458610
0.015078 -0.179434 -0.457259
0.013450 -0.179434 -0.457076
0.011823 -0.179434 -0.456893
0.010195 -0.179434 -0.456710
0.008750 -0.179047 -0.455357
0.007121 -0.179047 -0.455174
0.005492 -0.179047 -0.454991
0.003863 -0.179047 -0.454807
0.002412 -0.178659 -0.453451
0.000782 -0.178659 -0.453268
-0.000849 -0.178659 -0.453085
-0.002479 -0.178659 -0.452901
-0.003937 -0.178271 -0.451543
-0.005569 -0.178271 -0.451359
-0.007201 -0.178271 -0.451176
-0.008833 -0.178271 -0.450992
-0.010297 -0.177882 -0.449630
-0.011931 -0.177882 -0.449447
-0.013564 -0.177882 -0.449263
-0.015197 -0.177882 -0.449079
-0.016668 -0.177492 -0.447715
-0.018303 -0.177492 -0.447531
-0.019938 -0.177492 -0.447347
-0.021572 -0.177492 -0.447164
-0.023051 -0.177102 -0.445796
-0.024842 -0.177492 -0.446796
-0.026476 -0.177492 -0.446612
-0.028111 -0.177492 -0.446428
-0.029595 -0.177102 -0.445060
-0.031231 -0.177102 -0.444876
-0.032867 -0.177102 -0.444692
-0.034503 -0.177102 -0.444508
-0.035993 -0.176711 -0.443138
-0.037631 -0.176711 -0.442954
-0.039268 -0.176711 -0.442769
-0.040906 -0.176711 -0.442585
-0.042403 -0.176320 -0.441212
-0.044042 -0.176320 -0.441028
-0.045681 -0.176320 -0.440843
-0.047320 -0.176320 -0.440659
-0.048824 -0.175927 -0.439283
-0.050464 -0.175927 -0.439098
-0.052105 -0.175927 -0.438914
-0.053745 -0.175927 -0.438729
-0.055256 -0.175534 -0.437350
-0.056898 -0.175534 -0.437165
-0.058539 -0.175534 -0.436981
-0.060181 -0.175534 -0.436796
-0.061699 -0.175141 -0.435414
-0.063342 -0.175141 -0.435229
-0.064985 -0.175141 -0.435044
-0.066628 -0.175141 -0.434860
-0.068153 -0.174746 -0.433475
-0.069798 -0.174746 -0.433290
-0.071442 -0.174746 -0.433105
-0.073087 -0.174746 -0.432920
-0.074618 -0.174351 -0.431532
-0.076264 -0.174351 -0.431347
-0.077910 -0.174351 -0.431162
-0.079556 -0.174351 -0.430977
-0.081095 -0.173956 -0.429586
-0.082742 -0.173956 -0.429401
-0.084390 -0.173956 -0.429216
-0.086037 -0.173956 -0.429030
-0.087583 -0.173559 -0.427637
-0.089231 -0.173559 -0.427451
-0.090880 -0.173559 -0.427266
-0.092529 -0.173559 -0.427080
-0.094082 -0.173162 -0.425684
-0.095732 -0.173162 -0.425498
-0.097382 -0.173162 -0.425313
-0.099032 -0.173162 -0.425127
-0.100592 -0.172764 -0.423728
-0.102244 -0.172764 -0.423542
-0.103895 -0.172764 -0.423356
-0.105547 -0.172764 -0.423171
-0.107113 -0.172366 -0.421768
-0.108767 -0.172366 -0.421582
-0.110420 -0.172366 -0.421396
-0.112073 -0.172366 -0.421211
-0.113646 -0.171967 -0.419805
-0.115301 -0.171967 -0.419619
-0.116956 -0.171967 -0.419433
-0.118610 -0.171967 -0.419247
-0.120191 -0.171567 -0.417839
-0.121847 -0.171567 -0.417653
-0.123503 -0.171567 -0.417466
-0.125159 -0.171567 -0.417280
-0.126747 -0.171166 -0.415869
-0.128404 -0.171166 -0.415683
-0.130062 -0.171166 -0.415496
-0.131655 -0.170765 -0.414082
-0.133314 -0.170765 -0.413896
-0.134973 -0.170765 -0.413709
-0.136572 -0.170363 -0.412293
-0.138232 -0.170363 -0.412106
-0.139835 -0.169960 -0.410687
-0.141497 -0.169960 -0.410500
-0.143159 -0.169960 -0.410313
-0.144768 -0.169557 -0.408891
-0.146431 -0.169557 -0.408704
-0.148045 -0.169153 -0.407279
-0.149709 -0.169153 -0.407092
-0.151374 -0.169153 -0.406905
-0.152993 -0.168748 -0.405477
-0.154615 -0.168343 -0.404047
-0.156283 -0.168343 -0.403859
-0.157909 -0.167937 -0.402427
-0.159578 -0.167937 -0.402239
-0.161247 -0.167937 -0.402051
-0.162879 -0.167530 -0.400616
-0.164550 -0.167530 -0.400428
-0.166186 -0.167122 -0.398989
-0.167858 -0.167122 -0.398801
-0.169499 -0.166714 -0.397360
-0.171172 -0.166714 -0.397172
-0.172846 -0.166714 -0.396984
-0.174492 -0.166305 -0.395540
-0.176167 -0.166305 -0.395352
-0.177818 -0.165895 -0.393905
-0.179494 -0.165895 -0.393717
-0.181171 -0.165895 -0.393528
-0.182847 -0.165895 -0.393339
-0.184506 -0.165484 -0.391890
-0.186184 -0.165484 -0.391701
-0.187846 -0.165073 -0.390249
-0.189526 -0.165073 -0.390060
-0.191193 -0.164661 -0.388605
-0.192863 -0.164248 -0.387147
-0.194545 -0.164248 -0.386958
-0.196220 -0.163835 -0.385498
-0.197904 -0.163835 -0.385308
-0.199583 -0.163421 -0.383845
-0.201268 -0.163421 -0.383655
-0.202951 -0.163006 -0.382190
-0.204638 -0.163006 -0.382000
-0.206326 -0.162590 -0.380531
-0.208017 -0.162174 -0.379060
-0.209707 -0.162174 -0.378870
-0.211402 -0.161757 -0.377396
-0.213094 -0.161757 -0.377205
-0.214794 -0.161339 -0.375728
-0.216486 -0.161339 -0.375538
-0.218191 -0.160920 -0.374058
-0.219885 -0.160920 -0.373868
-0.221580 -0.160920 -0.373677
-0.223274 -0.160920 -0.373487
-0.224986 -0.160501 -0.372004
-0.226701 -0.160081 -0.370518
-0.228399 -0.160081 -0.370328
-0.230096 -0.160081 -0.370137
-0.231817 -0.159660 -0.368648
-0.233516 -0.159660 -0.368457
-0.235215 -0.159660 -0.368266
-0.236943 -0.159238 -0.366774
-0.238643 -0.159238 -0.366583
-0.240344 -0.159238 -0.366392
-0.242077 -0.158816 -0.364897
-0.243814 -0.158393 -0.363400
-0.245553 -0.157969 -0.361900
-0.247334 -0.157119 -0.359085
-0.249082 -0.156693 -0.357577
-0.250832 -0.156266 -0.356066
-0.252672 -0.154981 -0.351904
-0.254476 -0.154120 -0.349053
-0.256334 -0.152823 -0.344853
-0.258154 -0.151954 -0.341976
-0.260030 -0.150645 -0.337737
-0.261917 -0.149329 -0.333476
-0.263760 -0.148448 -0.330557
-0.265665 -0.147120 -0.326256
-0.267524 -0.146230 -0.323310
-0.269448 -0.144890 -0.318969
-0.271322 -0.143992 -0.315996
-0.273266 -0.142639 -0.311615
-0.275156 -0.141733 -0.308615
-0.277120 -0.140368 -0.304193
-0.279026 -0.139453 -0.301164
-0.281010 -0.138075 -0.296701
-0.282932 -0.137152 -0.293644
-0.284936 -0.135761 -0.289138
-0.286875 -0.134829 -0.286053
-0.288899 -0.133425 -0.281505
-0.290936 -0.132013 -0.276931
-0.292900 -0.131067 -0.273799
-0.294958 -0.129641 -0.269181
-0.296939 -0.128686 -0.266020
-0.299018 -0.127247 -0.261357
-0.301109 -0.125799 -0.256668
-0.303211 -0.124343 -0.251952
-0.305326 -0.122879 -0.247208
-0.307552 -0.120913 -0.240910
-0.310204 -0.116936 -0.228374
-0.312265 -0.115932 -0.225053
-0.314442 -0.114418 -0.220151
-0.316522 -0.113405 -0.216797
-0.318611 -0.112387 -0.213431
-0.320821 -0.110852 -0.208461
-0.322928 -0.109824 -0.205061
-0.325162 -0.108275 -0.200042
-0.327289 -0.107237 -0.196608
-0.329671 -0.105148 -0.189913
-0.331946 -0.103570 -0.184803
-0.333976 -0.103042 -0.182951
-0.336272 -0.101452 -0.177799
-0.338449 -0.100386 -0.174276
-0.341735 -0.094994 -0.157314
0.384703 -0.071233 -0.159315
0.378946 -0.074787 -0.169645
0.375092 -0.076548 -0.174648
0.371263 -0.078297 -0.179619
0.368058 -0.079456 -0.182842
0.364271 -0.081187 -0.187761
0.361098 -0.082335 -0.190950
0.358525 -0.082907 -0.192428
0.355373 -0.084048 -0.195596
0.352815 -0.084617 -0.197065
0.350261 -0.085184 -0.198530
0.347140 -0.086315 -0.201673
0.344600 -0.086879 -0.203129
0.341500 -0.088003 -0.206253
0.338974 -0.088564 -0.207699
0.335895 -0.089681 -0.210804
0.332829 -0.090794 -0.213896
0.330876 -0.090794 -0.213676
0.327826 -0.091902 -0.216756
0.325332 -0.092454 -0.218181
0.322843 -0.093005 -0.219604
0.320897 -0.093005 -0.219385
0.318416 -0.093555 -0.220805
0.315939 -0.094104 -0.222222
0.313467 -0.094652 -0.223636
0.311527 -0.094652 -0.223418
0.309063 -0.095199 -0.224830
0.306603 -0.095745 -0.226238
0.304667 -0.095745 -0.226020
0.302215 -0.096289 -0.227426
0.299767 -0.096832 -0.228830
0.297324 -0.097375 -0.230230
0.294886 -0.097916 -0.231627
0.293464 -0.097375 -0.229796
0.291030 -0.097916 -0.231194
0.289102 -0.097916 -0.230977
0.286675 -0.098456 -0.232372
0.284749 -0.098456 -0.232155
0.282329 -0.098995 -0.233548
0.280405 -0.098995 -0.233332
0.277992 -0.099533 -0.234722
0.276069 -0.099533 -0.234505
0.274147 -0.099533 -0.234289
0.271743 -0.100070 -0.235677
0.269822 -0.100070 -0.235461
0.267425 -0.100606 -0.236846
0.265506 -0.100606 -0.236630
0.263115 -0.101140 -0.238013
0.261199 -0.101140 -0.237797
0.259282 -0.101140 -0.237582
0.256900 -0.101674 -0.238962
0.254986 -0.101674 -0.238747
0.252610 -0.102206 -0.240124
0.250698 -0.102206 -0.239909
0.248329 -0.102738 -0.241284
0.246418 -0.102738 -0.241069
0.244508 -0.102738 -0.240854
0.242147 -0.103268 -0.242227
0.240239 -0.103268 -0.242012
0.238330 -0.103268 -0.241798
0.235978 -0.103798 -0.243168
0.234071 -0.103798 -0.242954
0.232164 -0.103798 -0.242739
0.229821 -0.104326 -0.244107
0.227916 -0.104326 -0.243893
0.226012 -0.104326 -0.243679
0.224107 -0.104326 -0.243464
0.222202 -0.104326 -0.243250
0.219871 -0.104853 -0.244616
0.217968 -0.104853 -0.244402
0.216065 -0.104853 -0.244188
0.214162 -0.104853 -0.243974
0.212259 -0.104853 -0.243760
0.209940 -0.105379 -0.245125
0.208039 -0.105379 -0.244911
0.206138 -0.105379 -0.244697
0.204237 -0.105379 -0.244483
0.202336 -0.105379 -0.244269
0.200435 -0.105379 -0.244056
0.198534 -0.105379 -0.243842
0.196633 -0.105379 -0.243628
0.194332 -0.105904 -0.244991
0.192433 -0.105904 -0.244777
0.190533 -0.105904 -0.244564
0.129749 -0.184424 -0.480249
0.127850 -0.184803 -0.481206
0.125955 -0.185181 -0.482162
0.123785 -0.185936 -0.484250
0.121898 -0.186313 -0.485201
0.120290 -0.186313 -0.485020
0.118681 -0.186313 -0.484839
0.117073 -0.186313 -0.484658
0.115465 -0.186313 -0.484477
0.113856 -0.186313 -0.484296
0.112248 -0.186313 -0.484115
0.110640 -0.186313 -0.483935
0.109031 -0.186313 -0.483754
0.107423 -0.186313 -0.483573
0.105814 -0.186313 -0.483392
0.104206 -0.186313 -0.483211
0.102858 -0.185936 -0.481896
0.101248 -0.185936 -0.481715
0.099897 -0.185559 -0.480398
0.098286 -0.185559 -0.480217
0.096675 -0.185559 -0.480036
0.095064 -0.185559 -0.479855
0.093453 -0.185559 -0.479673
0.092093 -0.185181 -0.478354
0.090481 -0.185181 -0.478172
0.088868 -0.185181 -0.477991
0.087504 -0.184803 -0.476668
0.085890 -0.184803 -0.476487
0.084277 -0.184803 -0.476305
0.082663 -0.184803 -0.476124
0.081049 -0.184803 -0.475942
0.079677 -0.184424 -0.474617
0.078062 -0.184424 -0.474436
0.076446 -0.184424 -0.474254
0.075069 -0.184044 -0.472926
0.073453 -0.184044 -0.472744
0.071836 -0.184044 -0.472562
0.070219 -0.184044 -0.472381
0.068836 -0.183664 -0.471050
0.067218 -0.183664 -0.470868
0.065600 -0.183664 -0.470686
0.063982 -0.183664 -0.470504
0.062592 -0.183283 -0.469171
0.060973 -0.183283 -0.468989
0.059353 -0.183283 -0.468807
0.057734 -0.183283 -0.468625
0.056114 -0.183283 -0.468442
0.054717 -0.182901 -0.467106
0.053096 -0.182901 -0.466924
0.051475 -0.182901 -0.466742
0.050072 -0.182519 -0.465403
0.048450 -0.182519 -0.465220
0.046828 -0.182519 -0.465038
0.045206 -0.182519 -0.464856
0.043796 -0.182136 -0.463514
0.042172 -0.182136 -0.463331
0.040549 -0.182136 -0.463149
0.038925 -0.182136 -0.462966
0.037509 -0.181752 -0.461622
0.035884 -0.181752 -0.461439
0.034259 -0.181752 -0.461257
0.032635 -0.181752 -0.461074
0.031010 -0.181752 -0.460891
0.029585 -0.181368 -0.459544
0.027959 -0.181368 -0.459361
0.026333 -0.181368 -0.459178
0.024903 -0.180983 -0.457828
0.023276 -0.180983 -0.457645
0.021648 -0.180983 -0.457462
0.020020 -0.180983 -0.457279
0.018584 -0.180597 -0.455926
0.016955 -0.180597 -0.455743
0.015326 -0.180597 -0.455560
0.013697 -0.180597 -0.455377
0.012254 -0.180211 -0.454021
0.010624 -0.180211 -0.453838
0.008993 -0.180211 -0.453655
0.007363 -0.180211 -0.453471
0.005733 -0.180211 -0.453288
0.004282 -0.179824 -0.451929
0.002650 -0.179824 -0.451746
0.001018 -0.179824 -0.451562
-0.000438 -0.179436 -0.450201
-0.002071 -0.179436 -0.450018
-0.003705 -0.179436 -0.449834
-0.005338 -0.179436 -0.449650
-0.006801 -0.179048 -0.448287
-0.008435 -0.179048 -0.448103
-0.010070 -0.179048 -0.447919
-0.011705 -0.179048 -0.447735
-0.013174 -0.178659 -0.446368
-0.014810 -0.178659 -0.446184
-0.016446 -0.178659 -0.446000
-0.018082 -0.178659 -0.445816
-0.019719 -0.178659 -0.445632
-0.021196 -0.178269 -0.444263
-0.022834 -0.178269 -0.444079
-0.024627 -0.178659 -0.445080
-0.026109 -0.178269 -0.443710
-0.027746 -0.178269 -0.443526
-0.029384 -0.178269 -0.443342
-0.031021 -0.178269 -0.443158
-0.032510 -0.177879 -0.441785
-0.034149 -0.177879 -0.441600
-0.035788 -0.177879 -0.441416
-0.037427 -0.177879 -0.441232
-0.038922 -0.177488 -0.439856
-0.040562 -0.177488 -0.439671
-0.042203 -0.177488 -0.439487
-0.043843 -0.177488 -0.439303
-0.045483 -0.177488 -0.439118
-0.046987 -0.177097 -0.437739
-0.048629 -0.177097 -0.437555
-0.050271 -0.177097 -0.437370
-0.051780 -0.176704 -0.435988
-0.053423 -0.176704 -0.435804
-0.055066 -0.176704 -0.435619
-0.056709 -0.176704 -0.435434
-0.058225 -0.176311 -0.434050
-0.059870 -0.176311 -0.433865
-0.061515 -0.176311 -0.433680
-0.063159 -0.176311 -0.433495
-0.064682 -0.175918 -0.432108
-0.066328 -0.175918 -0.431922
-0.067974 -0.175918 -0.431737
-0.069620 -0.175918 -0.431552
-0.071266 -0.175918 -0.431367
-0.072797 -0.175523 -0.429977
-0.074445 -0.175523 -0.429792
-0.076092 -0.175523 -0.429606
-0.077629 -0.175128 -0.428213
-0.079278 -0.175128 -0.428028
-0.080927 -0.175128 -0.427842
-0.082576 -0.175128 -0.427657
-0.084120 -0.174732 -0.426261
-0.085770 -0.174732 -0.426075
-0.087420 -0.174732 -0.425890
-0.089070 -0.174732 -0.425704
-0.090621 -0.174336 -0.424305
-0.092273 -0.174336 -0.424120
-0.093925 -0.174336 -0.423934
-0.095576 -0.174336 -0.423748
-0.097228 -0.174336 -0.423562
-0.098787 -0.173939 -0.422160
-0.100440 -0.173939 -0.421974
-0.102094 -0.173939 -0.421788
-0.103658 -0.173541 -0.420384
-0.105313 -0.173541 -0.420198
-0.106968 -0.173541 -0.420011
-0.108622 -0.173541 -0.419825
-0.110194 -0.173143 -0.418418
-0.111850 -0.173143 -0.418232
-0.113506 -0.173143 -0.418045
-0.115162 -0.173143 -0.417859
-0.116741 -0.172743 -0.416449
-0.118399 -0.172743 -0.416262
-0.120056 -0.172743 -0.416076
-0.121714 -0.172743 -0.415889
-0.123371 -0.172743 -0.415703
-0.124959 -0.172344 -0.414289
-0.126617 -0.172344 -0.414103
-0.128276 -0.172344 -0.413916
-0.129870 -0.171943 -0.412500
-0.131530 -0.171943 -0.412313
-0.133190 -0.171943 -0.412126
-0.134789 -0.171542 -0.410707
-0.136451 -0.171542 -0.410520
-0.138054 -0.171140 -0.409098
-0.139717 -0.171140 -0.408911
-0.141381 -0.171140 -0.408724
-0.142990 -0.170737 -0.407299
-0.144654 -0.170737 -0.407112
-0.146267 -0.170334 -0.405685
-0.147934 -0.170334 -0.405497
-0.149600 -0.170334 -0.405310
-0.151219 -0.169930 -0.403880
-0.152886 -0.169930 -0.403692
-0.154510 -0.169525 -0.402259
-0.156136 -0.169119 -0.400824
-0.157806 -0.169119 -0.400636
-0.159477 -0.169119 -0.400448
-0.161109 -0.168713 -0.399010
-0.162781 -0.168713 -0.398822
-0.164417 -0.168306 -0.397381
-0.166090 -0.168306 -0.397192
-0.167731 -0.167898 -0.395749
-0.169406 -0.167898 -0.395560
-0.171081 -0.167898 -0.395372
-0.172727 -0.167490 -0.393925
-0.174404 -0.167490 -0.393737
-0.176055 -0.167081 -0.392288
-0.177732 -0.167081 -0.392099
-0.179410 -0.167081 -0.391910
-0.181088 -0.167081 -0.391721
-0.182747 -0.166671 -0.390269
-0.184426 -0.166671 -0.390080
-0.186089 -0.166261 -0.388625
-0.187769 -0.166261 -0.388436
-0.189436 -0.165849 -0.386978
-0.191106 -0.165437 -0.385518
-0.192790 -0.165437 -0.385329
-0.194465 -0.165025 -0.383866
-0.196150 -0.165025 -0.383676
-0.197829 -0.164611 -0.382210
-0.199516 -0.164611 -0.382020
-0.201199 -0.164197 -0.380552
-0.202888 -0.164197 -0.380362
-0.204575 -0.163782 -0.378890
-0.206265 -0.163782 -0.378700
-0.207958 -0.163366 -0.377226
-0.209653 -0.162950 -0.375749
-0.211346 -0.162950 -0.375559
-0.213046 -0.162533 -0.374079
-0.214740 -0.162533 -0.373888
-0.216435 -0.162533 -0.373698
-0.218129 -0.162533 -0.373507
-0.219836 -0.162115 -0.372024
-0.221532 -0.162115 -0.371834
-0.223228 -0.162115 -0.371643
-0.224942 -0.161696 -0.370157
-0.226639 -0.161696 -0.369966
-0.228337 -0.161696 -0.369775
-0.230056 -0.161277 -0.368287
-0.231755 -0.161277 -0.368095
-0.233479 -0.160857 -0.366604
-0.235180 -0.160857 -0.366413
-0.236880 -0.160857 -0.366221
-0.238611 -0.160436 -0.364727
-0.240313 -0.160436 -0.364535
-0.242048 -0.160014 -0.363038
-0.243821 -0.159168 -0.360227
-0.245563 -0.158745 -0.358721
-0.247309 -0.158320 -0.357213
-0.249098 -0.157468 -0.354381
-0.250893 -0.156613 -0.351539
-0.252695 -0.155756 -0.348687
-0.254548 -0.154463 -0.344486
-0.256364 -0.153597 -0.341608
-0.258235 -0.152293 -0.337369
-0.260167 -0.150543 -0.331746
-0.262009 -0.149663 -0.328820
-0.263857 -0.148779 -0.325885
-0.265768 -0.147449 -0.321559
-0.267632 -0.146557 -0.318596
-0.269562 -0.145214 -0.314231
-0.271442 -0.144314 -0.311240
-0.273392 -0.142959 -0.306834
-0.275287 -0.142051 -0.303816
-0.277257 -0.140682 -0.299368
-0.279168 -0.139766 -0.296322
-0.281158 -0.138385 -0.291833
-0.283086 -0.137460 -0.288759
-0.285096 -0.136065 -0.284226
-0.287118 -0.134663 -0.279668
-0.289071 -0.133724 -0.276548
-0.291114 -0.132309 -0.271946
-0.293084 -0.131361 -0.268796
-0.295148 -0.129932 -0.264151
-0.297224 -0.128495 -0.259479
-0.299311 -0.127049 -0.254780
-0.301411 -0.125596 -0.250053
-0.303428 -0.124622 -0.246819
-0.305744 -0.122171 -0.238988
-0.308183 -0.119198 -0.229532
-0.310341 -0.117699 -0.224658
-0.312407 -0.116694 -0.221323
-0.314588 -0.115180 -0.216400
-0.316673 -0.114165 -0.213033
-0.318766 -0.113147 -0.209652
-0.320981 -0.111612 -0.204661
-0.323092 -0.110583 -0.201247
-0.325332 -0.109033 -0.196206
-0.327584 -0.107473 -0.191136
-0.329850 -0.105904 -0.186035
-0.332003 -0.104853 -0.182546
-0.334294 -0.103268 -0.177393
-0.336466 -0.102206 -0.173869
-0.339460 -0.097916 -0.160280
0.389208 -0.068970 -0.146164
0.382127 -0.073753 -0.160198
0.376393 -0.077288 -0.170511
0.372551 -0.079038 -0.175507
0.369337 -0.080199 -0.178744
0.365538 -0.081931 -0.183687
0.362355 -0.083080 -0.186891
0.359776 -0.083652 -0.188376
0.356615 -0.084794 -0.191560
0.354049 -0.085363 -0.193035
0.350911 -0.086497 -0.196200
0.348359 -0.087062 -0.197666
0.345813 -0.087627 -0.199129
0.342137 -0.089312 -0.203942
0.339608 -0.089872 -0.205393
0.337084 -0.090430 -0.206840
0.334009 -0.091544 -0.209947
0.332051 -0.091544 -0.209727
0.328993 -0.092653 -0.212821
0.326493 -0.093206 -0.214253
0.323998 -0.093757 -0.215683
0.321508 -0.094308 -0.217109
0.319023 -0.094857 -0.218533
0.317077 -0.094857 -0.218314
0.314599 -0.095405 -0.219735
0.312126 -0.095952 -0.221154
0.309658 -0.096498 -0.222569
0.307719 -0.096498 -0.222351
0.305258 -0.097043 -0.223763
0.302802 -0.097587 -0.225173
0.300866 -0.097587 -0.224955
0.298417 -0.098129 -0.226362
0.295974 -0.098671 -0.227767
0.294042 -0.098671 -0.227549
0.291605 -0.099211 -0.228951
0.289173 -0.099751 -0.230350
0.287745 -0.099211 -0.228517
0.285317 -0.099751 -0.229916
0.283388 -0.099751 -0.229699
0.280967 -0.100289 -0.231096
0.279041 -0.100289 -0.230879
0.276627 -0.100826 -0.232273
0.274703 -0.100826 -0.232056
0.272778 -0.100826 -0.231840
0.270373 -0.101362 -0.233232
0.268451 -0.101362 -0.233015
0.266052 -0.101897 -0.234404
0.264132 -0.101897 -0.234188
0.261740 -0.102431 -0.235575
0.259821 -0.102431 -0.235359
0.257436 -0.102964 -0.236743
0.255520 -0.102964 -0.236527
0.253141 -0.103496 -0.237908
0.251227 -0.103496 -0.237693
0.249312 -0.103496 -0.237478
0.247398 -0.103496 -0.237262
0.245030 -0.104026 -0.238642
0.243117 -0.104026 -0.238426
0.241205 -0.104026 -0.238211
0.238845 -0.104556 -0.239588
0.236935 -0.104556 -0.239373
0.235024 -0.104556 -0.239158
0.232673 -0.105085 -0.240533
0.230765 -0.105085 -0.240318
0.228856 -0.105085 -0.240103
0.226947 -0.105085 -0.239889
0.224607 -0.105612 -0.241261
0.222700 -0.105612 -0.241047
0.220793 -0.105612 -0.240832
0.218462 -0.106139 -0.242202
0.216557 -0.106139 -0.241988
0.214652 -0.106139 -0.241774
0.212747 -0.106139 -0.241559
0.210842 -0.106139 -0.241345
0.208937 -0.106139 -0.241131
0.207032 -0.106139 -0.240917
0.205127 -0.106139 -0.240702
0.202813 -0.106664 -0.242071
0.200910 -0.106664 -0.241857
0.199007 -0.106664 -0.241643
0.197104 -0.106664 -0.241429
0.195201 -0.106664 -0.241215
0.193298 -0.106664 -0.241001
0.191395 -0.106664 -0.240787
0.189492 -0.106664 -0.240573
0.187197 -0.107188 -0.241940
0.185295 -0.107188 -0.241727
0.124682 -0.186339 -0.480318
0.122512 -0.187092 -0.482411
0.120900 -0.187092 -0.482230
0.119289 -0.187092 -0.482049
0.117678 -0.187092 -0.481867
0.116067 -0.187092 -0.481686
0.114456 -0.187092 -0.481505
0.112845 -0.187092 -0.481324
0.111234 -0.187092 -0.481143
0.109623 -0.187092 -0.480961
0.108012 -0.187092 -0.480780
0.106400 -0.187092 -0.480599
0.104789 -0.187092 -0.480418
0.103178 -0.187092 -0.480237
0.101827 -0.186716 -0.478917
0.100215 -0.186716 -0.478736
0.098602 -0.186716 -0.478555
0.096990 -0.186716 -0.478373
0.095632 -0.186339 -0.477051
0.094019 -0.186339 -0.476870
0.092405 -0.186339 -0.476688
0.090791 -0.186339 -0.476507
0.089427 -0.185961 -0.475182
0.087812 -0.185961 -0.475000
0.086197 -0.185961 -0.474818
0.084582 -0.185961 -0.474637
0.083211 -0.185582 -0.473309
0.081595 -0.185582 -0.473128
0.079978 -0.185582 -0.472946
0.078362 -0.185582 -0.472764
0.076985 -0.185203 -0.471434
