ply
format ascii 1.0
element vertex 1684
property float x
property float y
property float z
end_header
0.135936 0.198271 -0.491170
0.134184 0.197448 -0.490741
0.132639 0.197448 -0.491142
0.130883 0.196625 -0.490713
0.129124 0.195800 -0.490283
0.127577 0.195800 -0.490684
0.126030 0.195800 -0.491085
0.124265 0.194973 -0.490655
0.122717 0.194973 -0.491057
0.120948 0.194145 -0.490627
0.119399 0.194145 -0.491029
0.117625 0.193316 -0.490598
0.116074 0.193316 -0.491000
0.114297 0.192485 -0.490569
0.112745 0.192485 -0.490972
0.110963 0.191653 -0.490540
0.109409 0.191653 -0.490943
0.107623 0.190820 -0.490511
0.106069 0.190820 -0.490914
0.104278 0.189985 -0.490482
0.102722 0.189985 -0.490886
0.101166 0.189985 -0.491289
0.099370 0.189149 -0.490857
0.097813 0.189149 -0.491261
0.096255 0.189149 -0.491665
0.094453 0.188311 -0.491233
0.092895 0.188311 -0.491637
0.091089 0.187472 -0.491204
0.089529 0.187472 -0.491609
0.087468 0.185789 -0.490337
0.085905 0.185789 -0.490742
0.084089 0.184946 -0.490307
0.082525 0.184946 -0.490713
0.080704 0.184101 -0.490278
0.078880 0.183255 -0.489842
0.077313 0.183255 -0.490249
0.075485 0.182407 -0.489813
0.073917 0.182407 -0.490219
0.072084 0.181558 -0.489783
0.070515 0.181558 -0.490190
0.068678 0.180708 -0.489753
0.067107 0.180708 -0.490160
0.065265 0.179856 -0.489723
0.063693 0.179856 -0.490131
0.061847 0.179002 -0.489693
0.060274 0.179002 -0.490101
0.058423 0.178148 -0.489663
0.056849 0.178148 -0.490071
0.054993 0.177291 -0.489633
0.053417 0.177291 -0.490042
0.051558 0.176434 -0.489603
0.049981 0.176434 -0.490012
0.048116 0.175574 -0.489573
0.046538 0.175574 -0.489982
0.044669 0.174714 -0.489542
0.043089 0.174714 -0.489952
0.041216 0.173851 -0.489512
0.039634 0.173851 -0.489922
0.037757 0.172988 -0.489482
0.036174 0.172988 -0.489892
0.034292 0.172123 -0.489451
0.032708 0.172123 -0.489862
0.030821 0.171256 -0.489421
0.029235 0.171256 -0.489832
0.027344 0.170388 -0.489390
0.025757 0.170388 -0.489802
0.023861 0.169518 -0.489360
0.022273 0.169518 -0.489772
0.020372 0.168647 -0.489329
0.018783 0.168647 -0.489741
0.016877 0.167775 -0.489299
0.015286 0.167775 -0.489711
0.013376 0.166901 -0.489268
0.011784 0.166901 -0.489681
0.009870 0.166025 -0.489237
0.008276 0.166025 -0.489650
0.006357 0.165148 -0.489206
0.004762 0.165148 -0.489620
0.002838 0.164269 -0.489176
0.001241 0.164269 -0.489589
-0.000687 0.163389 -0.489145
-0.002285 0.163389 -0.489559
-0.004219 0.162508 -0.489114
-0.005818 0.162508 -0.489528
-0.007756 0.161625 -0.489083
-0.009356 0.161625 -0.489498
-0.011299 0.160740 -0.489051
-0.012901 0.160740 -0.489467
-0.014849 0.159854 -0.489020
-0.016452 0.159854 -0.489436
-0.018404 0.158966 -0.488989
-0.020009 0.158966 -0.489405
-0.021966 0.158077 -0.488958
-0.023572 0.158077 -0.489374
-0.025534 0.157186 -0.488927
-0.027142 0.157186 -0.489343
-0.029108 0.156293 -0.488895
-0.030717 0.156293 -0.489313
-0.032689 0.155400 -0.488864
-0.034299 0.155400 -0.489281
-0.036275 0.154504 -0.488832
-0.037887 0.154504 -0.489250
-0.039868 0.153607 -0.488801
-0.041481 0.153607 -0.489219
-0.043468 0.152708 -0.488769
-0.045082 0.152708 -0.489188
-0.047073 0.151808 -0.488738
-0.048689 0.151808 -0.489157
-0.050685 0.150906 -0.488706
-0.052302 0.150906 -0.489125
-0.054303 0.150003 -0.488674
-0.055922 0.150003 -0.489094
-0.057927 0.149098 -0.488643
-0.059547 0.149098 -0.489063
-0.061558 0.148192 -0.488611
-0.063180 0.148192 -0.489031
-0.065195 0.147284 -0.488579
-0.066818 0.147284 -0.489000
-0.068839 0.146374 -0.488547
-0.070463 0.146374 -0.488968
-0.072488 0.145463 -0.488515
-0.074114 0.145463 -0.488936
-0.076145 0.144550 -0.488483
-0.077772 0.144550 -0.488905
-0.079807 0.143635 -0.488451
-0.081436 0.143635 -0.488873
-0.083477 0.142719 -0.488419
-0.085107 0.142719 -0.488841
-0.087152 0.141802 -0.488386
-0.088784 0.141802 -0.488809
-0.090834 0.140882 -0.488354
-0.092467 0.140882 -0.488777
-0.094523 0.139961 -0.488322
-0.096157 0.139961 -0.488745
-0.098218 0.139039 -0.488289
-0.099854 0.139039 -0.488713
-0.101920 0.138115 -0.488257
-0.103557 0.138115 -0.488681
-0.105628 0.137189 -0.488224
-0.107267 0.137189 -0.488649
-0.109343 0.136261 -0.488192
-0.110983 0.136261 -0.488617
-0.113064 0.135332 -0.488159
-0.114706 0.135332 -0.488585
-0.116792 0.134401 -0.488126
-0.118435 0.134401 -0.488552
-0.120527 0.133469 -0.488094
-0.122171 0.133469 -0.488520
-0.124268 0.132535 -0.488061
-0.125914 0.132535 -0.488488
-0.128016 0.131599 -0.488028
-0.129664 0.131599 -0.488455
-0.131771 0.130662 -0.487995
-0.133420 0.130662 -0.488423
-0.135532 0.129723 -0.487962
-0.137182 0.129723 -0.488390
-0.139300 0.128782 -0.487929
-0.140952 0.128782 -0.488357
-0.143075 0.127839 -0.487896
-0.144728 0.127839 -0.488325
-0.146856 0.126895 -0.487863
-0.148511 0.126895 -0.488292
-0.150644 0.125949 -0.487830
-0.152301 0.125949 -0.488259
-0.154439 0.125002 -0.487796
-0.156097 0.125002 -0.488226
-0.158241 0.124053 -0.487763
-0.159900 0.124053 -0.488193
-0.162050 0.123102 -0.487729
-0.163711 0.123102 -0.488160
-0.165865 0.122149 -0.487696
-0.167528 0.122149 -0.488127
-0.169687 0.121195 -0.487662
-0.171351 0.121195 -0.488094
-0.173517 0.120239 -0.487629
-0.175182 0.120239 -0.488061
-0.177353 0.119281 -0.487595
-0.179020 0.119281 -0.488028
-0.181196 0.118322 -0.487562
-0.182864 0.118322 -0.487994
-0.185046 0.117360 -0.487528
-0.186716 0.117360 -0.487961
-0.188903 0.116397 -0.487494
-0.190574 0.116397 -0.487927
-0.192766 0.115433 -0.487460
-0.194439 0.115433 -0.487894
-0.196637 0.114466 -0.487426
-0.198312 0.114466 -0.487860
-0.200515 0.113498 -0.487392
-0.202191 0.113498 -0.487827
-0.204400 0.112528 -0.487358
-0.206077 0.112528 -0.487793
-0.208292 0.111557 -0.487324
-0.209971 0.111557 -0.487759
-0.212191 0.110583 -0.487290
-0.213871 0.110583 -0.487725
-0.216097 0.109608 -0.487255
-0.217779 0.109608 -0.487692
-0.220010 0.108631 -0.487221
-0.221694 0.108631 -0.487658
-0.223930 0.107652 -0.487187
-0.225615 0.107652 -0.487624
-0.227858 0.106671 -0.487152
-0.229544 0.106671 -0.487590
-0.231792 0.105689 -0.487118
-0.233481 0.105689 -0.487556
-0.236301 0.103719 -0.486172
-0.237992 0.103719 -0.486610
-0.240254 0.102731 -0.486136
-0.241947 0.102731 -0.486575
-0.244214 0.101742 -0.486101
-0.245908 0.101742 -0.486540
-0.248182 0.100750 -0.486065
-0.249878 0.100750 -0.486505
-0.252157 0.099757 -0.486029
-0.253854 0.099757 -0.486469
-0.255551 0.099757 -0.486910
-0.257838 0.098762 -0.486434
-0.260128 0.097765 -0.485958
-0.261829 0.097765 -0.486399
-0.264125 0.096767 -0.485922
-0.265827 0.096767 -0.486363
-0.268129 0.095766 -0.485886
-0.270435 0.094764 -0.485408
-0.272141 0.094764 -0.485850
-0.274453 0.093760 -0.485371
-0.276769 0.092754 -0.484892
-0.278478 0.092754 -0.485335
-0.280800 0.091746 -0.484855
-0.282510 0.091746 -0.485298
-0.284838 0.090736 -0.484818
-0.287170 0.089724 -0.484336
-0.289507 0.088711 -0.483854
-0.291848 0.087695 -0.483371
-0.293564 0.087695 -0.483816
-0.295911 0.086678 -0.483332
-0.298263 0.085659 -0.482848
-0.300618 0.084638 -0.482362
-0.302340 0.084638 -0.482808
-0.304701 0.083615 -0.482322
-0.307067 0.082590 -0.481836
-0.309438 0.081563 -0.481348
-0.311813 0.080535 -0.480859
-0.314192 0.079504 -0.480370
-0.316576 0.078471 -0.479879
-0.318964 0.077437 -0.479388
-0.321357 0.076401 -0.478895
-0.324419 0.074322 -0.477458
-0.326824 0.073280 -0.476962
-0.329904 0.071189 -0.475517
-0.332997 0.069091 -0.474066
-0.336101 0.066985 -0.472609
-0.339217 0.064871 -0.471147
-0.342344 0.062749 -0.469680
-0.345484 0.060618 -0.468206
-0.349334 0.057408 -0.465758
-0.352501 0.055257 -0.464270
-0.355681 0.053098 -0.462777
-0.359586 0.049845 -0.460296
-0.363514 0.046572 -0.457801
-0.367464 0.043281 -0.455291
-0.373637 0.036640 -0.449762
-0.379138 0.031048 -0.445183
0.418133 -0.006405 -0.201090
0.415864 0.008952 -0.218130
0.413940 0.012439 -0.222365
0.412027 0.015906 -0.226575
0.410125 0.019353 -0.230761
0.408235 0.022779 -0.234921
0.406377 0.025052 -0.237838
0.404526 0.027317 -0.240744
0.402682 0.029572 -0.243638
0.400846 0.031818 -0.246521
0.399030 0.032938 -0.248191
0.397206 0.035172 -0.251057
0.395389 0.037397 -0.253912
0.393579 0.039613 -0.256755
0.391783 0.040718 -0.258405
0.389985 0.042922 -0.261231
0.388198 0.044020 -0.262872
0.386412 0.046211 -0.265682
0.384633 0.047303 -0.267313
0.382858 0.048393 -0.268941
0.381089 0.050567 -0.271729
0.379322 0.051651 -0.273348
0.377559 0.052733 -0.274964
0.375807 0.054890 -0.277730
0.374052 0.055966 -0.279337
0.372300 0.057040 -0.280942
0.370551 0.058111 -0.282543
0.368821 0.060248 -0.285281
0.367081 0.061314 -0.286874
0.365344 0.062377 -0.288463
0.363630 0.064498 -0.291180
0.361901 0.065555 -0.292761
0.360175 0.066611 -0.294339
0.358478 0.068716 -0.297034
0.356734 0.068716 -0.297486
0.355018 0.069765 -0.299055
0.353306 0.070813 -0.300622
0.351596 0.071858 -0.302185
0.349890 0.072902 -0.303745
0.348187 0.073943 -0.305303
0.346487 0.074983 -0.306857
0.344753 0.074983 -0.307307
0.343058 0.076021 -0.308858
0.341367 0.077057 -0.310406
0.339678 0.078090 -0.311952
0.337992 0.079122 -0.313494
0.336310 0.080152 -0.315034
0.334631 0.081180 -0.316571
0.332955 0.082207 -0.318105
0.331282 0.083231 -0.319636
0.329561 0.083231 -0.320082
0.327945 0.085274 -0.322689
0.326227 0.085274 -0.323135
0.324565 0.086292 -0.324657
0.322849 0.086292 -0.325102
0.321191 0.087309 -0.326621
0.319477 0.087309 -0.327066
0.317824 0.088324 -0.328581
0.316111 0.088324 -0.329025
0.323010 0.222653 -0.471141
0.321610 0.224212 -0.473174
0.320213 0.225766 -0.475201
0.318768 0.226541 -0.476406
0.317380 0.228087 -0.478422
0.315941 0.228858 -0.479621
0.314561 0.230396 -0.481627
0.313127 0.231164 -0.482821
0.311696 0.231930 -0.484013
0.310267 0.232695 -0.485203
0.308841 0.233459 -0.486391
0.307292 0.232695 -0.485974
0.305805 0.232695 -0.486360
0.304253 0.231930 -0.485943
0.302764 0.231930 -0.486329
0.301276 0.231930 -0.486715
0.299719 0.231164 -0.486298
0.298229 0.231164 -0.486684
0.296739 0.231164 -0.487070
0.295249 0.231164 -0.487457
0.293686 0.230396 -0.487040
0.292195 0.230396 -0.487426
0.290628 0.229628 -0.487009
0.289136 0.229628 -0.487396
0.287644 0.229628 -0.487783
0.286072 0.228858 -0.487366
0.284579 0.228858 -0.487753
0.283003 0.228087 -0.487335
0.281509 0.228087 -0.487723
0.280014 0.228087 -0.488111
0.278434 0.227314 -0.487693
0.276851 0.226541 -0.487275
0.275354 0.226541 -0.487663
0.273767 0.225766 -0.487244
0.272269 0.225766 -0.487633
0.270771 0.225766 -0.488021
0.269179 0.224989 -0.487602
0.267679 0.224989 -0.487991
0.266084 0.224212 -0.487572
0.264583 0.224212 -0.487961
0.263083 0.224212 -0.488350
0.261482 0.223433 -0.487931
0.259980 0.223433 -0.488320
0.258376 0.222653 -0.487901
0.256873 0.222653 -0.488291
0.255369 0.222653 -0.488680
0.253866 0.222653 -0.489070
0.252256 0.221872 -0.488651
0.250751 0.221872 -0.489041
0.249137 0.221090 -0.488621
0.247631 0.221090 -0.489012
0.246126 0.221090 -0.489402
0.244506 0.220306 -0.488982
0.242999 0.220306 -0.489373
0.241376 0.219521 -0.488953
0.239868 0.219521 -0.489344
0.238360 0.219521 -0.489735
0.236732 0.218735 -0.489315
0.235222 0.218735 -0.489706
0.233590 0.217947 -0.489286
0.232079 0.217947 -0.489678
0.230569 0.217947 -0.490069
0.229058 0.217947 -0.490461
0.227420 0.217158 -0.490041
0.225908 0.217158 -0.490433
0.224265 0.216368 -0.490012
0.222752 0.216368 -0.490405
0.221239 0.216368 -0.490797
0.219592 0.215577 -0.490376
0.218077 0.215577 -0.490769
0.216426 0.214784 -0.490348
0.214910 0.214784 -0.490741
0.213255 0.213990 -0.490320
0.211738 0.213990 -0.490713
0.210078 0.213195 -0.490291
0.208560 0.213195 -0.490685
0.207042 0.213195 -0.491078
0.205377 0.212398 -0.490657
0.203710 0.211600 -0.490234
0.202040 0.210801 -0.489811
0.200518 0.210801 -0.490206
0.198844 0.210000 -0.489782
0.197321 0.210000 -0.490177
0.195798 0.210000 -0.490572
0.194118 0.209198 -0.490148
0.192594 0.209198 -0.490543
0.190910 0.208395 -0.490120
0.189385 0.208395 -0.490515
0.187697 0.207590 -0.490091
0.186171 0.207590 -0.490487
0.184479 0.206785 -0.490062
0.182951 0.206785 -0.490458
0.181423 0.206785 -0.490854
0.179726 0.205977 -0.490430
0.178197 0.205977 -0.490826
0.176496 0.205169 -0.490401
0.174965 0.205169 -0.490798
0.173260 0.204359 -0.490372
0.171728 0.204359 -0.490770
0.170197 0.204359 -0.491167
0.168486 0.203548 -0.490741
0.166953 0.203548 -0.491139
0.165238 0.202735 -0.490713
0.163704 0.202735 -0.491111
0.161985 0.201921 -0.490684
0.160450 0.201921 -0.491083
0.158727 0.201106 -0.490656
0.157190 0.201106 -0.491054
0.155653 0.201106 -0.491453
0.153925 0.200289 -0.491026
0.152387 0.200289 -0.491425
0.150655 0.199471 -0.490998
0.149115 0.199471 -0.491397
0.147379 0.198652 -0.490970
0.145838 0.198652 -0.491369
0.144097 0.197831 -0.490941
0.142555 0.197831 -0.491341
0.140810 0.197009 -0.490913
0.139267 0.197009 -0.491313
0.137518 0.196186 -0.490885
0.135766 0.195361 -0.490455
0.134220 0.195361 -0.490856
0.132464 0.194535 -0.490426
0.130917 0.194535 -0.490828
0.129156 0.193707 -0.490397
0.127608 0.193707 -0.490799
0.125843 0.192878 -0.490369
0.124293 0.192878 -0.490770
0.122743 0.192878 -0.491172
0.120973 0.192048 -0.490742
0.119422 0.192048 -0.491144
0.117648 0.191216 -0.490713
0.116095 0.191216 -0.491115
0.114316 0.190383 -0.490684
0.112763 0.190383 -0.491087
0.110980 0.189549 -0.490655
0.109425 0.189549 -0.491059
0.107637 0.188713 -0.490627
0.106081 0.188713 -0.491030
0.104289 0.187875 -0.490598
0.102732 0.187875 -0.491001
0.100936 0.187036 -0.490569
0.099377 0.187036 -0.490973
0.097818 0.187036 -0.491377
0.096259 0.187036 -0.491781
0.094456 0.186196 -0.491349
0.092896 0.186196 -0.491753
0.090841 0.184512 -0.490482
0.089278 0.184512 -0.490887
0.087465 0.183667 -0.490452
0.085901 0.183667 -0.490858
0.084083 0.182821 -0.490423
0.082262 0.181974 -0.489988
0.080695 0.181974 -0.490394
0.078870 0.181125 -0.489958
0.077301 0.181125 -0.490365
0.075472 0.180275 -0.489928
0.073902 0.180275 -0.490335
0.072068 0.179424 -0.489899
0.070497 0.179424 -0.490306
0.068659 0.178571 -0.489869
0.067086 0.178571 -0.490276
0.065243 0.177716 -0.489839
0.063670 0.177716 -0.490247
0.061822 0.176860 -0.489809
0.060248 0.176860 -0.490217
0.058395 0.176003 -0.489779
0.056819 0.176003 -0.490188
0.054963 0.175144 -0.489749
0.053385 0.175144 -0.490158
0.051524 0.174284 -0.489719
0.049945 0.174284 -0.490128
0.048080 0.173422 -0.489689
0.046500 0.173422 -0.490099
0.044629 0.172559 -0.489659
0.043048 0.172559 -0.490069
0.041173 0.171694 -0.489629
0.039590 0.171694 -0.490039
0.037711 0.170828 -0.489598
0.036127 0.170828 -0.490009
0.034243 0.169960 -0.489568
0.032658 0.169960 -0.489979
0.030769 0.169091 -0.489538
0.029182 0.169091 -0.489949
0.027289 0.168220 -0.489507
0.025701 0.168220 -0.489919
0.023803 0.167348 -0.489477
0.022214 0.167348 -0.489889
0.020311 0.166474 -0.489446
0.018720 0.166474 -0.489859
0.016813 0.165599 -0.489416
0.015221 0.165599 -0.489828
0.013310 0.164722 -0.489385
0.011716 0.164722 -0.489798
0.009800 0.163844 -0.489354
0.008205 0.163844 -0.489768
0.006284 0.162964 -0.489324
0.004687 0.162964 -0.489738
0.002761 0.162083 -0.489293
0.001164 0.162083 -0.489707
-0.000767 0.161200 -0.489262
-0.002366 0.161200 -0.489677
-0.004301 0.160316 -0.489231
-0.005902 0.160316 -0.489646
-0.007841 0.159430 -0.489200
-0.009443 0.159430 -0.489615
-0.011388 0.158543 -0.489169
-0.012991 0.158543 -0.489585
-0.014941 0.157654 -0.489138
-0.016545 0.157654 -0.489554
-0.018499 0.156764 -0.489107
-0.020105 0.156764 -0.489523
-0.022064 0.155872 -0.489076
-0.023672 0.155872 -0.489493
-0.025636 0.154978 -0.489045
-0.027244 0.154978 -0.489462
-0.029213 0.154083 -0.489013
-0.030823 0.154083 -0.489431
-0.032797 0.153186 -0.488982
-0.034408 0.153186 -0.489400
-0.036386 0.152288 -0.488951
-0.038000 0.152288 -0.489369
-0.039983 0.151388 -0.488919
-0.041597 0.151388 -0.489338
-0.043585 0.150487 -0.488888
-0.045201 0.150487 -0.489307
-0.047194 0.149584 -0.488856
-0.048811 0.149584 -0.489275
-0.050809 0.148680 -0.488825
-0.052427 0.148680 -0.489244
-0.054430 0.147774 -0.488793
-0.056050 0.147774 -0.489213
-0.058058 0.146866 -0.488761
-0.059679 0.146866 -0.489182
-0.061692 0.145957 -0.488729
-0.063315 0.145957 -0.489150
-0.065332 0.145046 -0.488698
-0.066957 0.145046 -0.489119
-0.068979 0.144133 -0.488666
-0.070605 0.144133 -0.489087
-0.072632 0.143219 -0.488634
-0.074259 0.143219 -0.489056
-0.076292 0.142304 -0.488602
-0.077921 0.142304 -0.489024
-0.079958 0.141387 -0.488570
-0.081588 0.141387 -0.488992
-0.083630 0.140468 -0.488538
-0.085262 0.140468 -0.488961
-0.087309 0.139547 -0.488505
-0.088943 0.139547 -0.488929
-0.090995 0.138625 -0.488473
-0.092629 0.138625 -0.488897
-0.094687 0.137701 -0.488441
-0.096323 0.137701 -0.488865
-0.098386 0.136776 -0.488409
-0.100023 0.136776 -0.488833
-0.102091 0.135849 -0.488376
-0.103729 0.135849 -0.488801
-0.105802 0.134920 -0.488344
-0.107443 0.134920 -0.488769
-0.109521 0.133990 -0.488311
-0.111162 0.133990 -0.488737
-0.113245 0.133058 -0.488279
-0.114889 0.133058 -0.488705
-0.116977 0.132124 -0.488246
-0.118622 0.132124 -0.488673
-0.120715 0.131189 -0.488213
-0.122361 0.131189 -0.488640
-0.124460 0.130252 -0.488181
-0.126107 0.130252 -0.488608
-0.128211 0.129313 -0.488148
-0.129860 0.129313 -0.488576
-0.131969 0.128373 -0.488115
-0.133620 0.128373 -0.488543
-0.135734 0.127431 -0.488082
-0.137386 0.127431 -0.488511
-0.139506 0.126488 -0.488049
-0.141159 0.126488 -0.488478
-0.143284 0.125542 -0.488016
-0.144939 0.125542 -0.488445
-0.147069 0.124595 -0.487983
-0.148725 0.124595 -0.488413
-0.150861 0.123647 -0.487950
-0.152519 0.123647 -0.488380
-0.154659 0.122696 -0.487917
-0.156319 0.122696 -0.488347
-0.158465 0.121744 -0.487884
-0.160126 0.121744 -0.488314
-0.162277 0.120790 -0.487850
-0.163939 0.120790 -0.488281
-0.166096 0.119835 -0.487817
-0.167760 0.119835 -0.488248
-0.169922 0.118877 -0.487783
-0.171587 0.118877 -0.488215
-0.173755 0.117918 -0.487750
-0.175422 0.117918 -0.488182
-0.177595 0.116958 -0.487716
-0.179263 0.116958 -0.488149
-0.181441 0.115995 -0.487683
-0.183111 0.115995 -0.488116
-0.185295 0.115031 -0.487649
-0.186966 0.115031 -0.488082
-0.189156 0.114065 -0.487615
-0.190828 0.114065 -0.488049
-0.193023 0.113097 -0.487581
-0.194697 0.113097 -0.488016
-0.196898 0.112128 -0.487548
-0.198574 0.112128 -0.487982
-0.200779 0.111157 -0.487514
-0.202457 0.111157 -0.487949
-0.204668 0.110184 -0.487480
-0.206347 0.110184 -0.487915
-0.208564 0.109209 -0.487446
-0.210244 0.109209 -0.487881
-0.212466 0.108233 -0.487411
-0.214148 0.108233 -0.487848
-0.216376 0.107254 -0.487377
-0.218060 0.107254 -0.487814
-0.220293 0.106274 -0.487343
-0.221978 0.106274 -0.487780
-0.224217 0.105293 -0.487309
-0.225904 0.105293 -0.487746
-0.228149 0.104309 -0.487274
-0.229837 0.104309 -0.487712
-0.232650 0.102336 -0.486328
-0.234341 0.102336 -0.486767
-0.236600 0.101347 -0.486293
-0.238293 0.101347 -0.486732
-0.240557 0.100357 -0.486258
-0.242251 0.100357 -0.486697
-0.244521 0.099364 -0.486222
-0.246217 0.099364 -0.486662
-0.248493 0.098369 -0.486187
-0.250190 0.098369 -0.486627
-0.252471 0.097373 -0.486151
-0.254170 0.097373 -0.486592
-0.255869 0.097373 -0.487032
-0.258158 0.096375 -0.486556
-0.260451 0.095375 -0.486080
-0.262153 0.095375 -0.486521
-0.264452 0.094373 -0.486044
-0.266155 0.094373 -0.486486
-0.268460 0.093370 -0.486008
-0.270769 0.092364 -0.485529
-0.272475 0.092364 -0.485972
-0.274790 0.091357 -0.485493
-0.277109 0.090348 -0.485013
-0.278819 0.090348 -0.485457
-0.281143 0.089337 -0.484976
-0.283473 0.088324 -0.484495
-0.285186 0.088324 -0.484939
-0.287520 0.087309 -0.484457
-0.289860 0.086292 -0.483975
-0.292203 0.085274 -0.483491
-0.293921 0.085274 -0.483937
-0.296271 0.084253 -0.483453
-0.298625 0.083231 -0.482968
-0.300983 0.082207 -0.482482
-0.302706 0.082207 -0.482929
-0.305070 0.081180 -0.482443
-0.307438 0.080152 -0.481955
-0.309812 0.079122 -0.481467
-0.312189 0.078090 -0.480978
-0.314571 0.077057 -0.480488
-0.316958 0.076021 -0.479998
-0.319348 0.074983 -0.479506
-0.322406 0.072902 -0.478069
-0.325476 0.070813 -0.476627
-0.328557 0.068716 -0.475179
-0.330975 0.067664 -0.474680
-0.334075 0.065555 -0.473225
-0.337187 0.063438 -0.471764
-0.340311 0.061314 -0.470297
-0.343446 0.059181 -0.468826
-0.347290 0.055966 -0.466378
-0.350454 0.053813 -0.464892
-0.353630 0.051651 -0.463400
-0.356818 0.049481 -0.461902
-0.361451 0.045117 -0.458427
-0.365395 0.041821 -0.455920
-0.371556 0.035172 -0.450394
-0.377047 0.029572 -0.445819
0.416503 -0.005535 -0.205284
0.414318 0.007450 -0.219729
0.412398 0.010942 -0.223960
0.410490 0.014413 -0.228165
0.408593 0.017864 -0.232346
0.406707 0.021295 -0.236502
0.404852 0.023571 -0.239416
0.403022 0.024706 -0.241103
0.401179 0.026968 -0.244000
0.399344 0.029222 -0.246885
0.397516 0.031467 -0.249758
0.395695 0.033704 -0.252621
0.393881 0.035931 -0.255473
0.392081 0.037042 -0.257126
0.390279 0.039257 -0.259961
0.388488 0.040361 -0.261606
0.386698 0.042563 -0.264423
0.384916 0.043661 -0.266059
0.383138 0.045850 -0.268860
0.381364 0.046942 -0.270487
0.379593 0.048031 -0.272111
0.377832 0.050204 -0.274890
0.376070 0.051287 -0.276504
0.374311 0.052368 -0.278116
0.372556 0.053447 -0.279725
0.370817 0.055599 -0.282476
0.369070 0.056672 -0.284076
0.367326 0.057743 -0.285672
0.365604 0.059879 -0.288402
0.363868 0.060943 -0.289990
0.362136 0.062006 -0.291575
0.360430 0.064126 -0.294283
0.358705 0.065182 -0.295860
0.356984 0.066237 -0.297434
0.355267 0.067290 -0.299004
0.353552 0.068341 -0.300572
0.351841 0.069390 -0.302137
0.350133 0.070437 -0.303699
0.348428 0.071482 -0.305258
0.346691 0.071482 -0.305708
0.344991 0.072524 -0.307264
0.343294 0.073565 -0.308816
0.341601 0.074604 -0.310366
0.339910 0.075642 -0.311913
0.338223 0.076677 -0.313457
0.336539 0.077710 -0.314998
0.334811 0.077710 -0.315446
0.333132 0.078741 -0.316984
0.331456 0.079771 -0.318519
0.329782 0.080798 -0.320051
0.328112 0.081824 -0.321580
0.326445 0.082847 -0.323107
0.324782 0.083869 -0.324630
0.323121 0.084889 -0.326151
0.321405 0.084889 -0.326596
0.319748 0.085907 -0.328114
0.318034 0.085907 -0.328558
0.323863 0.207148 -0.456641
0.323249 0.221425 -0.472060
0.321797 0.222205 -0.473272
0.320399 0.223764 -0.475299
0.319006 0.225317 -0.477321
0.317563 0.226091 -0.478523
0.316178 0.227637 -0.480534
0.314741 0.228408 -0.481731
0.313306 0.229177 -0.482925
0.311873 0.229946 -0.484118
0.310443 0.230713 -0.485309
0.309016 0.231479 -0.486498
0.307466 0.230713 -0.486081
0.305977 0.230713 -0.486467
0.304424 0.229946 -0.486050
0.302935 0.229946 -0.486436
0.301445 0.229946 -0.486822
0.299887 0.229177 -0.486405
0.298396 0.229177 -0.486791
0.296834 0.228408 -0.486374
0.295342 0.228408 -0.486761
0.293849 0.228408 -0.487148
0.292357 0.228408 -0.487535
0.290789 0.227637 -0.487117
0.289296 0.227637 -0.487504
0.287802 0.227637 -0.487892
0.286230 0.226865 -0.487474
0.284735 0.226865 -0.487862
0.283158 0.226091 -0.487444
0.281663 0.226091 -0.487832
0.280167 0.226091 -0.488219
0.278585 0.225317 -0.487802
0.277001 0.224541 -0.487383
0.275503 0.224541 -0.487772
0.273915 0.223764 -0.487352
0.272416 0.223764 -0.487741
0.270916 0.223764 -0.488130
0.269323 0.222985 -0.487711
0.267822 0.222985 -0.488100
0.266226 0.222205 -0.487681
0.264724 0.222205 -0.488070
0.263222 0.222205 -0.488460
0.261620 0.221425 -0.488040
0.260117 0.221425 -0.488430
0.258512 0.220642 -0.488010
0.257007 0.220642 -0.488400
0.255503 0.220642 -0.488790
0.253999 0.220642 -0.489181
0.252387 0.219859 -0.488761
0.250881 0.219859 -0.489151
0.249266 0.219074 -0.488732
0.247759 0.219074 -0.489122
0.246252 0.219074 -0.489513
0.244631 0.218288 -0.489093
0.243123 0.218288 -0.489484
0.241499 0.217501 -0.489064
0.239989 0.217501 -0.489455
0.238480 0.217501 -0.489846
0.236850 0.216712 -0.489426
0.235340 0.216712 -0.489818
0.233706 0.215922 -0.489397
0.232194 0.215922 -0.489789
0.230683 0.215922 -0.490181
0.229171 0.215922 -0.490573
0.227531 0.215131 -0.490153
0.226018 0.215131 -0.490545
0.224505 0.215131 -0.490937
0.222860 0.214339 -0.490517
0.221346 0.214339 -0.490909
0.219697 0.213545 -0.490488
0.218181 0.213545 -0.490881
0.216528 0.212750 -0.490460
0.215012 0.212750 -0.490853
0.213355 0.211954 -0.490432
0.211837 0.211954 -0.490826
0.210319 0.211954 -0.491219
0.208657 0.211156 -0.490797
0.207137 0.211156 -0.491191
0.205471 0.210357 -0.490769
0.203802 0.209557 -0.490347
0.202131 0.208755 -0.489923
0.200608 0.208755 -0.490318
0.199085 0.208755 -0.490713
0.197408 0.207952 -0.490290
0.195884 0.207952 -0.490685
0.194203 0.207148 -0.490261
0.192678 0.207148 -0.490657
0.190993 0.206342 -0.490232
0.189466 0.206342 -0.490628
0.187777 0.205535 -0.490204
0.186249 0.205535 -0.490600
0.184721 0.205535 -0.490996
0.183027 0.204727 -0.490571
0.181498 0.204727 -0.490968
0.179799 0.203918 -0.490543
0.178269 0.203918 -0.490940
0.176566 0.203107 -0.490514
0.175035 0.203107 -0.490912
0.173503 0.203107 -0.491309
0.171795 0.202294 -0.490883
0.170262 0.202294 -0.491281
0.168550 0.201481 -0.490855
0.167016 0.201481 -0.491253
0.165300 0.200666 -0.490827
0.163764 0.200666 -0.491225
0.162044 0.199850 -0.490799
0.160507 0.199850 -0.491197
0.158971 0.199850 -0.491596
0.157245 0.199032 -0.491169
0.155707 0.199032 -0.491568
0.153977 0.198213 -0.491141
0.152438 0.198213 -0.491540
0.150704 0.197392 -0.491113
0.149163 0.197392 -0.491512
0.147425 0.196571 -0.491084
0.145883 0.196571 -0.491484
0.144141 0.195748 -0.491056
0.142598 0.195748 -0.491456
0.140852 0.194923 -0.491028
0.139102 0.194097 -0.490599
0.137557 0.194097 -0.490999
0.135803 0.193270 -0.490570
0.134256 0.193270 -0.490971
0.132498 0.192441 -0.490541
0.130950 0.192441 -0.490943
0.129401 0.192441 -0.491344
0.127638 0.191611 -0.490914
0.125872 0.190780 -0.490483
0.124321 0.190780 -0.490885
0.122770 0.190780 -0.491288
0.120998 0.189947 -0.490857
0.119446 0.189947 -0.491259
0.117670 0.189113 -0.490828
0.116116 0.189113 -0.491231
0.114336 0.188277 -0.490800
0.112781 0.188277 -0.491203
0.110996 0.187440 -0.490771
0.109440 0.187440 -0.491174
0.107651 0.186602 -0.490742
0.106094 0.186602 -0.491146
0.104300 0.185762 -0.490713
0.102742 0.185762 -0.491117
0.100944 0.184921 -0.490684
0.099384 0.184921 -0.491089
0.097824 0.184921 -0.491493
0.096264 0.184921 -0.491898
0.094214 0.183234 -0.490626
0.092651 0.183234 -0.491032
0.090841 0.182389 -0.490597
0.089277 0.182389 -0.491003
0.087462 0.181542 -0.490568
0.085643 0.180693 -0.490133
0.084077 0.180693 -0.490539
0.082254 0.179844 -0.490103
0.080686 0.179844 -0.490510
0.078859 0.178992 -0.490074
0.077290 0.178992 -0.490481
0.075458 0.178140 -0.490044
0.073888 0.178140 -0.490452
0.072052 0.177285 -0.490014
0.070480 0.177285 -0.490422
0.068639 0.176430 -0.489985
0.067066 0.176430 -0.490393
0.065221 0.175573 -0.489955
0.063647 0.175573 -0.490363
0.061797 0.174714 -0.489925
0.060221 0.174714 -0.490334
0.058368 0.173854 -0.489895
0.056790 0.173854 -0.490304
0.054932 0.172993 -0.489865
0.053353 0.172993 -0.490275
0.051490 0.172130 -0.489835
0.049910 0.172130 -0.490245
0.048043 0.171266 -0.489805
0.046462 0.171266 -0.490215
0.044590 0.170400 -0.489775
0.043007 0.170400 -0.490186
0.041131 0.169532 -0.489745
0.039546 0.169532 -0.490156
0.037665 0.168664 -0.489715
0.036080 0.168664 -0.490126
0.034194 0.167793 -0.489685
0.032608 0.167793 -0.490096
0.030717 0.166922 -0.489654
0.029129 0.166922 -0.490066
0.027234 0.166048 -0.489624
0.025645 0.166048 -0.490036
0.023745 0.165173 -0.489594
0.022154 0.165173 -0.490006
0.020250 0.164297 -0.489563
0.018658 0.164297 -0.489976
0.016750 0.163419 -0.489533
0.015156 0.163419 -0.489946
0.013243 0.162540 -0.489502
0.011647 0.162540 -0.489916
0.009729 0.161659 -0.489472
0.008133 0.161659 -0.489886
0.006210 0.160777 -0.489441
0.004613 0.160777 -0.489855
0.002685 0.159893 -0.489410
0.001086 0.159893 -0.489825
-0.000846 0.159008 -0.489379
-0.002447 0.159008 -0.489794
-0.004384 0.158121 -0.489349
-0.005985 0.158121 -0.489764
-0.007927 0.157232 -0.489318
-0.009530 0.157232 -0.489733
-0.011477 0.156342 -0.489287
-0.013081 0.156342 -0.489703
-0.015033 0.155451 -0.489256
-0.016639 0.155451 -0.489672
-0.018595 0.154557 -0.489225
-0.020202 0.154557 -0.489642
-0.022163 0.153663 -0.489194
-0.023772 0.153663 -0.489611
-0.025737 0.152767 -0.489163
-0.027347 0.152767 -0.489580
-0.029318 0.151869 -0.489131
-0.030929 0.151869 -0.489549
-0.032905 0.150969 -0.489100
-0.034518 0.150969 -0.489518
-0.036498 0.150068 -0.489069
-0.038112 0.150068 -0.489487
-0.040097 0.149166 -0.489038
-0.041713 0.149166 -0.489457
-0.043703 0.148262 -0.489006
-0.045320 0.148262 -0.489425
-0.047315 0.147356 -0.488975
-0.048933 0.147356 -0.489394
-0.050933 0.146449 -0.488943
-0.052553 0.146449 -0.489363
-0.054557 0.145540 -0.488912
-0.056179 0.145540 -0.489332
-0.058188 0.144630 -0.488880
-0.059811 0.144630 -0.489301
-0.061826 0.143718 -0.488848
-0.063450 0.143718 -0.489269
-0.065470 0.142804 -0.488816
-0.067095 0.142804 -0.489238
-0.069120 0.141889 -0.488785
-0.070747 0.141889 -0.489207
-0.072776 0.140972 -0.488753
-0.074405 0.140972 -0.489175
-0.076439 0.140054 -0.488721
-0.078069 0.140054 -0.489144
-0.080109 0.139134 -0.488689
-0.081740 0.139134 -0.489112
-0.083785 0.138212 -0.488657
-0.085418 0.138212 -0.489080
-0.087467 0.137289 -0.488625
-0.089101 0.137289 -0.489049
-0.091156 0.136364 -0.488593
-0.092792 0.136364 -0.489017
-0.094851 0.135437 -0.488560
-0.096489 0.135437 -0.488985
-0.098553 0.134509 -0.488528
-0.100192 0.134509 -0.488953
-0.102262 0.133579 -0.488496
-0.103902 0.133579 -0.488921
-0.105977 0.132648 -0.488464
-0.107619 0.132648 -0.488889
-0.109699 0.131715 -0.488431
-0.111342 0.131715 -0.488857
-0.113427 0.130780 -0.488399
-0.115072 0.130780 -0.488825
-0.117162 0.129843 -0.488366
-0.118808 0.129843 -0.488793
-0.120903 0.128905 -0.488334
-0.122551 0.128905 -0.488761
-0.124652 0.127965 -0.488301
-0.126301 0.127965 -0.488728
-0.128407 0.127024 -0.488268
-0.130057 0.127024 -0.488696
-0.132168 0.126081 -0.488235
-0.133820 0.126081 -0.488664
-0.135937 0.125136 -0.488203
-0.137590 0.125136 -0.488631
-0.139712 0.124189 -0.488170
-0.141367 0.124189 -0.488599
-0.143494 0.123241 -0.488137
-0.145150 0.123241 -0.488566
-0.147282 0.122291 -0.488104
-0.148940 0.122291 -0.488534
-0.151078 0.121339 -0.488071
-0.152737 0.121339 -0.488501
-0.154880 0.120386 -0.488038
-0.156541 0.120386 -0.488468
-0.158689 0.119431 -0.488004
-0.160351 0.119431 -0.488435
-0.162505 0.118474 -0.487971
-0.164168 0.118474 -0.488403
-0.166327 0.117516 -0.487938
-0.167993 0.117516 -0.488370
-0.170157 0.116556 -0.487904
-0.171824 0.116556 -0.488337
-0.173994 0.115594 -0.487871
-0.175662 0.115594 -0.488304
-0.177837 0.114630 -0.487838
-0.179507 0.114630 -0.488271
-0.181687 0.113665 -0.487804
-0.183359 0.113665 -0.488237
-0.185545 0.112697 -0.487770
-0.187218 0.112697 -0.488204
-0.189409 0.111729 -0.487737
-0.191083 0.111729 -0.488171
-0.193280 0.110758 -0.487703
-0.194956 0.110758 -0.488138
-0.197159 0.109785 -0.487669
-0.198836 0.109785 -0.488104
-0.201044 0.108811 -0.487635
-0.202723 0.108811 -0.488071
-0.204936 0.107835 -0.487601
-0.206617 0.107835 -0.488037
-0.208836 0.106858 -0.487567
-0.210518 0.106858 -0.488004
-0.212742 0.105878 -0.487533
-0.214426 0.105878 -0.487970
-0.216656 0.104897 -0.487499
-0.218341 0.104897 -0.487936
-0.220577 0.103914 -0.487465
-0.222263 0.103914 -0.487903
-0.224505 0.102929 -0.487431
-0.226193 0.102929 -0.487869
-0.229000 0.100954 -0.486485
-0.230691 0.100954 -0.486924
-0.232946 0.099963 -0.486450
-0.234639 0.099963 -0.486889
-0.236900 0.098971 -0.486415
-0.238594 0.098971 -0.486854
-0.240861 0.097977 -0.486380
-0.242557 0.097977 -0.486819
-0.244829 0.096982 -0.486344
-0.246526 0.096982 -0.486784
-0.248804 0.095984 -0.486309
-0.250503 0.095984 -0.486749
-0.252787 0.094985 -0.486273
-0.254488 0.094985 -0.486714
-0.256777 0.093984 -0.486237
-0.258479 0.093984 -0.486679
-0.260774 0.092981 -0.486202
-0.262478 0.092981 -0.486644
-0.264779 0.091976 -0.486166
-0.267085 0.090969 -0.485688
-0.268791 0.090969 -0.486130
-0.271102 0.089960 -0.485651
-0.272811 0.089960 -0.486094
-0.275128 0.088950 -0.485615
-0.277449 0.087937 -0.485135
-0.279161 0.087937 -0.485579
-0.281488 0.086923 -0.485098
-0.283819 0.085907 -0.484617
-0.286155 0.084889 -0.484134
-0.287871 0.084889 -0.484579
-0.290213 0.083869 -0.484096
-0.292559 0.082847 -0.483612
-0.294910 0.081824 -0.483128
-0.296631 0.081824 -0.483574
-0.298987 0.080798 -0.483089
-0.301348 0.079771 -0.482602
-0.303713 0.078741 -0.482115
-0.306083 0.077710 -0.481628
-0.307810 0.077710 -0.482075
-0.310186 0.076677 -0.481587
-0.312566 0.075642 -0.481098
-0.314951 0.074604 -0.480607
-0.317340 0.073565 -0.480116
-0.320394 0.071482 -0.478681
-0.323460 0.069390 -0.477240
-0.326537 0.067290 -0.475793
-0.329626 0.065182 -0.474341
-0.332727 0.063067 -0.472884
-0.335157 0.062006 -0.472381
-0.338277 0.059879 -0.470915
-0.341409 0.057743 -0.469445
-0.344553 0.055599 -0.467968
-0.348407 0.052368 -0.465514
-0.351579 0.050204 -0.464023
-0.354763 0.048031 -0.462526
-0.359388 0.043661 -0.459054
-0.363326 0.040361 -0.456548
-0.368745 0.034819 -0.452029
-0.374956 0.028096 -0.446454
0.414879 -0.004668 -0.209460
0.412772 0.005948 -0.221329
0.410857 0.009444 -0.225555
0.408953 0.012920 -0.229755
0.407061 0.016376 -0.233931
0.405199 0.018668 -0.236859
0.403345 0.020951 -0.239775
0.401499 0.023226 -0.242679
0.399674 0.024360 -0.244362
0.397840 0.026621 -0.247249
0.396013 0.028873 -0.250125
0.394193 0.031117 -0.252989
0.392380 0.033351 -0.255843
0.390574 0.035578 -0.258686
0.388779 0.036688 -0.260335
0.386985 0.038901 -0.263160
0.385199 0.040004 -0.264800
0.383417 0.042205 -0.267609
0.381639 0.043302 -0.269240
0.379870 0.045490 -0.272033
0.378101 0.046581 -0.273655
0.376335 0.047670 -0.275274
0.374582 0.049841 -0.278044
0.372824 0.050923 -0.279654
0.371070 0.052004 -0.281262
0.369320 0.053082 -0.282866
0.367589 0.055233 -0.285608
0.365846 0.056305 -0.287204
0.364107 0.057375 -0.288796
0.362392 0.059510 -0.291517
0.360661 0.060574 -0.293101
0.358934 0.061636 -0.294681
0.357209 0.062696 -0.296259
0.355488 0.063754 -0.297834
0.353799 0.065864 -0.300522
0.352056 0.065864 -0.300975
0.350344 0.066917 -0.302541
0.348636 0.067967 -0.304104
0.346931 0.069015 -0.305664
0.345229 0.070061 -0.307221
0.343531 0.071106 -0.308775
0.341835 0.072148 -0.310326
0.340101 0.072148 -0.310776
0.338411 0.073188 -0.312324
0.336723 0.074227 -0.313869
0.335039 0.075263 -0.315411
0.333358 0.076298 -0.316950
0.331680 0.077330 -0.318487
0.330005 0.078361 -0.320020
0.328333 0.079390 -0.321551
0.326664 0.080417 -0.323079
0.324943 0.080417 -0.323525
0.323336 0.082465 -0.326126
0.321618 0.082465 -0.326571
0.319960 0.083486 -0.328090
0.318244 0.083486 -0.328535
0.324452 0.211510 -0.463465
0.323437 0.219412 -0.472157
0.322035 0.220978 -0.474190
0.320585 0.221758 -0.475398
0.319190 0.223316 -0.477421
0.317746 0.224093 -0.478624
0.316359 0.225643 -0.480637
0.314977 0.227188 -0.482643
0.313485 0.227188 -0.483030
0.312051 0.227958 -0.484223
0.310620 0.228728 -0.485415
0.309191 0.229496 -0.486605
0.307640 0.228728 -0.486188
0.306150 0.228728 -0.486574
0.304596 0.227958 -0.486156
0.303105 0.227958 -0.486543
0.301614 0.227958 -0.486930
0.300055 0.227188 -0.486512
0.298563 0.227188 -0.486899
0.297000 0.226416 -0.486481
0.295506 0.226416 -0.486868
0.294013 0.226416 -0.487256
0.292445 0.225643 -0.486838
0.290950 0.225643 -0.487225
0.289456 0.225643 -0.487613
0.287961 0.225643 -0.488000
0.286387 0.224868 -0.487582
0.284891 0.224868 -0.487970
0.283314 0.224093 -0.487552
0.281817 0.224093 -0.487940
0.280320 0.224093 -0.488329
0.278737 0.223316 -0.487910
0.277152 0.222538 -0.487492
0.275652 0.222538 -0.487880
0.274063 0.221758 -0.487461
0.272562 0.221758 -0.487850
0.271062 0.221758 -0.488239
0.269468 0.220978 -0.487820
0.267966 0.220978 -0.488210
0.266368 0.220196 -0.487790
0.264865 0.220196 -0.488180
0.263362 0.220196 -0.488569
0.261759 0.219412 -0.488150
0.260254 0.219412 -0.488540
0.258648 0.218628 -0.488120
0.257142 0.218628 -0.488510
0.255637 0.218628 -0.488901
0.254131 0.218628 -0.489291
0.252518 0.217842 -0.488871
0.251011 0.217842 -0.489262
0.249394 0.217055 -0.488842
0.247886 0.217055 -0.489233
0.246378 0.217055 -0.489624
0.244756 0.216267 -0.489204
0.243247 0.216267 -0.489595
0.241621 0.215477 -0.489175
0.240111 0.215477 -0.489566
0.238600 0.215477 -0.489958
0.236969 0.214686 -0.489537
0.235458 0.214686 -0.489929
0.233823 0.213894 -0.489508
0.232310 0.213894 -0.489901
0.230797 0.213894 -0.490293
0.229284 0.213894 -0.490685
0.227643 0.213101 -0.490265
0.226128 0.213101 -0.490657
0.224614 0.213101 -0.491050
0.222968 0.212306 -0.490629
0.221452 0.212306 -0.491022
0.219802 0.211510 -0.490601
0.218285 0.211510 -0.490994
0.216631 0.210713 -0.490573
0.215113 0.210713 -0.490966
0.213455 0.209914 -0.490544
0.211936 0.209914 -0.490938
0.210417 0.209914 -0.491332
0.208753 0.209114 -0.490910
0.207233 0.209114 -0.491305
0.205565 0.208313 -0.490882
0.203895 0.207510 -0.490459
0.202222 0.206706 -0.490036
0.200698 0.206706 -0.490431
0.199174 0.206706 -0.490826
0.197496 0.205901 -0.490403
0.195970 0.205901 -0.490798
0.194288 0.205094 -0.490374
0.192761 0.205094 -0.490770
0.191075 0.204286 -0.490345
0.189547 0.204286 -0.490742
0.187857 0.203477 -0.490317
0.186328 0.203477 -0.490713
0.184798 0.203477 -0.491110
0.183103 0.202666 -0.490685
0.181572 0.202666 -0.491082
0.179872 0.201854 -0.490657
0.178341 0.201854 -0.491054
0.176637 0.201041 -0.490628
0.175104 0.201041 -0.491026
0.173571 0.201041 -0.491423
0.171862 0.200226 -0.490997
0.170328 0.200226 -0.491395
0.168614 0.199410 -0.490969
0.167079 0.199410 -0.491367
0.165361 0.198593 -0.490941
0.163825 0.198593 -0.491340
0.162103 0.197774 -0.490913
0.160565 0.197774 -0.491312
0.159027 0.197774 -0.491710
0.157300 0.196954 -0.491284
0.155761 0.196954 -0.491683
0.154221 0.196954 -0.492082
0.152489 0.196133 -0.491655
0.150754 0.195310 -0.491227
0.149212 0.195310 -0.491627
0.147472 0.194486 -0.491199
0.145730 0.193660 -0.490771
0.144185 0.193660 -0.491171
0.142439 0.192833 -0.490742
0.140893 0.192833 -0.491143
0.139142 0.192005 -0.490713
0.137595 0.192005 -0.491115
0.135840 0.191175 -0.490685
0.134292 0.191175 -0.491086
0.132533 0.190344 -0.490656
0.130983 0.190344 -0.491058
0.129433 0.190344 -0.491460
0.127669 0.189512 -0.491029
0.125901 0.188678 -0.490598
0.124349 0.188678 -0.491001
0.122796 0.188678 -0.491403
0.121023 0.187843 -0.490972
0.119470 0.187843 -0.491375
0.117692 0.187006 -0.490944
0.116137 0.187006 -0.491347
0.114355 0.186168 -0.490915
0.112799 0.186168 -0.491319
0.111013 0.185329 -0.490887
0.109456 0.185329 -0.491290
0.107665 0.184488 -0.490858
0.106106 0.184488 -0.491262
0.104312 0.183645 -0.490829
0.102751 0.183645 -0.491234
0.100713 0.181956 -0.489961
0.099150 0.181956 -0.490366
0.097587 0.181956 -0.490771
0.096025 0.181956 -0.491177
0.094217 0.181110 -0.490742
0.092653 0.181110 -0.491148
0.090840 0.180262 -0.490713
0.089025 0.179412 -0.490278
0.087458 0.179412 -0.490684
0.085639 0.178562 -0.490249
0.084071 0.178562 -0.490655
0.082247 0.177709 -0.490219
0.080677 0.177709 -0.490626
0.078849 0.176855 -0.490190
0.077278 0.176855 -0.490597
0.075445 0.176000 -0.490160
0.073873 0.176000 -0.490568
0.072036 0.175144 -0.490131
0.070462 0.175144 -0.490539
0.068620 0.174285 -0.490101
0.067046 0.174285 -0.490509
0.065199 0.173426 -0.490071
0.063623 0.173426 -0.490480
0.061772 0.172565 -0.490042
0.060195 0.172565 -0.490451
0.058340 0.171702 -0.490012
0.056761 0.171702 -0.490421
0.054901 0.170838 -0.489982
0.053321 0.170838 -0.490392
0.051457 0.169973 -0.489952
0.049875 0.169973 -0.490362
0.048006 0.169106 -0.489922
0.046423 0.169106 -0.490332
0.044550 0.168237 -0.489892
0.042966 0.168237 -0.490303
0.041088 0.167367 -0.489862
0.039502 0.167367 -0.490273
0.037620 0.166496 -0.489832
0.036033 0.166496 -0.490243
0.034146 0.165623 -0.489802
0.032557 0.165623 -0.490214
0.030666 0.164749 -0.489771
0.029076 0.164749 -0.490184
0.027180 0.163873 -0.489741
0.025589 0.163873 -0.490154
0.023687 0.162995 -0.489711
0.022095 0.162995 -0.490124
0.020189 0.162116 -0.489680
0.018596 0.162116 -0.490094
0.016685 0.161236 -0.489650
0.015090 0.161236 -0.490064
0.013175 0.160354 -0.489620
0.011579 0.160354 -0.490034
0.009659 0.159470 -0.489589
0.008061 0.159470 -0.490003
0.006137 0.158585 -0.489558
0.004538 0.158585 -0.489973
0.002609 0.157699 -0.489528
0.001008 0.157699 -0.489943
-0.000926 0.156811 -0.489497
-0.002528 0.156811 -0.489913
-0.004466 0.155921 -0.489466
-0.006070 0.155921 -0.489882
-0.008013 0.155030 -0.489436
-0.009618 0.155030 -0.489852
-0.011566 0.154137 -0.489405
-0.013172 0.154137 -0.489821
-0.015125 0.153243 -0.489374
-0.016732 0.153243 -0.489791
-0.018690 0.152347 -0.489343
-0.020299 0.152347 -0.489760
-0.022261 0.151450 -0.489312
-0.023871 0.151450 -0.489729
-0.025839 0.150551 -0.489281
-0.027450 0.150551 -0.489699
-0.029423 0.149651 -0.489250
-0.031036 0.149651 -0.489668
-0.033013 0.148749 -0.489219
-0.034627 0.148749 -0.489637
-0.036609 0.147845 -0.489187
-0.038225 0.147845 -0.489606
-0.040212 0.146940 -0.489156
-0.041829 0.146940 -0.489575
-0.043820 0.146033 -0.489125
-0.045439 0.146033 -0.489544
-0.047436 0.145125 -0.489093
-0.049056 0.145125 -0.489513
-0.051057 0.144215 -0.489062
-0.052679 0.144215 -0.489482
-0.054685 0.143303 -0.489030
-0.056308 0.143303 -0.489451
-0.058319 0.142390 -0.488999
-0.059944 0.142390 -0.489420
-0.061960 0.141475 -0.488967
-0.063586 0.141475 -0.489389
-0.065607 0.140559 -0.488936
-0.067234 0.140559 -0.489358
-0.069261 0.139641 -0.488904
-0.070889 0.139641 -0.489326
-0.072920 0.138721 -0.488872
-0.074551 0.138721 -0.489295
-0.076587 0.137800 -0.488840
-0.078218 0.137800 -0.489263
-0.080260 0.136877 -0.488808
-0.081893 0.136877 -0.489232
-0.083939 0.135953 -0.488776
-0.085573 0.135953 -0.489200
-0.087625 0.135026 -0.488744
-0.089261 0.135026 -0.489169
-0.091317 0.134099 -0.488712
-0.092954 0.134099 -0.489137
-0.095016 0.133169 -0.488680
-0.096655 0.133169 -0.489105
-0.098721 0.132238 -0.488648
-0.100362 0.132238 -0.489073
-0.102433 0.131306 -0.488616
-0.104075 0.131306 -0.489042
-0.106152 0.130371 -0.488584
-0.107795 0.130371 -0.489010
-0.109877 0.129435 -0.488551
-0.111522 0.129435 -0.488978
-0.113609 0.128498 -0.488519
-0.115255 0.128498 -0.488946
-0.117347 0.127558 -0.488486
-0.118995 0.127558 -0.488914
-0.121092 0.126617 -0.488454
-0.122741 0.126617 -0.488881
-0.124844 0.125674 -0.488421
-0.126495 0.125674 -0.488849
-0.128602 0.124730 -0.488389
-0.130254 0.124730 -0.488817
-0.132368 0.123784 -0.488356
-0.134021 0.123784 -0.488785
-0.136140 0.122836 -0.488323
-0.137794 0.122836 -0.488752
-0.139918 0.121887 -0.488290
-0.141575 0.121887 -0.488720
-0.143704 0.120936 -0.488257
-0.145361 0.120936 -0.488687
-0.147496 0.119983 -0.488225
-0.149155 0.119983 -0.488655
-0.151295 0.119028 -0.488192
-0.152956 0.119028 -0.488622
-0.155101 0.118072 -0.488158
-0.156277 0.119028 -0.489484
-0.158913 0.117114 -0.488125
-0.160577 0.117114 -0.488557
-0.162733 0.116154 -0.488092
-0.164398 0.116154 -0.488524
-0.166559 0.115193 -0.488059
-0.168226 0.115193 -0.488491
-0.170392 0.114230 -0.488026
-0.172061 0.114230 -0.488458
-0.174233 0.113265 -0.487992
-0.175902 0.113265 -0.488425
-0.178080 0.112298 -0.487959
-0.179751 0.112298 -0.488392
-0.181934 0.111330 -0.487926
-0.183607 0.111330 -0.488359
-0.185795 0.110360 -0.487892
-0.187469 0.110360 -0.488326
-0.189663 0.109388 -0.487858
-0.191339 0.109388 -0.488293
-0.193538 0.108414 -0.487825
-0.195215 0.108414 -0.488260
-0.197420 0.107439 -0.487791
-0.199099 0.107439 -0.488226
-0.201309 0.106461 -0.487757
-0.202989 0.106461 -0.488193
-0.205205 0.105482 -0.487723
-0.206887 0.105482 -0.488160
-0.209108 0.104502 -0.487690
-0.210792 0.104502 -0.488126
-0.213019 0.103519 -0.487656
-0.214704 0.103519 -0.488093
-0.216936 0.102535 -0.487622
-0.218623 0.102535 -0.488059
-0.220861 0.101549 -0.487587
-0.222549 0.101549 -0.488025
-0.225349 0.099571 -0.486642
-0.227041 0.099571 -0.487081
-0.229292 0.098580 -0.486607
-0.230985 0.098580 -0.487046
-0.233243 0.097586 -0.486572
-0.234937 0.097586 -0.487011
-0.237200 0.096591 -0.486537
-0.238896 0.096591 -0.486976
-0.241165 0.095594 -0.486501
-0.242862 0.095594 -0.486942
-0.245137 0.094595 -0.486466
-0.246836 0.094595 -0.486907
-0.249116 0.093595 -0.486431
-0.250817 0.093595 -0.486872
-0.253103 0.092592 -0.486395
-0.254805 0.092592 -0.486837
-0.257097 0.091588 -0.486360
-0.258801 0.091588 -0.486802
-0.261098 0.090582 -0.486324
-0.262804 0.090582 -0.486766
-0.265107 0.089574 -0.486289
-0.267415 0.088564 -0.485810
-0.269123 0.088564 -0.486253
-0.271437 0.087552 -0.485774
-0.273147 0.087552 -0.486217
-0.275466 0.086538 -0.485737
-0.277790 0.085523 -0.485257
-0.280118 0.084505 -0.484776
-0.281833 0.084505 -0.485220
-0.284167 0.083486 -0.484738
-0.286505 0.082465 -0.484255
-0.288848 0.081442 -0.483772
-0.290567 0.081442 -0.484218
-0.292916 0.080417 -0.483733
-0.295269 0.079390 -0.483248
-0.297626 0.078361 -0.482762
-0.299350 0.078361 -0.483209
-0.301714 0.077330 -0.482723
-0.304082 0.076298 -0.482236
-0.306454 0.075263 -0.481747
-0.308830 0.074227 -0.481258
-0.311211 0.073188 -0.480768
-0.312944 0.073188 -0.481217
-0.315331 0.072148 -0.480727
-0.319041 0.069015 -0.478348
-0.321443 0.067967 -0.477852
-0.324517 0.065864 -0.476407
-0.327602 0.063754 -0.474956
-0.330699 0.061636 -0.473500
-0.333807 0.059510 -0.472039
-0.336928 0.057375 -0.470571
-0.339371 0.056305 -0.470064
-0.342511 0.054159 -0.468588
-0.346360 0.050923 -0.466136
-0.349528 0.048756 -0.464646
-0.352708 0.046581 -0.463151
-0.357325 0.042205 -0.459681
-0.361257 0.038901 -0.457177
-0.366666 0.033351 -0.452661
-0.372127 0.027748 -0.448100
0.413262 -0.003805 -0.213620
0.411226 0.004446 -0.222928
0.409340 0.006782 -0.225904
0.407416 0.011427 -0.231345
0.405549 0.013736 -0.234287
0.403670 0.017182 -0.238441
0.401836 0.018326 -0.240134
0.399990 0.020608 -0.243041
0.398152 0.022881 -0.245936
0.396321 0.025145 -0.248820
0.394506 0.026274 -0.250492
0.392687 0.028525 -0.253359
0.390876 0.030767 -0.256214
0.389071 0.033000 -0.259059
0.387273 0.035225 -0.261893
0.385483 0.036334 -0.263537
0.383698 0.038546 -0.266354
0.381919 0.040749 -0.269160
0.380143 0.041848 -0.270789
0.378370 0.042944 -0.272416
0.376608 0.045131 -0.275199
0.374844 0.046221 -0.276817
0.373082 0.047309 -0.278431
0.371325 0.048395 -0.280043
0.369585 0.050561 -0.282798
0.367836 0.051640 -0.284401
0.366090 0.052718 -0.286001
0.364366 0.054867 -0.288735
0.362629 0.055939 -0.290326
0.360894 0.057008 -0.291913
0.359163 0.058076 -0.293498
0.357435 0.059141 -0.295080
0.355738 0.061266 -0.297782
0.354018 0.062326 -0.299355
0.352302 0.063383 -0.300925
0.350588 0.064439 -0.302493
0.348878 0.065492 -0.304057
0.347171 0.066544 -0.305619
0.345468 0.067593 -0.307177
0.343729 0.067593 -0.307628
0.342030 0.068641 -0.309184
0.340335 0.069687 -0.310736
0.338642 0.070730 -0.312285
0.336953 0.071772 -0.313832
0.335267 0.072812 -0.315375
0.333584 0.073850 -0.316916
0.331904 0.074885 -0.318454
0.330177 0.074885 -0.318902
0.328501 0.075919 -0.320437
0.326829 0.076951 -0.321968
0.325161 0.077982 -0.323497
0.323495 0.079010 -0.325023
0.321832 0.080036 -0.326547
0.320173 0.081060 -0.328067
0.318455 0.081060 -0.328513
0.324889 0.213451 -0.467726
0.323626 0.217397 -0.472254
0.322222 0.218967 -0.474288
0.320823 0.220531 -0.476316
0.319375 0.221312 -0.477522
0.317983 0.222869 -0.479539
0.316541 0.223645 -0.480740
0.315102 0.224421 -0.481938
0.313664 0.225195 -0.483134
0.312229 0.225968 -0.484329
0.310797 0.226739 -0.485522
0.309366 0.227510 -0.486712
0.307815 0.226739 -0.486295
0.306323 0.226739 -0.486681
0.304768 0.225968 -0.486264
0.303276 0.225968 -0.486651
0.301717 0.225195 -0.486232
0.300223 0.225195 -0.486620
0.298730 0.225195 -0.487007
0.297166 0.224421 -0.486589
0.295671 0.224421 -0.486976
0.294177 0.224421 -0.487364
0.292608 0.223645 -0.486945
0.291112 0.223645 -0.487333
0.289616 0.223645 -0.487721
0.288120 0.223645 -0.488109
0.286545 0.222869 -0.487691
0.285048 0.222869 -0.488079
0.283469 0.222091 -0.487661
0.281971 0.222091 -0.488049
0.280473 0.222091 -0.488438
0.278889 0.221312 -0.488019
0.277302 0.220531 -0.487600
0.275802 0.220531 -0.487989
0.274211 0.219750 -0.487570
0.272710 0.219750 -0.487959
0.271208 0.219750 -0.488349
0.269612 0.218967 -0.487929
0.268109 0.218967 -0.488319
0.266510 0.218183 -0.487899
0.265006 0.218183 -0.488289
0.263502 0.218183 -0.488679
0.261898 0.217397 -0.488259
0.260392 0.217397 -0.488650
0.258784 0.216610 -0.488230
0.257277 0.216610 -0.488620
0.255770 0.216610 -0.489011
0.254264 0.216610 -0.489402
0.252649 0.215822 -0.488982
