ply
format ascii 1.0
element vertex 1673
property float x
property float y
property float z
end_header
0.251235 -0.053105 0.102044
0.255235 -0.050418 0.105495
0.256986 -0.049070 0.108404
0.261016 -0.046362 0.111885
0.262781 -0.045004 0.114812
0.264551 -0.043641 0.117746
0.270921 -0.039534 0.121850
0.272710 -0.038158 0.124809
0.272193 -0.038158 0.127184
0.273986 -0.036779 0.130153
0.273468 -0.036779 0.132531
0.275264 -0.035395 0.135510
0.277066 -0.034009 0.138498
0.274226 -0.035395 0.140273
0.273708 -0.035395 0.142654
0.273189 -0.035395 0.145035
0.272670 -0.035395 0.147416
0.272151 -0.035395 0.149797
0.271632 -0.035395 0.152179
0.271113 -0.035395 0.154560
0.270594 -0.035395 0.156941
0.267766 -0.036779 0.158690
0.267248 -0.036779 0.161068
0.266729 -0.036779 0.163447
0.266211 -0.036779 0.165825
0.263392 -0.038158 0.167561
0.265174 -0.036779 0.170581
0.262357 -0.038158 0.172311
0.261839 -0.038158 0.174686
0.261322 -0.038158 0.177061
0.260804 -0.038158 0.179436
0.260286 -0.038158 0.181811
0.259769 -0.038158 0.184187
0.259251 -0.038158 0.186562
0.258734 -0.038158 0.188937
0.260509 -0.036779 0.191984
0.257698 -0.038158 0.193687
0.259473 -0.036779 0.196741
0.258955 -0.036779 0.199119
0.260733 -0.035395 0.202183
0.262516 -0.034009 0.205255
0.261996 -0.034009 0.207639
0.263783 -0.032619 0.210723
0.279570 -0.022788 0.218074
0.281398 -0.021369 0.221202
0.280872 -0.021369 0.223614
0.280347 -0.021369 0.226026
0.282178 -0.019946 0.229169
0.281652 -0.019946 0.231584
0.281125 -0.019946 0.233999
0.282960 -0.018520 0.237156
0.282433 -0.018520 0.239574
0.284272 -0.017090 0.242742
0.283744 -0.017090 0.245163
0.283216 -0.017090 0.247585
0.282689 -0.017090 0.250006
0.284530 -0.015656 0.253192
0.284002 -0.015656 0.255616
0.285848 -0.014219 0.258814
0.285318 -0.014219 0.261241
0.287168 -0.012777 0.264450
0.286638 -0.012777 0.266881
0.288492 -0.011332 0.270101
0.287962 -0.011332 0.272535
0.287431 -0.011332 0.274969
0.289289 -0.009884 0.278204
0.288757 -0.009884 0.280641
0.290619 -0.008431 0.283888
0.292485 -0.006975 0.287143
0.291953 -0.006975 0.289587
0.293823 -0.005515 0.292854
0.293290 -0.005515 0.295301
0.297579 -0.002583 0.299414
0.301890 0.000364 0.303548
0.018094 -0.144975 0.426161
0.010502 -0.149434 0.424811
0.004738 -0.152751 0.424338
-0.002733 -0.157139 0.423006
-0.010137 -0.161487 0.421687
-0.015760 -0.164723 0.421230
-0.021346 -0.167937 0.420775
-0.025201 -0.170068 0.421170
-0.027349 -0.171129 0.422408
-0.031177 -0.173246 0.422798
-0.033311 -0.174301 0.424030
-0.035441 -0.175353 0.425260
-0.037565 -0.176403 0.426487
-0.039685 -0.177451 0.427711
-0.041801 -0.178496 0.428933
-0.042251 -0.178496 0.431000
-0.042702 -0.178496 0.433068
-0.043153 -0.178496 0.435136
-0.041941 -0.177451 0.438061
-0.042392 -0.177451 0.440131
-0.041179 -0.176403 0.443065
-0.041630 -0.176403 0.445137
-0.040414 -0.175353 0.448080
-0.039196 -0.174301 0.451030
-0.037975 -0.173246 0.453986
-0.035070 -0.171129 0.457834
-0.033840 -0.170068 0.460807
-0.032607 -0.169003 0.463787
-0.027979 -0.165797 0.468577
-0.019889 -0.160404 0.475226
0.035278 -0.223955 -0.274799
0.031524 -0.225847 -0.272963
0.029438 -0.226789 -0.271065
0.025707 -0.228669 -0.269242
0.021992 -0.230541 -0.267427
0.019928 -0.231474 -0.265545
0.016236 -0.233334 -0.263743
0.014184 -0.234261 -0.261871
0.012136 -0.235187 -0.260002
0.010092 -0.236110 -0.258137
0.009668 -0.236110 -0.256192
0.009244 -0.236110 -0.254247
0.007206 -0.237031 -0.252391
0.006782 -0.237031 -0.250447
0.006359 -0.237031 -0.248504
0.004325 -0.237951 -0.246655
0.003902 -0.237951 -0.244714
0.003479 -0.237951 -0.242773
0.001451 -0.238868 -0.240932
0.001028 -0.238868 -0.238993
0.002210 -0.237951 -0.236950
0.001787 -0.237951 -0.235009
-0.000240 -0.238868 -0.233176
-0.000662 -0.238868 -0.231237
-0.001085 -0.238868 -0.229298
-0.001508 -0.238868 -0.227359
-0.001930 -0.238868 -0.225420
-0.002353 -0.238868 -0.223481
-0.002775 -0.238868 -0.221542
-0.004795 -0.239784 -0.219725
-0.005217 -0.239784 -0.217788
-0.005640 -0.239784 -0.215851
-0.006062 -0.239784 -0.213914
-0.006484 -0.239784 -0.211977
-0.006906 -0.239784 -0.210040
-0.007328 -0.239784 -0.208103
-0.009341 -0.240698 -0.206302
-0.009763 -0.240698 -0.204367
-0.010185 -0.240698 -0.202431
-0.010607 -0.240698 -0.200496
-0.011028 -0.240698 -0.198561
-0.011450 -0.240698 -0.196626
-0.011872 -0.240698 -0.194691
-0.012294 -0.240698 -0.192756
-0.012715 -0.240698 -0.190821
-0.013137 -0.240698 -0.188886
-0.013559 -0.240698 -0.186951
-0.013980 -0.240698 -0.185016
-0.014402 -0.240698 -0.183081
-0.014824 -0.240698 -0.181146
-0.015246 -0.240698 -0.179211
-0.015667 -0.240698 -0.177276
-0.016089 -0.240698 -0.175341
-0.016511 -0.240698 -0.173406
-0.015350 -0.239784 -0.171300
-0.015772 -0.239784 -0.169363
-0.016194 -0.239784 -0.167426
-0.015031 -0.238868 -0.165311
-0.015454 -0.238868 -0.163372
-0.015877 -0.238868 -0.161432
-0.016299 -0.238868 -0.159493
-0.015135 -0.237951 -0.157368
-0.015558 -0.237951 -0.155427
-0.014392 -0.237031 -0.153295
-0.014816 -0.237031 -0.151352
-0.013648 -0.236110 -0.149213
-0.012478 -0.235187 -0.147070
-0.011305 -0.234261 -0.144923
-0.010130 -0.233334 -0.142771
-0.008952 -0.232405 -0.140615
-0.007772 -0.231474 -0.138454
-0.006590 -0.230541 -0.136289
-0.005405 -0.229606 -0.134119
-0.004217 -0.228669 -0.131944
-0.003027 -0.227730 -0.129765
-0.001834 -0.226789 -0.127581
-0.000639 -0.225847 -0.125393
0.002188 -0.223955 -0.122975
0.005027 -0.222055 -0.120546
0.007879 -0.220148 -0.118107
0.012395 -0.217271 -0.115422
0.015277 -0.215343 -0.112959
0.019841 -0.212436 -0.110243
0.022755 -0.210487 -0.107756
0.025681 -0.208530 -0.105258
0.030313 -0.205578 -0.102497
0.033271 -0.203600 -0.099974
0.039667 -0.199618 -0.096921
0.044390 -0.196609 -0.094106
0.052628 -0.191549 -0.090735
0.059193 -0.187462 -0.087601
0.064043 -0.184373 -0.084717
0.070710 -0.180222 -0.081532
0.081049 -0.173926 -0.077743
0.154378 -0.130860 -0.063787
0.153903 -0.130860 -0.061611
0.155408 -0.129704 -0.059112
0.154933 -0.129704 -0.056933
0.156441 -0.128546 -0.054425
0.157952 -0.127385 -0.051911
0.157476 -0.127385 -0.049727
0.158990 -0.126221 -0.047205
0.158514 -0.126221 -0.045019
0.160031 -0.125054 -0.042488
0.161552 -0.123885 -0.039951
0.161074 -0.123885 -0.037760
0.160596 -0.123885 -0.035568
0.162120 -0.122713 -0.033020
0.161641 -0.122713 -0.030826
0.165177 -0.120361 -0.027906
0.166710 -0.119180 -0.025340
0.168248 -0.117997 -0.022768
0.169789 -0.116811 -0.020190
0.171334 -0.115622 -0.017606
0.172883 -0.114431 -0.015016
0.172400 -0.114431 -0.012804
0.173952 -0.113237 -0.010205
0.175507 -0.112039 -0.007599
0.175024 -0.112039 -0.005382
0.176582 -0.110839 -0.002768
0.178144 -0.109636 -0.000148
0.181765 -0.107222 0.002883
0.183339 -0.106011 0.005520
0.184917 -0.104796 0.008163
0.186498 -0.103579 0.010812
0.190161 -0.101135 0.013887
0.191754 -0.099909 0.016553
0.193351 -0.098680 0.019225
0.194952 -0.097448 0.021903
0.196557 -0.096213 0.024588
0.198166 -0.094975 0.027279
0.199779 -0.093734 0.029976
0.201395 -0.092490 0.032681
0.203016 -0.091243 0.035391
0.208891 -0.087484 0.039021
0.210528 -0.086225 0.041752
0.212170 -0.084963 0.044491
0.215962 -0.082430 0.047705
0.217616 -0.081158 0.050461
0.221436 -0.078606 0.053702
0.223103 -0.077325 0.056475
0.224774 -0.076041 0.059255
0.226449 -0.074754 0.062042
0.230314 -0.072170 0.065331
0.232002 -0.070873 0.068135
0.233695 -0.069574 0.070947
0.237597 -0.066964 0.074275
0.239302 -0.065655 0.077104
0.241012 -0.064342 0.079941
0.242726 -0.063026 0.082785
0.246675 -0.060384 0.086163
0.248403 -0.059058 0.089025
0.250135 -0.057728 0.091894
0.251871 -0.056396 0.094771
0.253612 -0.055060 0.097654
0.257618 -0.052378 0.101095
0.259372 -0.051032 0.103998
0.263408 -0.048329 0.107468
0.267464 -0.045614 0.110955
0.271541 -0.042884 0.114460
0.271024 -0.042884 0.116829
0.272811 -0.041514 0.119777
0.274603 -0.040140 0.122733
0.274085 -0.040140 0.125108
0.275881 -0.038763 0.128075
0.277681 -0.037383 0.131048
0.279485 -0.035999 0.134030
0.278966 -0.035999 0.136414
0.280774 -0.034611 0.139406
0.277926 -0.035999 0.141183
0.277407 -0.035999 0.143567
0.276887 -0.035999 0.145951
0.276367 -0.035999 0.148335
0.273529 -0.037383 0.150098
0.273010 -0.037383 0.152479
0.272491 -0.037383 0.154860
0.271972 -0.037383 0.157241
0.271453 -0.037383 0.159622
0.270934 -0.037383 0.162004
0.270415 -0.037383 0.164385
0.269896 -0.037383 0.166766
0.269377 -0.037383 0.169147
0.271171 -0.035999 0.172177
0.270651 -0.035999 0.174561
0.272449 -0.034611 0.177602
0.271929 -0.034611 0.179989
0.273731 -0.033220 0.183041
0.275537 -0.031825 0.186101
0.275016 -0.031825 0.188494
0.279164 -0.029025 0.192243
0.278641 -0.029025 0.194643
0.280461 -0.027620 0.197729
0.279937 -0.027620 0.200131
0.279414 -0.027620 0.202534
0.278890 -0.027620 0.204937
0.280712 -0.026211 0.208040
0.280188 -0.026211 0.210446
0.279664 -0.026211 0.212851
0.281490 -0.024798 0.215969
0.280965 -0.024798 0.218378
0.280440 -0.024798 0.220786
0.282269 -0.023382 0.223918
0.281743 -0.023382 0.226330
0.281217 -0.023382 0.228742
0.283050 -0.021962 0.231888
0.282523 -0.021962 0.234303
0.281997 -0.021962 0.236718
0.283833 -0.020538 0.239879
0.283306 -0.020538 0.242297
0.285146 -0.019110 0.245469
0.284618 -0.019110 0.247890
0.284090 -0.019110 0.250311
0.285934 -0.017679 0.253498
0.285405 -0.017679 0.255922
0.287253 -0.016245 0.259120
0.286724 -0.016245 0.261548
0.288575 -0.014806 0.264757
0.288045 -0.014806 0.267188
0.287516 -0.014806 0.269618
0.289371 -0.013364 0.272842
0.288840 -0.013364 0.275276
0.288310 -0.013364 0.277710
0.290168 -0.011918 0.280949
0.292031 -0.010468 0.284196
0.293900 -0.009014 0.287452
0.293367 -0.009014 0.289895
0.295239 -0.007557 0.293163
0.294706 -0.007557 0.295609
0.296583 -0.006096 0.298888
0.303314 -0.001689 0.303859
0.317478 0.007230 0.311439
0.007643 -0.152319 0.434857
0.000142 -0.156719 0.433475
-0.005554 -0.159992 0.432974
-0.012937 -0.164323 0.431612
-0.020254 -0.168615 0.430261
-0.025812 -0.171809 0.429778
-0.029648 -0.173926 0.430151
-0.031786 -0.174981 0.431377
-0.033920 -0.176034 0.432600
-0.036048 -0.177084 0.433820
-0.038172 -0.178132 0.435037
-0.040292 -0.179178 0.436252
-0.039076 -0.178132 0.439182
-0.039527 -0.178132 0.441254
-0.038309 -0.177084 0.444193
-0.038761 -0.177084 0.446267
-0.037541 -0.176034 0.449215
-0.036318 -0.174981 0.452169
-0.035092 -0.173926 0.455129
-0.033863 -0.172868 0.458097
-0.030943 -0.170746 0.461962
-0.026309 -0.167546 0.466746
-0.018210 -0.162163 0.473385
0.296172 -0.077957 -0.261942
0.035560 -0.225601 -0.270607
0.033466 -0.226546 -0.268707
0.031376 -0.227489 -0.266812
0.025988 -0.230306 -0.265072
0.023915 -0.231241 -0.263188
0.021846 -0.232175 -0.261308
0.018146 -0.234035 -0.259514
0.016090 -0.234963 -0.257644
0.014038 -0.235888 -0.255778
0.011990 -0.236812 -0.253915
0.011566 -0.236812 -0.251968
0.011141 -0.236812 -0.250021
0.009098 -0.237733 -0.248167
0.008674 -0.237733 -0.246222
0.008251 -0.237733 -0.244277
0.006213 -0.238653 -0.242430
0.005789 -0.238653 -0.240487
0.005366 -0.238653 -0.238544
0.004943 -0.238653 -0.236601
0.006131 -0.237733 -0.234551
0.004096 -0.238653 -0.232715
0.003672 -0.238653 -0.230772
0.003249 -0.238653 -0.228829
0.002825 -0.238653 -0.226886
0.002402 -0.238653 -0.224943
0.000372 -0.239571 -0.223118
-0.000051 -0.239571 -0.221177
-0.000474 -0.239571 -0.219236
-0.000897 -0.239571 -0.217295
-0.001320 -0.239571 -0.215354
-0.001743 -0.239571 -0.213413
-0.002166 -0.239571 -0.211472
-0.004189 -0.240487 -0.209663
-0.004611 -0.240487 -0.207724
-0.005034 -0.240487 -0.205785
-0.005457 -0.240487 -0.203846
-0.005879 -0.240487 -0.201907
-0.006302 -0.240487 -0.199968
-0.006724 -0.240487 -0.198029
-0.007147 -0.240487 -0.196090
-0.007570 -0.240487 -0.194151
-0.009584 -0.241401 -0.192362
-0.010007 -0.241401 -0.190425
-0.010429 -0.241401 -0.188488
-0.010851 -0.241401 -0.186551
-0.011273 -0.241401 -0.184614
-0.011695 -0.241401 -0.182677
-0.012118 -0.241401 -0.180740
-0.012540 -0.241401 -0.178803
-0.012962 -0.241401 -0.176866
-0.011796 -0.240487 -0.174761
-0.012218 -0.240487 -0.172822
-0.012641 -0.240487 -0.170883
-0.013064 -0.240487 -0.168944
-0.013486 -0.240487 -0.167005
-0.012319 -0.239571 -0.164887
-0.012742 -0.239571 -0.162946
-0.011574 -0.238653 -0.160822
-0.011997 -0.238653 -0.158879
-0.012421 -0.238653 -0.156936
-0.011250 -0.237733 -0.154803
-0.011674 -0.237733 -0.152858
-0.010502 -0.236812 -0.150719
-0.009327 -0.235888 -0.148575
-0.008150 -0.234963 -0.146427
-0.006970 -0.234035 -0.144275
-0.005788 -0.233106 -0.142118
-0.004603 -0.232175 -0.139956
-0.003416 -0.231241 -0.137790
-0.002227 -0.230306 -0.135620
-0.001035 -0.229369 -0.133444
0.000160 -0.228430 -0.131265
0.001357 -0.227489 -0.129080
0.002557 -0.226546 -0.126891
0.005394 -0.224654 -0.124473
0.008243 -0.222753 -0.122045
0.011104 -0.220845 -0.119607
0.013978 -0.218929 -0.117158
0.018528 -0.216039 -0.114461
0.021433 -0.214102 -0.111988
0.026031 -0.211181 -0.109261
0.028967 -0.209224 -0.106763
0.035317 -0.205283 -0.103753
0.041723 -0.201308 -0.100716
0.046452 -0.198304 -0.097913
0.054701 -0.193254 -0.094563
0.059515 -0.190198 -0.091715
0.066132 -0.186091 -0.088575
0.074599 -0.180906 -0.085128
0.159043 -0.131523 -0.069730
0.158568 -0.131523 -0.067551
0.158094 -0.131523 -0.065372
0.159605 -0.130366 -0.062874
0.159130 -0.130366 -0.060693
0.160644 -0.129207 -0.058186
0.160168 -0.129207 -0.056003
0.159692 -0.129207 -0.053819
0.161209 -0.128046 -0.051301
0.162729 -0.126881 -0.048778
0.164253 -0.125714 -0.046248
0.163775 -0.125714 -0.044057
0.165302 -0.124544 -0.041519
0.164824 -0.124544 -0.039325
0.164346 -0.124544 -0.037131
0.165875 -0.123371 -0.034582
0.167408 -0.122196 -0.032027
0.168945 -0.121018 -0.029466
0.170485 -0.119837 -0.026899
0.172029 -0.118653 -0.024326
0.173576 -0.117466 -0.021746
0.175127 -0.116277 -0.019161
0.176682 -0.115085 -0.016569
0.178241 -0.113890 -0.013972
0.179803 -0.112692 -0.011368
0.179319 -0.112692 -0.009148
0.180884 -0.111491 -0.006535
0.180400 -0.111491 -0.004313
0.181968 -0.110288 -0.001691
0.183540 -0.109081 0.000937
0.187183 -0.106660 0.003978
0.188767 -0.105445 0.006622
0.192435 -0.103006 0.009688
0.194031 -0.101782 0.012348
0.195631 -0.100555 0.015015
0.197235 -0.099325 0.017688
0.198842 -0.098093 0.020368
0.200454 -0.096857 0.023054
0.202069 -0.095618 0.025746
0.203689 -0.094377 0.028445
0.205312 -0.093132 0.031151
0.211195 -0.089380 0.034765
0.212836 -0.088123 0.037491
0.214480 -0.086863 0.040225
0.216128 -0.085600 0.042964
0.219935 -0.083065 0.046179
0.223760 -0.080518 0.049409
0.225430 -0.079239 0.052177
0.227104 -0.077957 0.054952
0.228782 -0.076673 0.057733
0.232653 -0.074094 0.061012
0.234344 -0.072799 0.063811
0.236039 -0.071502 0.066617
0.239947 -0.068897 0.069935
0.241656 -0.067590 0.072759
0.243368 -0.066280 0.075590
0.245085 -0.064966 0.078428
0.249040 -0.062329 0.081795
0.250771 -0.061005 0.084652
0.252506 -0.059678 0.087516
0.254245 -0.058348 0.090387
0.255989 -0.057015 0.093265
0.260000 -0.054338 0.096695
0.264033 -0.051647 0.100142
0.270377 -0.047586 0.104164
0.272159 -0.046225 0.107089
0.271643 -0.046225 0.109455
0.273429 -0.044861 0.112390
0.275219 -0.043494 0.115332
0.274702 -0.043494 0.117705
0.276495 -0.042123 0.120658
0.278294 -0.040748 0.123618
0.277776 -0.040748 0.125997
0.279578 -0.039370 0.128968
0.281385 -0.037989 0.131947
0.280865 -0.037989 0.134331
0.282676 -0.036603 0.137320
0.282156 -0.036603 0.139707
0.279307 -0.037989 0.141483
0.281116 -0.036603 0.144482
0.280595 -0.036603 0.146869
0.280075 -0.036603 0.149256
0.279555 -0.036603 0.151644
0.279034 -0.036603 0.154031
0.280845 -0.035215 0.157049
0.280324 -0.035215 0.159440
0.279803 -0.035215 0.161830
0.279282 -0.035215 0.164220
0.278761 -0.035215 0.166611
0.280574 -0.033823 0.169649
0.280052 -0.033823 0.172042
0.279531 -0.033823 0.174436
0.279009 -0.033823 0.176829
0.278488 -0.033823 0.179222
0.280302 -0.032427 0.182281
0.279780 -0.032427 0.184677
0.281599 -0.031028 0.187747
0.281076 -0.031028 0.190146
0.280553 -0.031028 0.192546
0.280030 -0.031028 0.194945
0.279507 -0.031028 0.197345
0.281328 -0.029625 0.200435
0.280804 -0.029625 0.202837
0.280281 -0.029625 0.205240
0.279757 -0.029625 0.207642
0.281581 -0.028218 0.210749
0.281056 -0.028218 0.213155
0.280532 -0.028218 0.215561
0.282359 -0.026808 0.218682
0.281834 -0.026808 0.221090
0.281309 -0.026808 0.223499
0.283139 -0.025394 0.226635
0.282613 -0.025394 0.229046
0.282088 -0.025394 0.231458
0.283921 -0.023977 0.234608
0.283395 -0.023977 0.237023
0.285233 -0.022556 0.240184
0.284706 -0.022556 0.242602
0.284179 -0.022556 0.245020
0.283652 -0.022556 0.247438
0.285492 -0.021131 0.250617
0.284964 -0.021131 0.253038
0.286809 -0.019703 0.256228
0.286280 -0.019703 0.258653
0.288129 -0.018270 0.261854
0.287600 -0.018270 0.264281
0.289452 -0.016835 0.267494
0.288923 -0.016835 0.269925
0.288393 -0.016835 0.272356
0.290249 -0.015395 0.275583
0.289719 -0.015395 0.278017
0.291579 -0.013952 0.281256
0.293444 -0.012504 0.284504
0.292912 -0.012504 0.286944
0.294781 -0.011053 0.290203
0.296656 -0.009599 0.293471
0.296122 -0.009599 0.295918
0.298001 -0.008140 0.299197
0.302308 -0.005212 0.303326
0.316445 0.003667 0.310892
-0.002689 -0.159579 0.443453
-0.010101 -0.163921 0.442040
-0.017447 -0.168225 0.440640
-0.023027 -0.171427 0.440121
-0.026878 -0.173550 0.440472
-0.030711 -0.175663 0.440821
-0.032848 -0.176716 0.442035
-0.033302 -0.176716 0.444114
-0.035433 -0.177767 0.445323
-0.035886 -0.177767 0.447400
-0.034661 -0.176716 0.450352
-0.035114 -0.176716 0.452431
-0.032203 -0.174608 0.456276
-0.030970 -0.173550 0.459247
-0.024639 -0.169294 0.464914
-0.016531 -0.163921 0.471543
0.287498 -0.084972 -0.257452
0.037511 -0.226301 -0.266340
0.035412 -0.227246 -0.264443
0.031657 -0.229131 -0.262628
0.027918 -0.231008 -0.260822
0.025841 -0.231943 -0.258940
0.022125 -0.233808 -0.257147
0.020060 -0.234738 -0.255275
0.018000 -0.235665 -0.253408
0.015944 -0.236591 -0.251544
0.013892 -0.237515 -0.249684
0.013467 -0.237515 -0.247735
0.013042 -0.237515 -0.245786
0.010995 -0.238437 -0.243934
0.010571 -0.238437 -0.241987
0.010146 -0.238437 -0.240040
0.008105 -0.239357 -0.238196
0.009298 -0.238437 -0.236146
0.008873 -0.238437 -0.234199
0.008449 -0.238437 -0.232252
0.006409 -0.239357 -0.230416
0.005985 -0.239357 -0.228471
0.005561 -0.239357 -0.226526
0.005137 -0.239357 -0.224580
0.004713 -0.239357 -0.222635
0.004289 -0.239357 -0.220690
0.003865 -0.239357 -0.218745
0.003441 -0.239357 -0.216800
0.003017 -0.239357 -0.214855
0.000985 -0.240275 -0.213039
0.000562 -0.240275 -0.211096
0.000138 -0.240275 -0.209153
-0.000285 -0.240275 -0.207210
-0.000709 -0.240275 -0.205267
-0.001132 -0.240275 -0.203324
-0.001556 -0.240275 -0.201381
-0.003581 -0.241191 -0.199581
-0.004004 -0.241191 -0.197640
-0.004427 -0.241191 -0.195699
-0.004850 -0.241191 -0.193758
-0.005273 -0.241191 -0.191817
-0.005696 -0.241191 -0.189876
-0.006119 -0.241191 -0.187935
-0.006542 -0.241191 -0.185994
-0.006965 -0.241191 -0.184053
-0.008983 -0.242105 -0.182272
-0.009406 -0.242105 -0.180333
-0.009828 -0.242105 -0.178394
-0.008658 -0.241191 -0.176288
-0.009081 -0.241191 -0.174347
-0.009504 -0.241191 -0.172406
-0.009927 -0.241191 -0.170465
-0.008755 -0.240275 -0.168349
-0.009178 -0.240275 -0.166406
-0.009602 -0.240275 -0.164463
-0.008429 -0.239357 -0.162338
-0.008853 -0.239357 -0.160393
-0.009277 -0.239357 -0.158448
-0.008102 -0.238437 -0.156315
-0.008526 -0.238437 -0.154368
-0.007349 -0.237515 -0.152228
-0.006170 -0.236591 -0.150084
-0.004988 -0.235665 -0.147935
-0.003804 -0.234738 -0.145782
-0.002617 -0.233808 -0.143624
-0.001428 -0.232877 -0.141462
-0.000236 -0.231943 -0.139295
0.002583 -0.230070 -0.136913
0.003783 -0.229131 -0.134735
0.004985 -0.228190 -0.132552
0.004556 -0.228190 -0.130582
0.005760 -0.227246 -0.128392
0.008607 -0.225354 -0.125975
0.009819 -0.224404 -0.123774
0.014337 -0.221544 -0.121110
0.017220 -0.219627 -0.118661
0.021786 -0.216737 -0.115967
0.024700 -0.214799 -0.113494
0.031005 -0.210899 -0.110526
0.037364 -0.206966 -0.107531
0.042059 -0.203993 -0.104762
0.048514 -0.200000 -0.101720
0.053281 -0.196982 -0.098911
0.061595 -0.191908 -0.095555
0.068221 -0.187809 -0.092432
0.161729 -0.133341 -0.075990
0.161254 -0.133341 -0.073812
0.162769 -0.132187 -0.071323
0.162294 -0.132187 -0.069142
0.163812 -0.131030 -0.066646
0.163336 -0.131030 -0.064462
0.164857 -0.129870 -0.061957
0.164380 -0.129870 -0.059770
0.165904 -0.128708 -0.057257
0.165427 -0.128708 -0.055068
0.164950 -0.128708 -0.052879
0.166477 -0.127543 -0.050355
0.168007 -0.126375 -0.047824
0.167528 -0.126375 -0.045630
0.169062 -0.125205 -0.043091
0.168583 -0.125205 -0.040895
0.170119 -0.124031 -0.038347
0.169640 -0.124031 -0.036148
0.171179 -0.122855 -0.033592
0.172722 -0.121676 -0.031029
0.174268 -0.120495 -0.028461
0.175818 -0.119310 -0.025887
0.177372 -0.118123 -0.023306
0.178929 -0.116933 -0.020719
0.180491 -0.115740 -0.018127
0.184108 -0.113346 -0.015145
0.183624 -0.113346 -0.012923
0.185196 -0.112145 -0.010311
0.184711 -0.112145 -0.008086
0.186287 -0.110941 -0.005466
0.185801 -0.110941 -0.003238
0.189449 -0.108524 -0.000207
0.191036 -0.107311 0.002432
0.194709 -0.104876 0.005488
0.196308 -0.103655 0.008143
0.197911 -0.102430 0.010805
0.199517 -0.101203 0.013473
0.201128 -0.099972 0.016148
0.202742 -0.098739 0.018829
0.204360 -0.097503 0.021516
0.205982 -0.096263 0.024210
0.207608 -0.095021 0.026911
0.213500 -0.091275 0.030509
0.215143 -0.090021 0.033230
0.216790 -0.088763 0.035958
0.218442 -0.087503 0.038693
0.222254 -0.084972 0.041897
0.223918 -0.083702 0.044649
0.225586 -0.082429 0.047407
0.229434 -0.079874 0.050649
0.231115 -0.078591 0.053425
0.234992 -0.076017 0.056693
0.236686 -0.074725 0.059487
0.238384 -0.073430 0.062288
0.240086 -0.072132 0.065096
0.244009 -0.069525 0.068413
0.245725 -0.068217 0.071239
0.247445 -0.066906 0.074072
0.249169 -0.065592 0.076912
0.253139 -0.062953 0.080279
0.254877 -0.061628 0.083138
0.256619 -0.060301 0.086003
0.260628 -0.057635 0.089411
0.262383 -0.056297 0.092295
0.270995 -0.050913 0.096824
0.272775 -0.049558 0.099736
0.272260 -0.049558 0.102099
0.274044 -0.048200 0.105021
0.273528 -0.048200 0.107387
0.275316 -0.046838 0.110320
0.277109 -0.045473 0.113260
0.276592 -0.045473 0.115632
0.278388 -0.044105 0.118582
0.280189 -0.042733 0.121540
0.279671 -0.042733 0.123918
0.281475 -0.041357 0.126887
0.283285 -0.039978 0.129863
0.285099 -0.038596 0.132847
0.284579 -0.038596 0.135234
0.286397 -0.037210 0.138229
0.285876 -0.037210 0.140619
0.285355 -0.037210 0.143009
0.284834 -0.037210 0.145399
0.284313 -0.037210 0.147790
0.281457 -0.038596 0.149558
0.280936 -0.038596 0.151945
0.280416 -0.038596 0.154332
0.279896 -0.038596 0.156719
0.281708 -0.037210 0.159741
0.281187 -0.037210 0.162132
0.280666 -0.037210 0.164522
0.280145 -0.037210 0.166912
0.281960 -0.035820 0.169951
0.281438 -0.035820 0.172344
0.280916 -0.035820 0.174738
0.280395 -0.035820 0.177131
0.279873 -0.035820 0.179524
0.281690 -0.034427 0.182583
0.281167 -0.034427 0.184980
0.282988 -0.033030 0.188050
0.282465 -0.033030 0.190449
0.281942 -0.033030 0.192849
0.281419 -0.033030 0.195248
0.280896 -0.033030 0.197648
0.280373 -0.033030 0.200047
0.282195 -0.031630 0.203140
0.281672 -0.031630 0.205543
0.281148 -0.031630 0.207945
0.282973 -0.030226 0.211053
0.282449 -0.030226 0.213458
0.281925 -0.030226 0.215864
0.281400 -0.030226 0.218270
0.283228 -0.028818 0.221394
0.282703 -0.028818 0.223803
0.282178 -0.028818 0.226212
0.284010 -0.027407 0.229351
0.283484 -0.027407 0.231763
0.282958 -0.027407 0.234175
0.284793 -0.025993 0.237328
0.284266 -0.025993 0.239743
0.286105 -0.024574 0.242907
0.285578 -0.024574 0.245325
0.285051 -0.024574 0.247743
0.286893 -0.023152 0.250922
0.286366 -0.023152 0.253344
0.288212 -0.021726 0.256534
0.287684 -0.021726 0.258958
0.289534 -0.020296 0.262160
0.289005 -0.020296 0.264588
0.288476 -0.020296 0.267015
0.290330 -0.018863 0.270232
0.289800 -0.018863 0.272662
0.289270 -0.018863 0.275093
0.291127 -0.017426 0.278324
0.292989 -0.015985 0.281564
0.294856 -0.014541 0.284812
0.294324 -0.014541 0.287252
0.296196 -0.013093 0.290512
0.295663 -0.013093 0.292955
0.297539 -0.011641 0.296227
0.299419 -0.010185 0.299507
0.303730 -0.007262 0.303636
0.312958 -0.001369 0.309491
-0.014627 -0.167833 0.451066
-0.018518 -0.169975 0.451394
-0.022392 -0.172109 0.451721
-0.027944 -0.175291 0.451166
-0.031775 -0.177400 0.451492
-0.032229 -0.177400 0.453573
-0.030997 -0.176347 0.456538
0.292814 -0.084341 -0.254677
0.281129 -0.090663 -0.252902
0.039466 -0.227003 -0.262064
0.035694 -0.228892 -0.260251
0.031939 -0.230773 -0.258445
0.029853 -0.231711 -0.256562
0.027771 -0.232646 -0.254684
0.024048 -0.234512 -0.252897
0.021979 -0.235442 -0.251028
0.018279 -0.237295 -0.249255
0.016223 -0.238219 -0.247396
0.015797 -0.238219 -0.245444
0.015372 -0.238219 -0.243493
0.014947 -0.238219 -0.241542
0.012896 -0.239141 -0.239693
0.012471 -0.239141 -0.237744
0.012046 -0.239141 -0.235794
0.011621 -0.239141 -0.233845
0.011197 -0.239141 -0.231896
0.010772 -0.239141 -0.229947
0.010347 -0.239141 -0.227998
0.009922 -0.239141 -0.226049
0.009497 -0.239141 -0.224100
0.009072 -0.239141 -0.222151
0.008648 -0.239141 -0.220201
0.006605 -0.240062 -0.218376
0.006181 -0.240062 -0.216429
0.005757 -0.240062 -0.214482
0.005332 -0.240062 -0.212535
0.004908 -0.240062 -0.210588
0.004484 -0.240062 -0.208641
0.004059 -0.240062 -0.206694
0.002024 -0.240980 -0.204884
0.001600 -0.240980 -0.202939
0.001176 -0.240980 -0.200994
0.000752 -0.240980 -0.199049
0.000328 -0.240980 -0.197104
-0.000096 -0.240980 -0.195159
-0.000520 -0.240980 -0.193214
-0.000944 -0.240980 -0.191269
-0.001368 -0.240980 -0.189324
-0.003395 -0.241896 -0.187534
-0.003819 -0.241896 -0.185591
-0.004242 -0.241896 -0.183648
-0.004666 -0.241896 -0.181705
-0.005089 -0.241896 -0.179762
-0.005513 -0.241896 -0.177819
-0.005936 -0.241896 -0.175876
-0.006360 -0.241896 -0.173933
-0.005183 -0.240980 -0.171818
-0.005607 -0.240980 -0.169873
-0.006031 -0.240980 -0.167928
-0.006455 -0.240980 -0.165983
-0.005277 -0.240062 -0.163857
-0.005701 -0.240062 -0.161910
-0.006126 -0.240062 -0.159963
-0.006550 -0.240062 -0.158016
-0.005371 -0.239141 -0.155880
-0.004190 -0.238219 -0.153740
-0.003006 -0.237295 -0.151595
-0.001820 -0.236369 -0.149445
-0.000631 -0.235442 -0.147292
0.002182 -0.233580 -0.144932
0.003378 -0.232646 -0.142766
0.004578 -0.231711 -0.140596
0.005779 -0.230773 -0.138422
0.006984 -0.229833 -0.136243
0.008190 -0.228892 -0.134059
0.009400 -0.227948 -0.131871
0.010612 -0.227003 -0.129678
0.011826 -0.226055 -0.127480
0.013043 -0.225105 -0.125278
0.015918 -0.223200 -0.122844
0.020469 -0.220327 -0.120168
0.026729 -0.216468 -0.117240
0.033042 -0.212575 -0.114288
0.037703 -0.209633 -0.111553
0.044111 -0.205682 -0.108553
0.050576 -0.201696 -0.105527
0.055350 -0.198683 -0.102731
0.063674 -0.193619 -0.099396
0.166408 -0.134007 -0.081954
0.167931 -0.132852 -0.079472
0.167455 -0.132852 -0.077288
0.166979 -0.132852 -0.075105
0.166503 -0.132852 -0.072921
0.168028 -0.131695 -0.070426
0.167552 -0.131695 -0.068240
0.169079 -0.130534 -0.065736
0.168602 -0.130534 -0.063547
0.170133 -0.129372 -0.061035
0.169655 -0.129372 -0.058844
0.169178 -0.129372 -0.056652
0.170711 -0.128206 -0.054129
0.170233 -0.128206 -0.051935
0.171769 -0.127038 -0.049403
0.171290 -0.127038 -0.047207
0.172830 -0.125867 -0.044667
0.174373 -0.124693 -0.042120
0.173893 -0.124693 -0.039919
0.175439 -0.123516 -0.037364
0.174958 -0.123516 -0.035160
0.176508 -0.122337 -0.032596
0.178060 -0.121154 -0.030027
0.179617 -0.119969 -0.027451
0.181177 -0.118782 -0.024869
0.182741 -0.117591 -0.022282
0.184308 -0.116398 -0.019688
0.185879 -0.115201 -0.017087
0.189519 -0.112800 -0.014097
0.189033 -0.112800 -0.011869
0.190616 -0.111595 -0.009250
0.190129 -0.111595 -0.007019
0.191715 -0.110388 -0.004392
0.193305 -0.109177 -0.001758
0.194898 -0.107963 0.000883
0.196495 -0.106747 0.003529
0.200191 -0.104305 0.006595
0.201800 -0.103080 0.009258
0.203413 -0.101852 0.011928
0.205030 -0.100621 0.014604
0.206651 -0.099387 0.017286
0.208276 -0.098149 0.019975
0.209905 -0.096909 0.022670
0.215805 -0.093171 0.026253
0.217451 -0.091919 0.028969
0.219101 -0.090663 0.031692
0.220755 -0.089405 0.034421
0.224573 -0.086879 0.037615
0.226239 -0.085612 0.040362
0.227910 -0.084341 0.043115
0.231764 -0.081790 0.046346
0.233448 -0.080510 0.049117
0.237331 -0.077941 0.052374
0.239027 -0.076651 0.055163
0.240728 -0.075358 0.057958
0.242434 -0.074062 0.060761
0.244143 -0.072763 0.063570
0.248081 -0.070155 0.066888
0.249804 -0.068846 0.069715
0.251531 -0.067534 0.072550
0.255507 -0.064900 0.075907
0.257248 -0.063578 0.078759
0.258993 -0.062253 0.081619
0.265278 -0.058257 0.085546
0.271611 -0.054231 0.089503
0.271097 -0.054231 0.091860
0.272876 -0.052882 0.094762
0.274658 -0.051530 0.097671
0.274143 -0.051530 0.100034
0.275929 -0.050174 0.102953
0.277720 -0.048815 0.105880
0.277204 -0.048815 0.108249
0.278999 -0.047453 0.111187
0.280798 -0.046087 0.114132
0.280280 -0.046087 0.116507
0.282084 -0.044717 0.119462
0.283892 -0.043345 0.122425
0.283373 -0.043345 0.124806
0.285185 -0.041968 0.127780
0.287001 -0.040588 0.130761
0.288822 -0.039205 0.133749
0.288301 -0.039205 0.136140
0.290126 -0.037818 0.139139
0.289605 -0.037818 0.141533
0.289083 -0.037818 0.143926
0.288561 -0.037818 0.146319
0.288040 -0.037818 0.148713
0.287518 -0.037818 0.151106
0.286996 -0.037818 0.153499
0.286475 -0.037818 0.155893
0.285953 -0.037818 0.158286
0.283091 -0.039205 0.160043
0.282570 -0.039205 0.162433
0.282050 -0.039205 0.164823
0.281529 -0.039205 0.167214
0.281008 -0.039205 0.169604
0.282823 -0.037818 0.172646
0.282302 -0.037818 0.175040
0.281780 -0.037818 0.177433
0.281258 -0.037818 0.179826
0.283077 -0.036427 0.182886
0.282555 -0.036427 0.185282
0.284377 -0.035033 0.188352
0.283854 -0.035033 0.190752
0.283331 -0.035033 0.193151
0.282808 -0.035033 0.195551
0.282285 -0.035033 0.197950
0.284110 -0.033635 0.201041
0.281239 -0.035033 0.202749
0.283062 -0.033635 0.205846
0.282539 -0.033635 0.208249
0.282015 -0.033635 0.210651
0.283841 -0.032234 0.213762
0.283317 -0.032234 0.216168
0.282793 -0.032234 0.218573
0.284623 -0.030829 0.221698
0.284098 -0.030829 0.224107
0.283573 -0.030829 0.226516
0.283048 -0.030829 0.228925
0.284880 -0.029420 0.232067
0.284354 -0.029420 0.234479
0.286191 -0.028008 0.237632
0.285664 -0.028008 0.240047
0.287505 -0.026592 0.243212
0.286978 -0.026592 0.245630
0.286451 -0.026592 0.248049
0.285924 -0.026592 0.250467
0.287767 -0.025173 0.253649
0.287239 -0.025173 0.256070
0.289087 -0.023749 0.259264
0.288558 -0.023749 0.261689
0.290410 -0.022322 0.264894
0.289881 -0.022322 0.267322
0.291737 -0.020892 0.270538
0.291207 -0.020892 0.272969
0.290677 -0.020892 0.275400
0.292536 -0.019457 0.278631
0.294400 -0.018019 0.281871
0.293869 -0.018019 0.284308
0.295737 -0.016578 0.287560
0.297610 -0.015132 0.290820
0.297078 -0.015132 0.293263
0.298955 -0.013682 0.296535
0.300837 -0.012229 0.299816
0.302724 -0.010772 0.303105
0.311935 -0.004906 0.308949
0.298158 -0.083707 -0.251888
0.286411 -0.090049 -0.250126
0.279233 -0.093816 -0.248170
0.039748 -0.228652 -0.257863
0.037645 -0.229595 -0.255973
0.033881 -0.231477 -0.254174
0.031791 -0.232415 -0.252294
0.028052 -0.234285 -0.250509
0.025974 -0.235217 -0.248638
0.022258 -0.237075 -0.246867
0.020193 -0.238001 -0.245006
0.018133 -0.238925 -0.243149
0.017707 -0.238925 -0.241196
0.017281 -0.238925 -0.239243
0.015226 -0.239848 -0.237394
0.016430 -0.238925 -0.235336
0.017636 -0.238001 -0.233274
0.015578 -0.238925 -0.231430
0.015153 -0.238925 -0.229477
0.014727 -0.238925 -0.227523
0.012674 -0.239848 -0.225687
0.012249 -0.239848 -0.223735
0.011824 -0.239848 -0.221784
0.011398 -0.239848 -0.219833
0.010973 -0.239848 -0.217882
0.010548 -0.239848 -0.215931
0.010123 -0.239848 -0.213980
0.008077 -0.240768 -0.212159
0.007652 -0.240768 -0.210210
0.007227 -0.240768 -0.208261
0.006802 -0.240768 -0.206312
0.006377 -0.240768 -0.204362
0.005953 -0.240768 -0.202413
0.003913 -0.241687 -0.200607
0.003489 -0.241687 -0.198660
0.003064 -0.241687 -0.196712
0.002640 -0.241687 -0.194765
0.002216 -0.241687 -0.192818
0.001791 -0.241687 -0.190871
0.001367 -0.241687 -0.188924
0.000942 -0.241687 -0.186977
0.000518 -0.241687 -0.185030
0.000094 -0.241687 -0.183083
-0.000331 -0.241687 -0.181136
-0.000755 -0.241687 -0.179189
-0.001179 -0.241687 -0.177241
-0.001604 -0.241687 -0.175294
-0.002028 -0.241687 -0.173347
-0.000845 -0.240768 -0.171227
-0.001269 -0.240768 -0.169278
-0.001694 -0.240768 -0.167329
-0.002119 -0.240768 -0.165380
-0.000934 -0.239848 -0.163249
-0.001359 -0.239848 -0.161298
-0.000173 -0.238925 -0.159161
-0.000598 -0.238925 -0.157208
0.000590 -0.238001 -0.155064
0.001782 -0.237075 -0.152917
0.002976 -0.236147 -0.150764
0.004172 -0.235217 -0.148607
0.005371 -0.234285 -0.146445
0.006572 -0.233351 -0.144279
0.007776 -0.232415 -0.142109
0.008982 -0.231477 -0.139933
0.010191 -0.230537 -0.137754
0.011403 -0.229595 -0.135569
0.012617 -0.228652 -0.133380
0.013834 -0.227706 -0.131186
0.015053 -0.226758 -0.128988
0.017931 -0.224856 -0.126562
0.022490 -0.221988 -0.123898
0.028758 -0.218136 -0.120987
0.033385 -0.215225 -0.118285
0.039747 -0.211314 -0.115327
0.046164 -0.207370 -0.112344
0.050903 -0.204389 -0.109582
0.057418 -0.200384 -0.106551
0.171099 -0.134675 -0.087931
0.170623 -0.134675 -0.085748
0.172153 -0.133519 -0.083267
0.171676 -0.133519 -0.081081
0.171200 -0.133519 -0.078895
0.172732 -0.132361 -0.076404
0.172255 -0.132361 -0.074215
0.171778 -0.132361 -0.072026
0.173312 -0.131200 -0.069524
0.172834 -0.131200 -0.067332
0.174372 -0.130037 -0.064822
0.173894 -0.130037 -0.062628
0.173416 -0.130037 -0.060434
0.174956 -0.128871 -0.057912
0.174477 -0.128871 -0.055716
0.176020 -0.127702 -0.053186
0.175541 -0.127702 -0.050986
0.177087 -0.126530 -0.048448
0.176607 -0.126530 -0.046246
0.178156 -0.125356 -0.043699
0.177676 -0.125356 -0.041494
0.179228 -0.124178 -0.038938
0.180784 -0.122998 -0.036376
0.182344 -0.121816 -0.033808
0.183907 -0.120630 -0.031234
0.185474 -0.119441 -0.028654
0.187045 -0.118250 -0.026067
0.188619 -0.117056 -0.023475
0.190198 -0.115859 -0.020876
0.191779 -0.114659 -0.018271
0.195442 -0.112251 -0.015276
0.194955 -0.112251 -0.013043
0.194468 -0.112251 -0.010810
0.196061 -0.111043 -0.008183
0.195574 -0.111043 -0.005947
0.197170 -0.109832 -0.003312
0.198770 -0.108617 -0.000670
0.200373 -0.107400 0.001978
0.201981 -0.106180 0.004632
0.205698 -0.103731 0.007708
0.207318 -0.102502 0.010378
0.208942 -0.101271 0.013056
0.210570 -0.100036 0.015739
0.212201 -0.098798 0.018430
0.218110 -0.095066 0.021997
0.219758 -0.093816 0.024708
0.221411 -0.092564 0.027426
0.223068 -0.091308 0.030150
0.226892 -0.088786 0.033333
0.228561 -0.087521 0.036075
0.230235 -0.086253 0.038823
0.231912 -0.084981 0.041578
0.235781 -0.082429 0.044809
0.237472 -0.081148 0.047581
0.239167 -0.079864 0.050360
0.243073 -0.077287 0.053629
0.244781 -0.075993 0.056426
0.246494 -0.074696 0.059230
0.250437 -0.072093 0.062537
0.252163 -0.070787 0.065359
0.253893 -0.069477 0.068188
0.257875 -0.066848 0.071534
0.259619 -0.065528 0.074381
0.268173 -0.060217 0.078798
0.272226 -0.057541 0.082200
0.271713 -0.057541 0.084554
0.273489 -0.056198 0.087443
0.275270 -0.054852 0.090339
0.274756 -0.054852 0.092699
0.276541 -0.053502 0.095606
0.278330 -0.052149 0.098520
0.277815 -0.052149 0.100886
0.279608 -0.050793 0.103810
0.281406 -0.049433 0.106742
0.280889 -0.049433 0.109114
0.282691 -0.048069 0.112056
0.284497 -0.046702 0.115006
0.283979 -0.046702 0.117384
0.285789 -0.045332 0.120344
0.287604 -0.043958 0.123312
0.287084 -0.043958 0.125696
0.288903 -0.042580 0.128675
0.290727 -0.041200 0.131661
0.290206 -0.041200 0.134051
0.292033 -0.039815 0.137048
0.293866 -0.038427 0.140052
0.293343 -0.038427 0.142449
0.290468 -0.039815 0.144228
0.289947 -0.039815 0.146621
0.289425 -0.039815 0.149015
0.288903 -0.039815 0.151408
0.288382 -0.039815 0.153801
0.287860 -0.039815 0.156195
0.289687 -0.038427 0.159224
0.289165 -0.038427 0.161620
0.288642 -0.038427 0.164017
0.288120 -0.038427 0.166413
0.285252 -0.039815 0.168161
0.284730 -0.039815 0.170555
0.286553 -0.038427 0.173602
0.283687 -0.039815 0.175342
0.283165 -0.039815 0.177735
0.282644 -0.039815 0.180128
0.284464 -0.038427 0.183188
0.283942 -0.038427 0.185584
0.285766 -0.037035 0.188655
0.285243 -0.037035 0.191054
0.284720 -0.037035 0.193454
0.284197 -0.037035 0.195853
0.283674 -0.037035 0.198253
0.285500 -0.035640 0.201344
0.284977 -0.035640 0.203746
0.284453 -0.035640 0.206149
0.283929 -0.035640 0.208552
0.283406 -0.035640 0.210954
0.282882 -0.035640 0.213357
0.284710 -0.034241 0.216471
0.284185 -0.034241 0.218877
0.283661 -0.034241 0.221282
0.285492 -0.032839 0.224411
0.284967 -0.032839 0.226820
0.284442 -0.032839 0.229228
0.283917 -0.032839 0.231637
0.285750 -0.031433 0.234783
0.285225 -0.031433 0.237195
0.287062 -0.030024 0.240352
0.286536 -0.030024 0.242767
0.288378 -0.028610 0.245935
0.287851 -0.028610 0.248354
0.287324 -0.028610 0.250772
0.289169 -0.027193 0.253955
0.288641 -0.027193 0.256376
0.290490 -0.025773 0.259570
0.289962 -0.025773 0.261995
0.291815 -0.024348 0.265200
0.291286 -0.024348 0.267628
0.290757 -0.024348 0.270055
0.292614 -0.022920 0.273276
0.292084 -0.022920 0.275706
0.293945 -0.021489 0.278938
0.295811 -0.020053 0.282179
0.295280 -0.020053 0.284616
0.297150 -0.018614 0.287868
0.296618 -0.018614 0.290308
0.298492 -0.017171 0.293572
0.297959 -0.017171 0.296015
0.302255 -0.014274 0.300125
0.304144 -0.012820 0.303414
0.310914 -0.008433 0.308409
0.303527 -0.083069 -0.249085
0.291718 -0.089431 -0.247337
0.282276 -0.094464 -0.245498
0.281780 -0.094464 -0.243221
0.276846 -0.096962 -0.241178
0.039600 -0.230301 -0.251686
0.035828 -0.232183 -0.249894
0.032072 -0.234057 -0.248111
0.029986 -0.234991 -0.246239
0.026254 -0.236854 -0.244468
0.024181 -0.237782 -0.242606
0.022112 -0.238709 -0.240748
0.020047 -0.239633 -0.238893
0.019621 -0.239633 -0.236938
0.020832 -0.238709 -0.234876
0.020405 -0.238709 -0.232919
0.019979 -0.238709 -0.230961
0.019552 -0.238709 -0.229004
0.019125 -0.238709 -0.227047
0.017064 -0.239633 -0.225207
0.016638 -0.239633 -0.223251
0.016211 -0.239633 -0.221296
0.014155 -0.240556 -0.219464
0.013729 -0.240556 -0.217511
0.013303 -0.240556 -0.215558
0.012878 -0.240556 -0.213604
0.012452 -0.240556 -0.211651
0.012026 -0.240556 -0.209698
0.009976 -0.241476 -0.207880
0.009551 -0.241476 -0.205929
0.009126 -0.241476 -0.203978
0.008700 -0.241476 -0.202027
0.008275 -0.241476 -0.200075
0.007850 -0.241476 -0.198124
0.007425 -0.241476 -0.196173
0.006999 -0.241476 -0.194222
0.006574 -0.241476 -0.192271
0.006149 -0.241476 -0.190320
0.005724 -0.241476 -0.188368
0.005298 -0.241476 -0.186417
0.004873 -0.241476 -0.184466
0.004448 -0.241476 -0.182515
0.004023 -0.241476 -0.180564
0.003597 -0.241476 -0.178613
0.003172 -0.241476 -0.176661
0.002747 -0.241476 -0.174710
0.003938 -0.240556 -0.172587
0.003512 -0.240556 -0.170634
0.003086 -0.240556 -0.168681
0.002661 -0.240556 -0.166728
0.002235 -0.240556 -0.164774
0.005048 -0.238709 -0.162456
0.004621 -0.238709 -0.160499
0.005818 -0.237782 -0.158354
0.005391 -0.237782 -0.156395
0.006590 -0.236854 -0.154244
0.007791 -0.235924 -0.152088
0.008995 -0.234991 -0.149928
0.011840 -0.233121 -0.147564
0.013052 -0.232183 -0.145392
0.014266 -0.231243 -0.143215
0.015483 -0.230301 -0.141034
0.016703 -0.229357 -0.138849
0.017925 -0.228410 -0.136659
0.019150 -0.227462 -0.134464
0.020378 -0.226512 -0.132264
0.021608 -0.225560 -0.130060
0.024510 -0.223650 -0.127628
0.029103 -0.220769 -0.124960
0.035420 -0.216899 -0.122043
0.041791 -0.212995 -0.119102
0.046495 -0.210046 -0.116373
0.052963 -0.206083 -0.113385
0.175801 -0.135344 -0.093922
0.175324 -0.135344 -0.091736
0.174848 -0.135344 -0.089550
0.176384 -0.134188 -0.087071
0.175907 -0.134188 -0.084883
0.177446 -0.133029 -0.082395
0.176969 -0.133029 -0.080204
0.176491 -0.133029 -0.078013
0.178033 -0.131868 -0.075515
0.177555 -0.131868 -0.073321
0.177076 -0.131868 -0.071127
0.178621 -0.130704 -0.068618
0.178142 -0.130704 -0.066421
0.177663 -0.130704 -0.064225
0.179210 -0.129537 -0.061704
0.178731 -0.129537 -0.059505
0.180281 -0.128368 -0.056977
0.179801 -0.128368 -0.054775
0.179321 -0.128368 -0.052573
0.180873 -0.127195 -0.050033
0.180393 -0.127195 -0.047829
0.181948 -0.126020 -0.045281
0.183508 -0.124842 -0.042726
0.183026 -0.124842 -0.040517
0.184588 -0.123662 -0.037953
0.186154 -0.122478 -0.035384
0.187724 -0.121292 -0.032809
0.189298 -0.120103 -0.030227
0.190875 -0.118911 -0.027640
0.192456 -0.117716 -0.025046
0.194040 -0.116519 -0.022446
0.195629 -0.115318 -0.019840
0.197221 -0.114115 -0.017227
0.200905 -0.111700 -0.014222
0.200417 -0.111700 -0.011984
0.202021 -0.110488 -0.009353
0.201532 -0.110488 -0.007111
0.201044 -0.110488 -0.004870
0.202650 -0.109273 -0.002227
0.204261 -0.108055 0.000422
0.205875 -0.106834 0.003078
0.207493 -0.105611 0.005740
0.211233 -0.103155 0.008825
0.212863 -0.101922 0.011504
0.214497 -0.100687 0.014189
0.218273 -0.098206 0.017311
0.222066 -0.095714 0.020447
0.223722 -0.094464 0.023159
0.225381 -0.093210 0.025878
0.229210 -0.090693 0.029051
0.230883 -0.089431 0.031787
0.232559 -0.088165 0.034530
0.234240 -0.086896 0.037280
0.238114 -0.084348 0.040500
0.242008 -0.081788 0.043737
0.243711 -0.080503 0.046514
0.245418 -0.079215 0.049299
0.249349 -0.076629 0.052573
0.251069 -0.075332 0.055376
0.252793 -0.074031 0.058186
0.254522 -0.072727 0.061002
0.258501 -0.070109 0.064326
0.260243 -0.068795 0.067161
0.271068 -0.062177 0.072049
0.270556 -0.062177 0.074397
0.272327 -0.060843 0.077266
0.274102 -0.059506 0.080142
0.273589 -0.059506 0.082497
0.275368 -0.058166 0.085383
0.277151 -0.056822 0.088277
0.276637 -0.056822 0.090637
0.278424 -0.055475 0.093541
0.280216 -0.054124 0.096452
0.282012 -0.052770 0.099371
0.281496 -0.052770 0.101740
0.283296 -0.051412 0.104669
0.282779 -0.051412 0.107041
0.284583 -0.050051 0.109981
0.286392 -0.048687 0.112928
0.288205 -0.047319 0.115882
0.287686 -0.047319 0.118264
0.289504 -0.045948 0.121229
0.291326 -0.044573 0.124201
0.290805 -0.044573 0.126589
0.292631 -0.043194 0.129572
0.294462 -0.041813 0.132563
0.293940 -0.041813 0.134956
0.295775 -0.040427 0.137958
0.295253 -0.040427 0.140355
0.294730 -0.040427 0.142751
0.294208 -0.040427 0.145147
0.293686 -0.040427 0.147544
0.293163 -0.040427 0.149940
0.292641 -0.040427 0.152337
0.292119 -0.040427 0.154733
0.291597 -0.040427 0.157130
0.291074 -0.040427 0.159526
0.290552 -0.040427 0.161922
0.290030 -0.040427 0.164319
0.289507 -0.040427 0.166715
0.288985 -0.040427 0.169112
0.288463 -0.040427 0.171508
0.287940 -0.040427 0.173905
0.287418 -0.040427 0.176301
0.286896 -0.040427 0.178697
0.286373 -0.040427 0.181094
0.285851 -0.040427 0.183490
0.285329 -0.040427 0.185887
0.284807 -0.040427 0.188283
0.284284 -0.040427 0.190680
0.286109 -0.039038 0.193757
0.285586 -0.039038 0.196156
0.285063 -0.039038 0.198556
0.286891 -0.037645 0.201647
0.286367 -0.037645 0.204050
0.285844 -0.037645 0.206452
0.285320 -0.037645 0.208855
0.284797 -0.037645 0.211257
0.286626 -0.036249 0.214369
0.283749 -0.037645 0.216063
0.285578 -0.036249 0.219180
0.285053 -0.036249 0.221586
0.284529 -0.036249 0.223992
0.286361 -0.034849 0.227124
0.285836 -0.034849 0.229532
0.285311 -0.034849 0.231941
0.287147 -0.033446 0.235087
0.286621 -0.033446 0.237499
0.286095 -0.033446 0.239911
0.287934 -0.032039 0.243072
0.287408 -0.032039 0.245487
0.286881 -0.032039 0.247902
0.288723 -0.030628 0.251077
0.290570 -0.029214 0.254260
0.290043 -0.029214 0.256681
0.289515 -0.029214 0.259103
0.291365 -0.027796 0.262300
0.290837 -0.027796 0.264725
0.292691 -0.026374 0.267934
0.292162 -0.026374 0.270362
0.291633 -0.026374 0.272789
0.293491 -0.024949 0.276013
0.295354 -0.023520 0.279245
0.294824 -0.023520 0.281679
0.296690 -0.022087 0.284923
0.298562 -0.020651 0.288176
0.298030 -0.020651 0.290616
0.299906 -0.019210 0.293880
0.299374 -0.019210 0.296323
0.301254 -0.017766 0.299599
0.305564 -0.014867 0.303724
0.309897 -0.011952 0.307870
0.297052 -0.088810 -0.244533
0.287560 -0.093858 -0.242703
0.284830 -0.095112 -0.240539
0.279883 -0.097612 -0.238500
0.277171 -0.098857 -0.236349
0.039882 -0.231950 -0.247485
0.037779 -0.232890 -0.245606
0.035680 -0.233828 -0.243730
0.031925 -0.235699 -0.241960
0.028185 -0.237562 -0.240196
0.026107 -0.238491 -0.238337
0.024034 -0.239417 -0.236481
0.021965 -0.240342 -0.234629
0.023180 -0.239417 -0.232562
0.022753 -0.239417 -0.230603
0.022326 -0.239417 -0.228643
0.021899 -0.239417 -0.226684
0.019832 -0.240342 -0.224843
0.019405 -0.240342 -0.222885
0.018979 -0.240342 -0.220928
0.018552 -0.240342 -0.218971
0.018125 -0.240342 -0.217013
0.016065 -0.241265 -0.215184
0.015639 -0.241265 -0.213229
0.015212 -0.241265 -0.211273
0.014786 -0.241265 -0.209318
0.014360 -0.241265 -0.207363
0.013934 -0.241265 -0.205408
0.013508 -0.241265 -0.203452
0.013082 -0.241265 -0.201497
0.012656 -0.241265 -0.199542
0.012229 -0.241265 -0.197587
0.011803 -0.241265 -0.195631
0.011377 -0.241265 -0.193676
0.010951 -0.241265 -0.191721
0.010525 -0.241265 -0.189766
0.010099 -0.241265 -0.187810
0.009672 -0.241265 -0.185855
0.009246 -0.241265 -0.183900
0.008820 -0.241265 -0.181945
0.008394 -0.241265 -0.179989
0.007968 -0.241265 -0.178034
0.007542 -0.241265 -0.176079
0.007116 -0.241265 -0.174124
0.008314 -0.240342 -0.171996
0.007887 -0.240342 -0.170038
0.007460 -0.240342 -0.168081
0.008660 -0.239417 -0.165944
0.008233 -0.239417 -0.163985
0.011067 -0.237562 -0.161658
0.012275 -0.236632 -0.159508
0.013485 -0.235699 -0.157353
0.013056 -0.235699 -0.155385
0.014268 -0.234765 -0.153224
0.015482 -0.233828 -0.151058
0.016699 -0.232890 -0.148888
0.017919 -0.231950 -0.146713
0.019141 -0.231007 -0.144533
0.020366 -0.230063 -0.142349
0.021594 -0.229117 -0.140160
0.022824 -0.228168 -0.137967
0.025725 -0.226265 -0.135555
0.026963 -0.225311 -0.133349
0.029883 -0.223396 -0.130919
0.031130 -0.222435 -0.128702
0.037455 -0.218573 -0.125801
0.042125 -0.215654 -0.123107
0.048546 -0.211732 -0.120160
0.180513 -0.136015 -0.099928
0.180036 -0.136015 -0.097739
0.179559 -0.136015 -0.095550
0.181103 -0.134858 -0.093076
0.178605 -0.136015 -0.091173
0.180147 -0.134858 -0.088693
0.181694 -0.133699 -0.086207
0.181215 -0.133699 -0.084013
0.182764 -0.132537 -0.081519
0.182286 -0.132537 -0.079323
0.181807 -0.132537 -0.077126
0.183359 -0.131372 -0.074621
0.182879 -0.131372 -0.072422
0.182400 -0.131372 -0.070223
0.183954 -0.130205 -0.067707
0.183474 -0.130205 -0.065505
0.182995 -0.130205 -0.063304
0.184551 -0.129035 -0.060777
0.184071 -0.129035 -0.058572
0.185631 -0.127862 -0.056037
0.185150 -0.127862 -0.053830
0.184669 -0.127862 -0.051623
0.186231 -0.126686 -0.049076
0.185750 -0.126686 -0.046866
0.187315 -0.125508 -0.044311
0.186833 -0.125508 -0.042098
0.188402 -0.124327 -0.039534
0.189974 -0.123143 -0.036964
0.191550 -0.121956 -0.034387
0.193130 -0.120766 -0.031805
0.194714 -0.119573 -0.029216
0.196301 -0.118378 -0.026621
0.197892 -0.117180 -0.024020
0.199487 -0.115979 -0.021412
0.201086 -0.114775 -0.018799
0.202689 -0.113568 -0.016179
0.206395 -0.111146 -0.013164
0.205906 -0.111146 -0.010920
0.207520 -0.109930 -0.008281
0.207030 -0.109930 -0.006035
0.206540 -0.109930 -0.003788
0.208157 -0.108712 -0.001137
0.209778 -0.107490 0.001520
0.213523 -0.105039 0.004595
0.215157 -0.103808 0.007269
0.216794 -0.102575 0.009949
0.220574 -0.100100 0.013060
0.224374 -0.097612 0.016186
0.226032 -0.096364 0.018893
0.227694 -0.095112 0.021607
0.231529 -0.092601 0.024769
0.233204 -0.091340 0.027500
0.237067 -0.088810 0.030689
0.238755 -0.087540 0.033437
0.240448 -0.086267 0.036192
0.244347 -0.083711 0.039418
0.246053 -0.082429 0.042190
0.249980 -0.079855 0.045443
0.251699 -0.078563 0.048233
0.253422 -0.077267 0.051030
0.257388 -0.074667 0.054321
0.256882 -0.074667 0.056646
0.263120 -0.070743 0.060455
0.271681 -0.065464 0.064796
0.271170 -0.065464 0.067141
0.272939 -0.064137 0.069997
0.274712 -0.062805 0.072861
0.274200 -0.062805 0.075212
0.275977 -0.061471 0.078085
0.277760 -0.060133 0.080966
0.277246 -0.060133 0.083323
0.279032 -0.058791 0.086214
0.280822 -0.057447 0.089113
0.280307 -0.057447 0.091476
0.282101 -0.056098 0.094385
0.283900 -0.054747 0.097301
0.285703 -0.053392 0.100224
0.285186 -0.053392 0.102596
0.286993 -0.052034 0.105530
0.286476 -0.052034 0.107905
0.288287 -0.050672 0.110850
0.290103 -0.049306 0.113802
0.291923 -0.047937 0.116761
0.291403 -0.047937 0.119145
0.293228 -0.046565 0.122115
0.295057 -0.045189 0.125093
0.294536 -0.045189 0.127483
0.296369 -0.043810 0.130472
