ply
format ascii 1.0
element vertex 1658
property float x
property float y
property float z
end_header
0.053417 -0.015328 0.103362
0.055172 -0.015328 0.104553
0.058109 -0.014531 0.104215
0.061053 -0.013733 0.103876
0.064003 -0.012933 0.103535
0.065763 -0.012933 0.104731
0.068722 -0.012132 0.104391
0.071687 -0.011328 0.104051
0.073452 -0.011328 0.105249
0.076426 -0.010523 0.104909
0.079406 -0.009716 0.104569
0.082393 -0.008907 0.104227
0.085387 -0.008096 0.103886
0.087159 -0.008096 0.105089
0.090162 -0.007284 0.104747
0.093171 -0.006469 0.104405
0.096187 -0.005653 0.104062
0.099210 -0.004835 0.103719
0.102240 -0.004016 0.103374
0.105276 -0.003194 0.103029
0.107060 -0.003194 0.104240
0.110106 -0.002370 0.103896
0.113158 -0.001545 0.103550
0.116217 -0.000718 0.103204
0.118007 -0.000718 0.104420
0.121075 0.000111 0.104074
0.124150 0.000942 0.103728
0.125945 0.000942 0.104946
0.127740 0.000942 0.106164
0.129534 0.000942 0.107382
0.131329 0.000942 0.108601
0.133123 0.000942 0.109819
0.136216 0.001775 0.109479
0.138012 0.001775 0.110698
0.139809 0.001775 0.111918
0.142912 0.002610 0.111580
0.144711 0.002610 0.112801
0.146510 0.002610 0.114022
0.148308 0.002610 0.115243
0.151425 0.003447 0.114908
0.153225 0.003447 0.116130
0.155026 0.003447 0.117353
0.156827 0.003447 0.118575
0.158628 0.003447 0.119797
0.161759 0.004285 0.119467
-0.043999 -0.126283 0.362195
-0.047019 -0.129112 0.368431
-0.050012 -0.131915 0.374608
-0.050321 -0.133028 0.377660
-0.050629 -0.134138 0.380701
-0.050051 -0.134692 0.382714
-0.050359 -0.135795 0.385737
-0.050666 -0.136895 0.388750
-0.050090 -0.137443 0.390746
-0.050397 -0.138536 0.393740
-0.050702 -0.139626 0.396724
-0.049251 -0.139626 0.397709
-0.048679 -0.140169 0.399688
-0.048109 -0.140711 0.401663
-0.047540 -0.141253 0.403635
-0.046972 -0.141793 0.405603
-0.047281 -0.142870 0.408548
-0.047590 -0.143944 0.411484
-0.047024 -0.144479 0.413435
-0.046460 -0.145014 0.415384
-0.045896 -0.145547 0.417329
-0.045334 -0.146080 0.419270
-0.044772 -0.146611 0.421208
-0.044211 -0.147142 0.423142
-0.043652 -0.147671 0.425073
-0.043093 -0.148200 0.427000
-0.042536 -0.148727 0.428924
-0.041979 -0.149254 0.430844
-0.041424 -0.149780 0.432761
-0.040869 -0.150305 0.434675
-0.040316 -0.150829 0.436585
-0.039763 -0.151351 0.438491
-0.039212 -0.151873 0.440395
-0.038661 -0.152394 0.442294
-0.038112 -0.152915 0.444191
-0.038432 -0.153952 0.447012
-0.037884 -0.154469 0.448899
-0.037337 -0.154986 0.450783
-0.036791 -0.155501 0.452663
-0.036246 -0.156016 0.454540
-0.035702 -0.156529 0.456414
-0.035159 -0.157042 0.458284
-0.034617 -0.157554 0.460151
-0.034076 -0.158065 0.462015
-0.033536 -0.158575 0.463875
-0.032997 -0.159084 0.465732
-0.032459 -0.159592 0.467586
-0.031921 -0.160099 0.469436
-0.031385 -0.160606 0.471283
-0.030850 -0.161111 0.473127
-0.029451 -0.161111 0.474076
-0.028053 -0.161111 0.475026
-0.026655 -0.161111 0.475975
-0.024387 -0.160606 0.476034
-0.022988 -0.160606 0.476984
-0.020715 -0.160099 0.477043
-0.019315 -0.160099 0.477994
-0.017037 -0.159592 0.478055
-0.015635 -0.159592 0.479006
-0.013352 -0.159084 0.479068
-0.011064 -0.158575 0.479130
0.192824 -0.042129 0.276493
0.194513 -0.042129 0.277640
0.194918 -0.042865 0.280071
0.195322 -0.043600 0.282498
0.197008 -0.043600 0.283642
0.198694 -0.043600 0.284786
0.199094 -0.044333 0.287205
0.200778 -0.044333 0.288348
0.203751 -0.043600 0.288219
0.205436 -0.043600 0.289364
0.209716 -0.042129 0.287960
0.214014 -0.040652 0.286551
0.219647 -0.038423 0.283849
0.223989 -0.036930 0.282423
0.235049 -0.031652 0.274474
0.250400 -0.023972 0.262402
0.266092 -0.016122 0.250062
0.283581 -0.007284 0.236049
0.282461 -0.008907 0.240043
0.282788 -0.009716 0.242633
0.283113 -0.010523 0.245218
0.283438 -0.011328 0.247797
0.283763 -0.012132 0.250371
0.284086 -0.012933 0.252938
0.284409 -0.013733 0.255500
0.284731 -0.014531 0.258056
0.285052 -0.015328 0.260607
0.286807 -0.015328 0.261798
0.287126 -0.016122 0.264341
0.287444 -0.016915 0.266879
0.289195 -0.016915 0.268068
0.289510 -0.017706 0.270599
0.289825 -0.018495 0.273124
0.290139 -0.019283 0.275644
0.291884 -0.019283 0.276829
0.292195 -0.020069 0.279342
0.292506 -0.020853 0.281849
0.294247 -0.020853 0.283031
0.294556 -0.021635 0.285532
0.296295 -0.021635 0.286713
0.296600 -0.022416 0.289207
0.298338 -0.022416 0.290386
0.298641 -0.023195 0.292873
0.300376 -0.023195 0.294051
0.302112 -0.023195 0.295230
0.303848 -0.023195 0.296408
0.305583 -0.023195 0.297586
0.305878 -0.023972 0.300062
0.307612 -0.023972 0.301239
0.309345 -0.023972 0.302416
0.311079 -0.023972 0.303593
0.312813 -0.023972 0.304770
0.314546 -0.023972 0.305947
0.316280 -0.023972 0.307124
0.316562 -0.024748 0.309587
0.318294 -0.024748 0.310763
0.320026 -0.024748 0.311938
0.321758 -0.024748 0.313114
0.324948 -0.023972 0.313008
0.326682 -0.023972 0.314185
0.328416 -0.023972 0.315362
0.330149 -0.023972 0.316539
0.331883 -0.023972 0.317716
0.333617 -0.023972 0.318893
0.335350 -0.023972 0.320070
0.338559 -0.023195 0.319971
0.340295 -0.023195 0.321150
0.344998 -0.021635 0.319774
0.348228 -0.020853 0.319676
0.351465 -0.020069 0.319577
0.354709 -0.019283 0.319477
0.357960 -0.018495 0.319378
0.362734 -0.016915 0.317990
0.366005 -0.016122 0.317888
0.373880 -0.012933 0.313894
0.380274 -0.010523 0.311176
0.386711 -0.008096 0.308438
-0.464766 0.020281 -0.359768
-0.466082 0.015913 -0.347826
-0.466759 0.012454 -0.338124
-0.466183 0.010737 -0.332687
-0.465610 0.009028 -0.327275
-0.465039 0.007326 -0.321889
-0.463848 0.006478 -0.318589
-0.463283 0.004788 -0.313241
-0.461474 0.004788 -0.312013
-0.459665 0.004788 -0.310785
-0.458485 0.003946 -0.307509
-0.457307 0.003106 -0.304241
-0.455502 0.003106 -0.303016
-0.454329 0.002268 -0.299756
-0.453158 0.001432 -0.296505
-0.451357 0.001432 -0.295282
-0.450191 0.000597 -0.292039
-0.449028 -0.000235 -0.288803
-0.447232 -0.000235 -0.287584
-0.446073 -0.001066 -0.284357
-0.444278 -0.001066 -0.283139
-0.443125 -0.001895 -0.279920
-0.441973 -0.002721 -0.276709
-0.440183 -0.002721 -0.275494
-0.438392 -0.002721 -0.274278
-0.437248 -0.003546 -0.271077
-0.435459 -0.003546 -0.269863
-0.434319 -0.004370 -0.266671
-0.432532 -0.004370 -0.265458
-0.430746 -0.004370 -0.264245
-0.429613 -0.005191 -0.261063
-0.427828 -0.005191 -0.259851
-0.426699 -0.006010 -0.256677
-0.424917 -0.006010 -0.255467
-0.423134 -0.006010 -0.254257
-0.421352 -0.006010 -0.253047
-0.419569 -0.006010 -0.251837
-0.417787 -0.006010 -0.250627
-0.416004 -0.006010 -0.249417
-0.414890 -0.006828 -0.246259
-0.413109 -0.006828 -0.245050
-0.411329 -0.006828 -0.243841
-0.409549 -0.006828 -0.242633
-0.408443 -0.007644 -0.239485
-0.405988 -0.006828 -0.240215
-0.404207 -0.006828 -0.239007
-0.401744 -0.006010 -0.239737
-0.399962 -0.006010 -0.238527
-0.398179 -0.006010 -0.237317
-0.396397 -0.006010 -0.236107
-0.393923 -0.005191 -0.236835
-0.392138 -0.005191 -0.235624
-0.389656 -0.004370 -0.236352
-0.388569 -0.005191 -0.233201
-0.388880 -0.007644 -0.226205
-0.388494 -0.009270 -0.221165
-0.388802 -0.011695 -0.214249
-0.388419 -0.013303 -0.209264
-0.388037 -0.014904 -0.204302
-0.387657 -0.016497 -0.199361
-0.387279 -0.018084 -0.194443
-0.386902 -0.019663 -0.189546
-0.385841 -0.020451 -0.186513
-0.385468 -0.022020 -0.181650
-0.385098 -0.023582 -0.176808
-0.384729 -0.025137 -0.171987
-0.385043 -0.027458 -0.165383
-0.384676 -0.028996 -0.160614
-0.384989 -0.031291 -0.154083
-0.383268 -0.031291 -0.152915
-0.382907 -0.032813 -0.148198
-0.382548 -0.034328 -0.143502
-0.381513 -0.035083 -0.140581
-0.381158 -0.036589 -0.135917
-0.380128 -0.037339 -0.133013
-0.379776 -0.038835 -0.128380
-0.378751 -0.039580 -0.125494
-0.377728 -0.040324 -0.122614
-0.376708 -0.041066 -0.119740
-0.375011 -0.041066 -0.118589
-0.373994 -0.041807 -0.115722
-0.372980 -0.042546 -0.112862
-0.371967 -0.043283 -0.110008
-0.370276 -0.043283 -0.108860
-0.369268 -0.044019 -0.106013
-0.368262 -0.044754 -0.103172
-0.367258 -0.045486 -0.100338
-0.366256 -0.046218 -0.097509
-0.365256 -0.046947 -0.094686
-0.363574 -0.046947 -0.093544
-0.362578 -0.047676 -0.090729
-0.361584 -0.048402 -0.087919
-0.359905 -0.048402 -0.086780
-0.358915 -0.049127 -0.083978
-0.357927 -0.049851 -0.081181
-0.356252 -0.049851 -0.080044
-0.355268 -0.050573 -0.077255
-0.354287 -0.051293 -0.074472
-0.352615 -0.051293 -0.073337
-0.351637 -0.052012 -0.070561
-0.350661 -0.052729 -0.067790
-0.348993 -0.052729 -0.066658
-0.348021 -0.053445 -0.063894
-0.346355 -0.053445 -0.062763
-0.344689 -0.053445 -0.061632
-0.343722 -0.054160 -0.058877
-0.342057 -0.054160 -0.057747
-0.341095 -0.054873 -0.054999
-0.339432 -0.054873 -0.053870
-0.338473 -0.055584 -0.051129
-0.336812 -0.055584 -0.050002
-0.335857 -0.056294 -0.047267
-0.334903 -0.057002 -0.044538
-0.333246 -0.057002 -0.043413
-0.331588 -0.057002 -0.042288
-0.329931 -0.057002 -0.041163
-0.328985 -0.057709 -0.038444
-0.328041 -0.058415 -0.035730
-0.326387 -0.058415 -0.034607
-0.324733 -0.058415 -0.033484
-0.323794 -0.059119 -0.030779
-0.322142 -0.059119 -0.029657
-0.320489 -0.059119 -0.028535
-0.319556 -0.059821 -0.025838
-0.317905 -0.059821 -0.024717
-0.316255 -0.059821 -0.023597
-0.315327 -0.060522 -0.020907
-0.313678 -0.060522 -0.019788
-0.312029 -0.060522 -0.018668
-0.311107 -0.061222 -0.015986
-0.309460 -0.061222 -0.014868
-0.307813 -0.061222 -0.013750
-0.306895 -0.061920 -0.011076
-0.304518 -0.061222 -0.011514
-0.302871 -0.061222 -0.010396
-0.301224 -0.061222 -0.009278
-0.300314 -0.061920 -0.006609
-0.298669 -0.061920 -0.005492
-0.297023 -0.061920 -0.004375
-0.295378 -0.061920 -0.003258
-0.293732 -0.061920 -0.002141
-0.292087 -0.061920 -0.001024
-0.290442 -0.061920 0.000093
-0.288796 -0.061920 0.001210
-0.287151 -0.061920 0.002327
-0.285506 -0.061920 0.003444
-0.283860 -0.061920 0.004561
-0.282969 -0.062617 0.007213
-0.281325 -0.062617 0.008329
-0.279681 -0.062617 0.009445
-0.278038 -0.062617 0.010560
-0.277153 -0.063312 0.013204
-0.275511 -0.063312 0.014318
-0.273869 -0.063312 0.015433
-0.272227 -0.063312 0.016548
-0.270586 -0.063312 0.017662
-0.268944 -0.063312 0.018777
-0.268069 -0.064006 0.021409
-0.266429 -0.064006 0.022522
-0.264789 -0.064006 0.023636
-0.263149 -0.064006 0.024749
-0.261508 -0.064006 0.025863
-0.259868 -0.064006 0.026976
-0.258228 -0.064006 0.028090
-0.257366 -0.064698 0.030709
-0.255727 -0.064698 0.031822
-0.254089 -0.064698 0.032934
-0.251667 -0.064006 0.032544
-0.250027 -0.064006 0.033657
-0.248386 -0.064006 0.034770
-0.246746 -0.064006 0.035884
-0.245106 -0.064006 0.036997
-0.243466 -0.064006 0.038111
-0.241825 -0.064006 0.039224
-0.240185 -0.064006 0.040338
-0.238545 -0.064006 0.041451
-0.236905 -0.064006 0.042565
-0.235264 -0.064006 0.043678
-0.233624 -0.064006 0.044792
-0.231984 -0.064006 0.045905
-0.230344 -0.064006 0.047019
-0.228703 -0.064006 0.048132
-0.227063 -0.064006 0.049246
-0.225423 -0.064006 0.050359
-0.223783 -0.064006 0.051473
-0.222142 -0.064006 0.052586
-0.220502 -0.064006 0.053700
-0.218862 -0.064006 0.054813
-0.217222 -0.064006 0.055927
-0.215581 -0.064006 0.057040
-0.213941 -0.064006 0.058153
-0.212301 -0.064006 0.059267
-0.210661 -0.064006 0.060380
-0.209020 -0.064006 0.061494
-0.207380 -0.064006 0.062607
-0.205740 -0.064006 0.063721
-0.204100 -0.064006 0.064834
-0.202459 -0.064006 0.065948
-0.200819 -0.064006 0.067061
-0.199179 -0.064006 0.068175
-0.197539 -0.064006 0.069288
-0.196739 -0.064698 0.071865
-0.194258 -0.064006 0.071515
-0.192618 -0.064006 0.072629
-0.190978 -0.064006 0.073742
-0.189337 -0.064006 0.074856
-0.186846 -0.063312 0.074508
-0.185204 -0.063312 0.075623
-0.182706 -0.062617 0.075276
-0.181062 -0.062617 0.076392
-0.179418 -0.062617 0.077508
-0.176912 -0.061920 0.077163
-0.175266 -0.061920 0.078280
-0.172752 -0.061222 0.077935
-0.171105 -0.061222 0.079053
-0.168585 -0.060522 0.078709
-0.166058 -0.059821 0.078364
-0.164408 -0.059821 0.079484
-0.162757 -0.059821 0.080604
-0.161107 -0.059821 0.081725
-0.159456 -0.059821 0.082845
-0.156918 -0.059119 0.082504
-0.155266 -0.059119 0.083626
-0.153614 -0.059119 0.084747
-0.151067 -0.058415 0.084408
-0.149413 -0.058415 0.085531
-0.146859 -0.057709 0.085192
-0.145203 -0.057709 0.086316
-0.142642 -0.057002 0.085977
-0.140985 -0.057002 0.087102
-0.138416 -0.056294 0.086764
-0.136757 -0.056294 0.087891
-0.134182 -0.055584 0.087553
-0.132521 -0.055584 0.088681
-0.129938 -0.054873 0.088343
-0.128276 -0.054873 0.089472
-0.125686 -0.054160 0.089135
-0.124022 -0.054160 0.090265
-0.121425 -0.053445 0.089929
-0.119759 -0.053445 0.091060
-0.117155 -0.052729 0.090725
-0.115487 -0.052729 0.091857
-0.112875 -0.052012 0.091522
-0.111206 -0.052012 0.092655
-0.108587 -0.051293 0.092320
-0.106916 -0.051293 0.093455
-0.104290 -0.050573 0.093121
-0.102616 -0.050573 0.094257
-0.099983 -0.049851 0.093923
-0.098308 -0.049851 0.095060
-0.095668 -0.049127 0.094727
-0.093991 -0.049127 0.095865
-0.091343 -0.048402 0.095533
-0.089664 -0.048402 0.096672
-0.087009 -0.047676 0.096340
-0.085329 -0.047676 0.097480
-0.082666 -0.046947 0.097149
-0.080984 -0.046947 0.098291
-0.078313 -0.046218 0.097959
-0.076630 -0.046218 0.099103
-0.073952 -0.045486 0.098772
-0.072266 -0.045486 0.099916
-0.069581 -0.044754 0.099586
-0.066890 -0.044019 0.099255
-0.064193 -0.043283 0.098924
-0.061490 -0.042546 0.098591
-0.059798 -0.042546 0.099741
-0.057087 -0.041807 0.099409
-0.054372 -0.041066 0.099076
-0.052675 -0.041066 0.100228
-0.049951 -0.040324 0.099896
-0.047222 -0.039580 0.099563
-0.045522 -0.039580 0.100717
-0.042785 -0.038835 0.100385
-0.040042 -0.038088 0.100052
-0.038338 -0.038088 0.101209
-0.035587 -0.037339 0.100877
-0.032830 -0.036589 0.100544
-0.031123 -0.036589 0.101703
-0.029415 -0.036589 0.102862
-0.026649 -0.035837 0.102531
-0.023877 -0.035083 0.102199
-0.022165 -0.035083 0.103360
-0.019385 -0.034328 0.103029
-0.016599 -0.033571 0.102697
-0.014884 -0.033571 0.103861
-0.012090 -0.032813 0.103529
-0.008204 -0.031291 0.101696
-0.006484 -0.031291 0.102864
-0.003671 -0.030528 0.102530
-0.000853 -0.029763 0.102196
0.000872 -0.029763 0.103366
0.003698 -0.028996 0.103032
0.007640 -0.027458 0.101188
0.009370 -0.027458 0.102362
0.011100 -0.027458 0.103537
0.013946 -0.026686 0.103202
0.016800 -0.025912 0.102866
0.019659 -0.025137 0.102530
0.022525 -0.024360 0.102193
0.025397 -0.023582 0.101855
0.027136 -0.023582 0.103036
0.030017 -0.022802 0.102698
0.032903 -0.022020 0.102360
0.034647 -0.022020 0.103544
0.037542 -0.021236 0.103206
0.040443 -0.020451 0.102868
0.043351 -0.019663 0.102529
0.045100 -0.019663 0.103717
0.048016 -0.018874 0.103378
0.050938 -0.018084 0.103039
0.053867 -0.017291 0.102699
0.056803 -0.016497 0.102359
0.058560 -0.016497 0.103551
0.061504 -0.015701 0.103211
0.064454 -0.014904 0.102870
0.067411 -0.014104 0.102529
0.069174 -0.014104 0.103725
0.072140 -0.013303 0.103384
0.075112 -0.012500 0.103042
0.076879 -0.012500 0.104242
0.079860 -0.011695 0.103900
0.082847 -0.010888 0.103559
0.085841 -0.010080 0.103216
0.087614 -0.010080 0.104419
0.090617 -0.009270 0.104077
0.093627 -0.008457 0.103734
0.096643 -0.007644 0.103390
0.099667 -0.006828 0.103046
0.102697 -0.006010 0.102701
0.104479 -0.006010 0.103911
0.107518 -0.005191 0.103566
0.110564 -0.004370 0.103221
0.113617 -0.003546 0.102875
0.116676 -0.002721 0.102528
0.118467 -0.002721 0.103743
0.121535 -0.001895 0.103397
0.124611 -0.001066 0.103049
0.125120 -0.001895 0.105830
0.128200 -0.001066 0.105486
0.129995 -0.001066 0.106704
0.131789 -0.001066 0.107923
0.133584 -0.001066 0.109141
0.136676 -0.000235 0.108800
0.138473 -0.000235 0.110019
0.140270 -0.000235 0.111239
0.143374 0.000597 0.110900
0.145172 0.000597 0.112121
0.146971 0.000597 0.113342
0.148770 0.000597 0.114563
0.150568 0.000597 0.115784
0.153687 0.001432 0.115450
0.155488 0.001432 0.116672
0.157289 0.001432 0.117895
0.159089 0.001432 0.119117
0.162222 0.002268 0.118786
0.164025 0.002268 0.120010
-0.046641 -0.130764 0.367873
-0.049635 -0.133559 0.374053
-0.050832 -0.135224 0.378131
-0.051139 -0.136329 0.381168
-0.050561 -0.136879 0.383179
-0.050868 -0.137978 0.386199
-0.051173 -0.139072 0.389207
-0.050598 -0.139618 0.391201
-0.050903 -0.140707 0.394192
-0.051207 -0.141791 0.397172
-0.050634 -0.142332 0.399150
-0.050063 -0.142872 0.401124
-0.049492 -0.143410 0.403094
-0.049797 -0.144485 0.406044
-0.049228 -0.145021 0.408005
-0.048661 -0.145556 0.409962
-0.048966 -0.146623 0.412889
-0.048400 -0.147154 0.414836
-0.046964 -0.147154 0.415811
-0.046401 -0.147685 0.417754
-0.045838 -0.148216 0.419693
-0.045276 -0.148745 0.421629
-0.044716 -0.149273 0.423561
-0.044157 -0.149800 0.425489
-0.044468 -0.150851 0.428367
-0.043910 -0.151376 0.430287
-0.043353 -0.151899 0.432202
-0.042798 -0.152421 0.434114
-0.042243 -0.152943 0.436023
-0.041689 -0.153463 0.437929
-0.041136 -0.153983 0.439831
-0.040585 -0.154502 0.441729
-0.040034 -0.155020 0.443624
-0.039484 -0.155536 0.445516
-0.038935 -0.156052 0.447404
-0.038388 -0.156567 0.449289
-0.037841 -0.157081 0.451171
-0.037295 -0.157594 0.453049
-0.036750 -0.158107 0.454924
-0.036206 -0.158618 0.456796
-0.036527 -0.159638 0.459575
-0.035985 -0.160147 0.461437
-0.035443 -0.160654 0.463297
-0.034903 -0.161161 0.465152
-0.034364 -0.161667 0.467005
-0.033825 -0.162172 0.468854
-0.033288 -0.162676 0.470701
-0.032751 -0.163179 0.472543
-0.031354 -0.163179 0.473492
-0.029957 -0.163179 0.474440
-0.027695 -0.162676 0.474497
-0.025428 -0.162172 0.474555
-0.024029 -0.162172 0.475505
-0.021757 -0.161667 0.475563
-0.020356 -0.161667 0.476514
-0.018079 -0.161161 0.476573
-0.015798 -0.160654 0.476633
-0.014395 -0.160654 0.477585
-0.012109 -0.160147 0.477646
0.196711 -0.041066 0.269523
0.197116 -0.041807 0.271974
0.197520 -0.042546 0.274419
0.197923 -0.043283 0.276860
0.199614 -0.043283 0.278008
0.201305 -0.043283 0.279156
0.201703 -0.044019 0.281588
0.203392 -0.044019 0.282735
0.206378 -0.043283 0.282599
0.208069 -0.043283 0.283747
0.211063 -0.042546 0.283613
0.216686 -0.040324 0.280902
0.221022 -0.038835 0.279469
0.225377 -0.037339 0.278031
0.233774 -0.033571 0.272662
0.250490 -0.025137 0.259228
0.266200 -0.017291 0.246840
0.283710 -0.008457 0.232771
0.284036 -0.009270 0.235378
0.282915 -0.010888 0.239374
0.283241 -0.011695 0.241965
0.283566 -0.012500 0.244551
0.283891 -0.013303 0.247131
0.284215 -0.014104 0.249705
0.284538 -0.014904 0.252273
0.284860 -0.015701 0.254836
0.285182 -0.016497 0.257392
0.285503 -0.017291 0.259944
0.287257 -0.017291 0.261135
0.287576 -0.018084 0.263679
0.287893 -0.018874 0.266218
0.289644 -0.018874 0.267406
0.289959 -0.019663 0.269938
0.290273 -0.020451 0.272464
0.290587 -0.021236 0.274985
0.292332 -0.021236 0.276170
0.292643 -0.022020 0.278683
0.292953 -0.022802 0.281191
0.294694 -0.022802 0.282373
0.295002 -0.023582 0.284875
0.296741 -0.023582 0.286056
0.297046 -0.024360 0.288550
0.298784 -0.024360 0.289730
0.299086 -0.025137 0.292217
0.300822 -0.025137 0.293396
0.301122 -0.025912 0.295877
0.304293 -0.025137 0.295752
0.304589 -0.025912 0.298230
0.306323 -0.025912 0.299407
0.308056 -0.025912 0.300584
0.309790 -0.025912 0.301761
0.311524 -0.025912 0.302938
0.313257 -0.025912 0.304115
0.314991 -0.025912 0.305292
0.315275 -0.026686 0.307757
0.317007 -0.026686 0.308933
0.318738 -0.026686 0.310108
0.320470 -0.026686 0.311284
0.322202 -0.026686 0.312460
0.323934 -0.026686 0.313635
0.325666 -0.026686 0.314811
0.327397 -0.026686 0.315986
0.329129 -0.026686 0.317162
0.330861 -0.026686 0.318338
0.332593 -0.026686 0.319513
0.334324 -0.026686 0.320689
0.337529 -0.025912 0.320591
0.340740 -0.025137 0.320494
0.343958 -0.024360 0.320396
0.347183 -0.023582 0.320298
0.350416 -0.022802 0.320200
0.353655 -0.022020 0.320101
0.356902 -0.021236 0.320003
0.361668 -0.019663 0.318617
0.364934 -0.018874 0.318517
0.372796 -0.015701 0.314530
0.379179 -0.013303 0.311817
0.385605 -0.010888 0.309085
-0.462382 0.020853 -0.366945
-0.463716 0.016466 -0.354920
-0.465036 0.012129 -0.343034
-0.464462 0.010409 -0.337573
-0.464518 0.007843 -0.330048
-0.463949 0.006142 -0.324649
-0.463383 0.004449 -0.319274
-0.462195 0.003606 -0.315981
-0.460384 0.003606 -0.314752
-0.459201 0.002764 -0.311468
-0.457393 0.002764 -0.310240
-0.456214 0.001924 -0.306965
-0.455039 0.001086 -0.303698
-0.453234 0.001086 -0.302472
-0.452064 0.000251 -0.299214
-0.450895 -0.000583 -0.295963
-0.449095 -0.000583 -0.294740
-0.447931 -0.001416 -0.291498
-0.446771 -0.002246 -0.288263
-0.444974 -0.002246 -0.287043
-0.443818 -0.003074 -0.283817
-0.442024 -0.003074 -0.282598
-0.440872 -0.003901 -0.279381
-0.439080 -0.003901 -0.278164
-0.437933 -0.004725 -0.274955
-0.436142 -0.004725 -0.273739
-0.435000 -0.005548 -0.270539
-0.433212 -0.005548 -0.269325
-0.432074 -0.006369 -0.266133
-0.430288 -0.006369 -0.264920
-0.428501 -0.006369 -0.263707
-0.427370 -0.007188 -0.260526
-0.425586 -0.007188 -0.259314
-0.424459 -0.008005 -0.256141
-0.422677 -0.008005 -0.254931
-0.420895 -0.008005 -0.253721
-0.419112 -0.008005 -0.252511
-0.417330 -0.008005 -0.251301
-0.415547 -0.008005 -0.250091
-0.413765 -0.008005 -0.248881
-0.412653 -0.008820 -0.245723
-0.410872 -0.008820 -0.244514
-0.409092 -0.008820 -0.243305
-0.407311 -0.008820 -0.242097
-0.406208 -0.009634 -0.238950
-0.403750 -0.008820 -0.239679
-0.401970 -0.008820 -0.238471
-0.399505 -0.008005 -0.239201
-0.397722 -0.008005 -0.237990
-0.396629 -0.008820 -0.234845
-0.394157 -0.008005 -0.235570
-0.392375 -0.008005 -0.234360
-0.389896 -0.007188 -0.235086
-0.388112 -0.007188 -0.233875
-0.388423 -0.009634 -0.226877
-0.388039 -0.011255 -0.221836
-0.387656 -0.012870 -0.216818
-0.387274 -0.014477 -0.211822
-0.386894 -0.016077 -0.206848
-0.386517 -0.017669 -0.201896
-0.386140 -0.019255 -0.196967
-0.385766 -0.020834 -0.192059
-0.385393 -0.022406 -0.187173
-0.385021 -0.023970 -0.182308
-0.384652 -0.025528 -0.177465
-0.384283 -0.027079 -0.172643
-0.383917 -0.028624 -0.167842
-0.384233 -0.030928 -0.161266
-0.383869 -0.032455 -0.156516
-0.382827 -0.033217 -0.153565
-0.381788 -0.033976 -0.150620
-0.381430 -0.035490 -0.145914
-0.381074 -0.036998 -0.141228
-0.380042 -0.037750 -0.138312
-0.379690 -0.039248 -0.133658
-0.378663 -0.039994 -0.130760
-0.378315 -0.041483 -0.126136
-0.377293 -0.042225 -0.123256
-0.375594 -0.042225 -0.122103
-0.374576 -0.042965 -0.119230
-0.373560 -0.043703 -0.116362
-0.372546 -0.044440 -0.113502
-0.370853 -0.044440 -0.112352
-0.369843 -0.045176 -0.109499
-0.368835 -0.045910 -0.106651
-0.367829 -0.046642 -0.103810
-0.366141 -0.046642 -0.102664
-0.365140 -0.047373 -0.099830
-0.364140 -0.048102 -0.097002
-0.363142 -0.048830 -0.094180
-0.361460 -0.048830 -0.093038
-0.360466 -0.049556 -0.090223
-0.359475 -0.050280 -0.087414
-0.357796 -0.050280 -0.086275
-0.356809 -0.051003 -0.083473
-0.355823 -0.051725 -0.080677
-0.354148 -0.051725 -0.079540
-0.353166 -0.052445 -0.076751
-0.352186 -0.053163 -0.073968
-0.350515 -0.053163 -0.072834
-0.349539 -0.053880 -0.070058
-0.348565 -0.054596 -0.067288
-0.346897 -0.054596 -0.066156
-0.345230 -0.054596 -0.065024
-0.344261 -0.055310 -0.062262
-0.342595 -0.055310 -0.061131
-0.341631 -0.056022 -0.058376
-0.339966 -0.056022 -0.057246
-0.339006 -0.056733 -0.054499
-0.337343 -0.056733 -0.053370
-0.336386 -0.057443 -0.050629
-0.335431 -0.058151 -0.047894
-0.333772 -0.058151 -0.046768
-0.332821 -0.058857 -0.044040
-0.331163 -0.058857 -0.042914
-0.329506 -0.058857 -0.041789
-0.328560 -0.059562 -0.039069
-0.327616 -0.060266 -0.036355
-0.325962 -0.060266 -0.035232
-0.324308 -0.060266 -0.034109
-0.322654 -0.060266 -0.032986
-0.321718 -0.060968 -0.030281
-0.320066 -0.060968 -0.029160
-0.318413 -0.060968 -0.028038
-0.317482 -0.061668 -0.025341
-0.315832 -0.061668 -0.024220
-0.314181 -0.061668 -0.023100
-0.313255 -0.062367 -0.020411
-0.311606 -0.062367 -0.019291
-0.309958 -0.062367 -0.018172
-0.309037 -0.063065 -0.015491
-0.307390 -0.063065 -0.014373
-0.305743 -0.063065 -0.013254
-0.304096 -0.063065 -0.012136
-0.302449 -0.063065 -0.011018
-0.300802 -0.063065 -0.009900
-0.299155 -0.063065 -0.008782
-0.297508 -0.063065 -0.007664
-0.295861 -0.063065 -0.006546
-0.294214 -0.063065 -0.005428
-0.292567 -0.063065 -0.004310
-0.290919 -0.063065 -0.003191
-0.289272 -0.063065 -0.002073
-0.287625 -0.063065 -0.000955
-0.286729 -0.063761 0.001705
-0.285084 -0.063761 0.002822
-0.283438 -0.063761 0.003939
-0.281793 -0.063761 0.005056
-0.280148 -0.063761 0.006173
-0.279260 -0.064456 0.008824
-0.277616 -0.064456 0.009939
-0.275973 -0.064456 0.011055
-0.274329 -0.064456 0.012171
-0.272685 -0.064456 0.013287
-0.271042 -0.064456 0.014403
-0.270164 -0.065149 0.017042
-0.268522 -0.065149 0.018157
-0.266881 -0.065149 0.019271
-0.265239 -0.065149 0.020386
-0.263597 -0.065149 0.021500
-0.262728 -0.065841 0.024129
-0.261088 -0.065841 0.025243
-0.259447 -0.065841 0.026356
-0.257807 -0.065841 0.027470
-0.256167 -0.065841 0.028583
-0.254527 -0.065841 0.029697
-0.252886 -0.065841 0.030810
-0.251246 -0.065841 0.031924
-0.249606 -0.065841 0.033037
-0.247966 -0.065841 0.034151
-0.246325 -0.065841 0.035264
-0.244685 -0.065841 0.036378
-0.243045 -0.065841 0.037491
-0.241405 -0.065841 0.038605
-0.239764 -0.065841 0.039718
-0.238124 -0.065841 0.040832
-0.236484 -0.065841 0.041945
-0.234844 -0.065841 0.043059
-0.233203 -0.065841 0.044172
-0.231563 -0.065841 0.045286
-0.229923 -0.065841 0.046399
-0.228283 -0.065841 0.047512
-0.226642 -0.065841 0.048626
-0.225002 -0.065841 0.049739
-0.223362 -0.065841 0.050853
-0.221722 -0.065841 0.051966
-0.220081 -0.065841 0.053080
-0.218441 -0.065841 0.054193
-0.216801 -0.065841 0.055307
-0.215161 -0.065841 0.056420
-0.213520 -0.065841 0.057534
-0.211880 -0.065841 0.058647
-0.210240 -0.065841 0.059761
-0.208600 -0.065841 0.060874
-0.206960 -0.065841 0.061988
-0.205319 -0.065841 0.063101
-0.203679 -0.065841 0.064215
-0.202039 -0.065841 0.065328
-0.200399 -0.065841 0.066442
-0.198758 -0.065841 0.067555
-0.197118 -0.065841 0.068669
-0.195478 -0.065841 0.069782
-0.193838 -0.065841 0.070895
-0.192197 -0.065841 0.072009
-0.189709 -0.065149 0.071659
-0.188067 -0.065149 0.072773
-0.186425 -0.065149 0.073888
-0.183928 -0.064456 0.073539
-0.182284 -0.064456 0.074655
-0.180641 -0.064456 0.075771
-0.178135 -0.063761 0.075424
-0.176490 -0.063761 0.076541
-0.174844 -0.063761 0.077658
-0.172330 -0.063065 0.077313
-0.170683 -0.063065 0.078431
-0.168162 -0.062367 0.078086
-0.165635 -0.061668 0.077740
-0.163985 -0.061668 0.078860
-0.162334 -0.061668 0.079981
-0.159799 -0.060968 0.079637
-0.158147 -0.060968 0.080758
-0.156494 -0.060968 0.081880
-0.154842 -0.060968 0.083002
-0.152297 -0.060266 0.082660
-0.150643 -0.060266 0.083783
-0.148090 -0.059562 0.083442
-0.146434 -0.059562 0.084566
-0.143874 -0.058857 0.084226
-0.142217 -0.058857 0.085351
-0.139650 -0.058151 0.085011
-0.137991 -0.058151 0.086137
-0.136332 -0.058151 0.087264
-0.133756 -0.057443 0.086926
-0.132095 -0.057443 0.088053
-0.129512 -0.056733 0.087715
-0.127849 -0.056733 0.088844
-0.125259 -0.056022 0.088507
-0.123595 -0.056022 0.089637
-0.120998 -0.055310 0.089300
-0.119331 -0.055310 0.090431
-0.116727 -0.054596 0.090094
-0.114117 -0.053880 0.089757
-0.112447 -0.053880 0.090891
-0.109830 -0.053163 0.090554
-0.108158 -0.053163 0.091689
-0.105534 -0.052445 0.091353
-0.103860 -0.052445 0.092489
-0.102187 -0.052445 0.093625
-0.099554 -0.051725 0.093290
-0.097879 -0.051725 0.094427
-0.095238 -0.051003 0.094093
-0.093561 -0.051003 0.095232
-0.090912 -0.050280 0.094898
-0.089234 -0.050280 0.096038
-0.086578 -0.049556 0.095705
-0.084898 -0.049556 0.096846
-0.082234 -0.048830 0.096513
-0.079565 -0.048102 0.096180
-0.077882 -0.048102 0.097323
-0.075205 -0.047373 0.096991
-0.073519 -0.047373 0.098135
-0.070835 -0.046642 0.097803
-0.068146 -0.045910 0.097470
-0.065450 -0.045176 0.097137
-0.063759 -0.045176 0.098285
-0.061056 -0.044440 0.097952
-0.058348 -0.043703 0.097618
-0.056653 -0.043703 0.098768
-0.053936 -0.042965 0.098435
-0.051214 -0.042225 0.098101
-0.049516 -0.042225 0.099254
-0.046786 -0.041483 0.098921
-0.044050 -0.040739 0.098587
-0.042348 -0.040739 0.099742
-0.039605 -0.039994 0.099409
-0.036855 -0.039248 0.099074
-0.035150 -0.039248 0.100232
-0.032392 -0.038500 0.099899
-0.029629 -0.037750 0.099564
-0.027920 -0.037750 0.100725
-0.026211 -0.037750 0.101885
-0.023438 -0.036998 0.101552
-0.020659 -0.036245 0.101219
-0.018946 -0.036245 0.102382
-0.016159 -0.035490 0.102049
-0.013366 -0.034734 0.101715
-0.011650 -0.034734 0.102881
-0.008849 -0.033976 0.102548
-0.006042 -0.033217 0.102214
-0.003230 -0.032455 0.101880
-0.000410 -0.031692 0.101544
0.002415 -0.030928 0.101208
0.004141 -0.030928 0.102380
0.008083 -0.029393 0.100534
0.010927 -0.028624 0.100196
0.012659 -0.028624 0.101372
0.014391 -0.028624 0.102547
0.017244 -0.027853 0.102211
0.020104 -0.027079 0.101874
0.021840 -0.027079 0.103052
0.024708 -0.026305 0.102716
0.027583 -0.025528 0.102378
0.029322 -0.025528 0.103559
0.033351 -0.023970 0.101702
0.036244 -0.023189 0.101362
0.037989 -0.023189 0.102547
0.040891 -0.022406 0.102208
0.043799 -0.021621 0.101868
0.046714 -0.020834 0.101528
0.048465 -0.020834 0.102717
0.051388 -0.020045 0.102377
0.054317 -0.019255 0.102036
0.057253 -0.018463 0.101695
0.059010 -0.018463 0.102887
0.061955 -0.017669 0.102547
0.064906 -0.016874 0.102205
0.067864 -0.016077 0.101863
0.069626 -0.016077 0.103059
0.072592 -0.015278 0.102718
0.075565 -0.014477 0.102375
0.078545 -0.013674 0.102032
0.080313 -0.013674 0.103232
0.083301 -0.012870 0.102890
0.085072 -0.012870 0.104091
0.088069 -0.012063 0.103749
0.091072 -0.011255 0.103407
0.094082 -0.010445 0.103063
0.097099 -0.009634 0.102718
0.100123 -0.008820 0.102373
0.103154 -0.008005 0.102027
0.104936 -0.008005 0.103237
0.107976 -0.007188 0.102892
0.111022 -0.006369 0.102546
0.114075 -0.005548 0.102199
0.117135 -0.004725 0.101851
0.118926 -0.004725 0.103067
0.121995 -0.003901 0.102719
0.125071 -0.003074 0.102371
0.125580 -0.003901 0.105153
0.127373 -0.003901 0.106370
0.130455 -0.003074 0.106026
0.132249 -0.003074 0.107244
0.134044 -0.003074 0.108463
0.137137 -0.002246 0.108121
0.138934 -0.002246 0.109341
0.140731 -0.002246 0.110560
0.142527 -0.002246 0.111780
0.145634 -0.001416 0.111441
0.147432 -0.001416 0.112662
0.149231 -0.001416 0.113883
0.151030 -0.001416 0.115105
0.154149 -0.000583 0.114769
0.155950 -0.000583 0.115992
0.157751 -0.000583 0.117214
0.159551 -0.000583 0.118437
0.161352 -0.000583 0.119659
0.164487 0.000251 0.119329
0.166290 0.000251 0.120553
-0.049258 -0.135204 0.373497
-0.051342 -0.137415 0.378601
-0.050764 -0.137966 0.380616
-0.051070 -0.139063 0.383643
-0.051375 -0.140157 0.386659
-0.050800 -0.140702 0.388657
-0.051104 -0.141789 0.391655
-0.051408 -0.142873 0.394643
-0.050835 -0.143413 0.396625
-0.051138 -0.144491 0.399595
-0.052313 -0.146100 0.403540
-0.050870 -0.146100 0.404520
-0.050300 -0.146634 0.406482
-0.050603 -0.147700 0.409418
-0.050035 -0.148231 0.411370
-0.049468 -0.148762 0.413318
-0.048903 -0.149291 0.415263
-0.048338 -0.149820 0.417205
-0.047774 -0.150348 0.419143
-0.047211 -0.150874 0.421077
-0.046650 -0.151400 0.423008
-0.046089 -0.151925 0.424935
-0.045529 -0.152449 0.426859
-0.044970 -0.152971 0.428780
-0.044413 -0.153493 0.430697
-0.043856 -0.154014 0.432610
-0.043300 -0.154534 0.434521
-0.042746 -0.155053 0.436427
-0.042192 -0.155572 0.438331
-0.041639 -0.156089 0.440230
-0.041088 -0.156605 0.442127
-0.040537 -0.157121 0.444020
-0.039987 -0.157635 0.445910
-0.039438 -0.158149 0.447796
-0.038891 -0.158661 0.449679
-0.038344 -0.159173 0.451559
-0.037798 -0.159684 0.453435
-0.037253 -0.160194 0.455308
-0.036709 -0.160703 0.457177
-0.036166 -0.161211 0.459044
-0.035624 -0.161718 0.460907
-0.035083 -0.162225 0.462766
-0.034543 -0.162730 0.464623
-0.034004 -0.163234 0.466476
-0.033466 -0.163738 0.468326
-0.032929 -0.164241 0.470172
-0.032393 -0.164743 0.472015
-0.030996 -0.164743 0.472964
-0.028734 -0.164241 0.473020
-0.026469 -0.163738 0.473076
-0.024199 -0.163234 0.473132
-0.022798 -0.163234 0.474083
-0.020524 -0.162730 0.474140
-0.019122 -0.162730 0.475092
-0.016841 -0.162225 0.475150
-0.014557 -0.161718 0.475208
-0.012269 -0.161211 0.475266
0.199333 -0.040739 0.263806
0.199736 -0.041483 0.266271
0.200138 -0.042225 0.268731
0.200539 -0.042965 0.271185
0.202236 -0.042965 0.272337
0.203933 -0.042965 0.273488
0.204329 -0.043703 0.275935
0.206024 -0.043703 0.277086
0.207719 -0.043703 0.278236
0.210719 -0.042965 0.278095
0.213725 -0.042225 0.277954
0.218055 -0.040739 0.276516
0.223731 -0.038500 0.273767
0.228105 -0.036998 0.272311
0.233845 -0.034734 0.269534
0.249200 -0.027079 0.257394
0.264895 -0.019255 0.244986
0.280942 -0.011255 0.232299
0.284165 -0.010445 0.232100
0.284491 -0.011255 0.234708
0.284816 -0.012063 0.237310
0.283695 -0.013674 0.241297
0.284020 -0.014477 0.243883
0.284343 -0.015278 0.246464
0.284667 -0.016077 0.249039
0.284989 -0.016874 0.251608
0.285311 -0.017669 0.254171
0.285632 -0.018463 0.256729
0.285953 -0.019255 0.259281
0.287707 -0.019255 0.260472
0.288025 -0.020045 0.263017
0.288342 -0.020834 0.265556
0.290093 -0.020834 0.266745
0.290407 -0.021621 0.269277
0.290721 -0.022406 0.271804
0.291034 -0.023189 0.274325
0.292779 -0.023189 0.275510
0.293090 -0.023970 0.278025
0.293399 -0.024750 0.280533
0.295141 -0.024750 0.281716
0.295448 -0.025528 0.284218
0.297187 -0.025528 0.285398
0.297492 -0.026305 0.287894
0.299229 -0.026305 0.289073
0.299531 -0.027079 0.291562
0.301267 -0.027079 0.292740
0.301566 -0.027853 0.295222
0.303300 -0.027853 0.296399
0.305034 -0.027853 0.297575
0.306767 -0.027853 0.298752
0.308501 -0.027853 0.299929
0.310235 -0.027853 0.301106
0.311968 -0.027853 0.302283
0.313702 -0.027853 0.303460
0.313987 -0.028624 0.305927
0.315719 -0.028624 0.307103
0.317451 -0.028624 0.308279
0.317732 -0.029393 0.310738
0.319462 -0.029393 0.311912
0.321192 -0.029393 0.313087
0.324378 -0.028624 0.312981
0.326110 -0.028624 0.314157
0.327841 -0.028624 0.315332
0.329573 -0.028624 0.316508
0.331305 -0.028624 0.317683
0.333037 -0.028624 0.318859
0.334769 -0.028624 0.320035
0.336500 -0.028624 0.321210
0.339707 -0.027853 0.321113
0.342920 -0.027079 0.321016
0.346141 -0.026305 0.320919
0.349369 -0.025528 0.320822
0.352604 -0.024750 0.320724
0.355845 -0.023970 0.320626
0.360604 -0.022406 0.319244
0.363865 -0.021621 0.319144
0.371713 -0.018463 0.315165
0.378086 -0.016077 0.312456
0.386059 -0.012870 0.308416
-0.461972 0.016147 -0.359910
-0.463304 0.011803 -0.347967
-0.463364 0.009220 -0.340371
-0.462796 0.007508 -0.334923
-0.462857 0.004956 -0.327415
-0.462293 0.003263 -0.322028
-0.461105 0.002420 -0.318728
-0.459920 0.001579 -0.315436
-0.458109 0.001579 -0.314207
-0.456929 0.000740 -0.310924
-0.455120 0.000740 -0.309696
-0.453944 -0.000098 -0.306421
-0.452771 -0.000933 -0.303154
-0.450966 -0.000933 -0.301929
-0.449798 -0.001767 -0.298671
-0.448633 -0.002599 -0.295421
-0.446832 -0.002599 -0.294198
-0.445671 -0.003428 -0.290956
-0.444513 -0.004256 -0.287722
-0.442717 -0.004256 -0.286502
-0.441563 -0.005082 -0.283276
-0.439769 -0.005082 -0.282058
-0.438620 -0.005907 -0.278841
-0.436827 -0.005907 -0.277624
-0.435683 -0.006729 -0.274416
-0.433893 -0.006729 -0.273200
-0.432753 -0.007549 -0.270000
-0.430965 -0.007549 -0.268786
-0.429830 -0.008368 -0.265595
-0.428043 -0.008368 -0.264382
-0.426257 -0.008368 -0.263170
-0.425128 -0.009185 -0.259988
-0.423344 -0.009185 -0.258777
-0.422220 -0.010000 -0.255604
-0.420437 -0.010000 -0.254394
-0.418655 -0.010000 -0.253184
-0.416872 -0.010000 -0.251974
-0.415090 -0.010000 -0.250764
-0.413307 -0.010000 -0.249554
-0.411525 -0.010000 -0.248344
-0.410416 -0.010813 -0.245187
-0.408635 -0.010813 -0.243978
-0.406855 -0.010813 -0.242769
-0.405074 -0.010813 -0.241561
-0.403974 -0.011624 -0.238414
-0.401513 -0.010813 -0.239143
-0.399048 -0.010000 -0.239874
-0.397265 -0.010000 -0.238664
-0.395483 -0.010000 -0.237454
-0.394391 -0.010813 -0.234309
-0.391918 -0.010000 -0.235034
-0.389438 -0.009185 -0.235761
-0.386954 -0.008368 -0.236489
-0.387270 -0.010813 -0.229474
-0.386887 -0.012433 -0.224422
-0.387201 -0.014851 -0.217486
-0.386821 -0.016454 -0.212489
-0.386442 -0.018049 -0.207514
-0.386065 -0.019638 -0.202561
-0.385690 -0.021219 -0.197630
-0.384627 -0.022007 -0.194577
-0.384256 -0.023578 -0.189680
-0.383887 -0.025142 -0.184805
-0.384205 -0.027475 -0.178122
-0.383838 -0.029022 -0.173299
-0.382788 -0.029793 -0.170307
-0.382426 -0.031329 -0.165516
-0.382747 -0.033622 -0.158955
-0.382386 -0.035142 -0.154215
-0.381347 -0.035899 -0.151269
-0.380990 -0.037410 -0.146562
-0.379956 -0.038162 -0.143634
-0.379604 -0.039663 -0.138958
-0.378574 -0.040410 -0.136048
-0.378226 -0.041901 -0.131403
-0.377879 -0.043385 -0.126779
-0.376857 -0.044125 -0.123897
-0.375159 -0.044125 -0.122744
-0.374141 -0.044863 -0.119871
-0.373125 -0.045600 -0.117003
-0.372111 -0.046335 -0.114141
-0.370419 -0.046335 -0.112992
-0.369409 -0.047068 -0.110138
-0.368401 -0.047800 -0.107289
-0.366712 -0.047800 -0.106143
-0.365709 -0.048530 -0.103302
-0.364707 -0.049259 -0.100467
-0.363708 -0.049986 -0.097638
-0.362024 -0.049986 -0.096495
-0.361029 -0.050712 -0.093674
-0.360035 -0.051436 -0.090858
-0.358355 -0.051436 -0.089717
-0.357366 -0.052159 -0.086909
-0.356378 -0.052880 -0.084106
-0.354702 -0.052880 -0.082968
-0.353718 -0.053599 -0.080173
-0.352737 -0.054317 -0.077384
-0.351064 -0.054317 -0.076248
-0.350086 -0.055034 -0.073465
-0.349111 -0.055749 -0.070689
-0.347441 -0.055749 -0.069555
-0.346470 -0.056462 -0.066786
-0.344802 -0.056462 -0.065654
-0.343134 -0.056462 -0.064522
-0.342168 -0.057174 -0.061760
-0.340502 -0.057174 -0.060629
-0.339539 -0.057885 -0.057875
-0.337875 -0.057885 -0.056745
-0.336916 -0.058594 -0.053998
-0.335254 -0.058594 -0.052869
-0.334299 -0.059301 -0.050129
-0.333346 -0.060007 -0.047395
-0.331687 -0.060007 -0.046268
-0.330738 -0.060712 -0.043541
-0.329081 -0.060712 -0.042415
-0.328135 -0.061415 -0.039695
-0.326480 -0.061415 -0.038571
-0.325538 -0.062116 -0.035857
-0.323884 -0.062116 -0.034734
-0.322230 -0.062116 -0.033611
-0.320576 -0.062116 -0.032489
-0.319642 -0.062817 -0.029784
-0.317990 -0.062817 -0.028662
-0.316337 -0.062817 -0.027541
-0.315408 -0.063515 -0.024844
-0.313758 -0.063515 -0.023723
-0.312107 -0.063515 -0.022603
-0.311184 -0.064212 -0.019914
-0.309535 -0.064212 -0.018795
-0.307886 -0.064212 -0.017676
-0.306968 -0.064908 -0.014995
-0.304588 -0.064212 -0.015437
-0.302940 -0.064212 -0.014318
-0.301291 -0.064212 -0.013199
-0.300379 -0.064908 -0.010522
-0.298732 -0.064908 -0.009404
-0.297085 -0.064908 -0.008286
-0.295438 -0.064908 -0.007168
-0.293791 -0.064908 -0.006050
-0.292144 -0.064908 -0.004932
-0.290497 -0.064908 -0.003814
-0.288850 -0.064908 -0.002696
-0.287203 -0.064908 -0.001578
-0.285556 -0.064908 -0.000459
-0.283909 -0.064908 0.000659
-0.283016 -0.065603 0.003318
-0.281371 -0.065603 0.004435
-0.279725 -0.065603 0.005552
-0.278080 -0.065603 0.006669
-0.276435 -0.065603 0.007785
-0.275551 -0.066295 0.010434
-0.273907 -0.066295 0.011550
-0.272264 -0.066295 0.012666
-0.270620 -0.066295 0.013782
-0.268976 -0.066295 0.014897
-0.268101 -0.066987 0.017536
-0.266459 -0.066987 0.018651
-0.264817 -0.066987 0.019765
-0.263175 -0.066987 0.020880
-0.261534 -0.066987 0.021995
-0.259892 -0.066987 0.023109
-0.258250 -0.066987 0.024224
-0.256608 -0.066987 0.025339
-0.254966 -0.066987 0.026453
-0.254106 -0.067677 0.029077
-0.252466 -0.067677 0.030191
-0.250826 -0.067677 0.031304
-0.249185 -0.067677 0.032418
-0.247545 -0.067677 0.033531
-0.245905 -0.067677 0.034645
-0.244265 -0.067677 0.035758
-0.242624 -0.067677 0.036871
-0.240984 -0.067677 0.037985
-0.239344 -0.067677 0.039098
-0.237704 -0.067677 0.040212
-0.235262 -0.066987 0.039829
-0.233620 -0.066987 0.040943
-0.231978 -0.066987 0.042058
-0.230336 -0.066987 0.043173
-0.229502 -0.067677 0.045779
-0.227862 -0.067677 0.046893
-0.226222 -0.067677 0.048006
-0.224582 -0.067677 0.049120
-0.222941 -0.067677 0.050233
-0.220485 -0.066987 0.049860
-0.218843 -0.066987 0.050975
-0.217201 -0.066987 0.052090
-0.215559 -0.066987 0.053204
-0.213917 -0.066987 0.054319
-0.212275 -0.066987 0.055434
-0.210633 -0.066987 0.056548
-0.208991 -0.066987 0.057663
-0.207349 -0.066987 0.058778
-0.205707 -0.066987 0.059892
-0.204065 -0.066987 0.061007
-0.202423 -0.066987 0.062121
-0.200781 -0.066987 0.063236
-0.199139 -0.066987 0.064351
-0.198338 -0.067677 0.066935
-0.196697 -0.067677 0.068049
-0.195057 -0.067677 0.069162
-0.192572 -0.066987 0.068809
-0.190930 -0.066987 0.069924
-0.189288 -0.066987 0.071038
-0.187646 -0.066987 0.072153
-0.185150 -0.066295 0.071803
-0.183506 -0.066295 0.072918
-0.181863 -0.066295 0.074034
-0.179358 -0.065603 0.073685
-0.177713 -0.065603 0.074802
-0.176068 -0.065603 0.075919
-0.173555 -0.064908 0.075572
-0.171908 -0.064908 0.076690
-0.169388 -0.064212 0.076343
-0.166862 -0.063515 0.075996
-0.165212 -0.063515 0.077116
-0.162680 -0.062817 0.076769
-0.161027 -0.062817 0.077891
-0.159375 -0.062817 0.079013
-0.157723 -0.062817 0.080134
-0.156071 -0.062817 0.081256
-0.153526 -0.062116 0.080913
-0.151872 -0.062116 0.082035
-0.150218 -0.062116 0.083158
-0.147665 -0.061415 0.082817
-0.146009 -0.061415 0.083941
-0.143449 -0.060712 0.083600
-0.141792 -0.060712 0.084725
-0.139224 -0.060007 0.084384
-0.137565 -0.060007 0.085511
-0.134991 -0.059301 0.085170
-0.133330 -0.059301 0.086298
-0.130748 -0.058594 0.085958
-0.129086 -0.058594 0.087087
-0.126497 -0.057885 0.086748
-0.124832 -0.057885 0.087878
-0.122236 -0.057174 0.087539
-0.120570 -0.057174 0.088670
-0.117967 -0.056462 0.088332
-0.116299 -0.056462 0.089464
-0.113689 -0.055749 0.089127
-0.112019 -0.055749 0.090260
-0.109401 -0.055034 0.089923
-0.107730 -0.055034 0.091057
-0.105105 -0.054317 0.090721
-0.103431 -0.054317 0.091857
-0.100799 -0.053599 0.091520
-0.099124 -0.053599 0.092657
-0.096484 -0.052880 0.092322
-0.094807 -0.052880 0.093460
-0.092160 -0.052159 0.093125
-0.090482 -0.052159 0.094264
-0.087827 -0.051436 0.093929
-0.086147 -0.051436 0.095070
-0.083485 -0.050712 0.094736
-0.081803 -0.050712 0.095878
-0.079134 -0.049986 0.095544
-0.077450 -0.049986 0.096687
-0.074773 -0.049259 0.096354
-0.072090 -0.048530 0.096020
-0.070403 -0.048530 0.097165
-0.067713 -0.047800 0.096832
-0.065017 -0.047068 0.096498
-0.062315 -0.046335 0.096163
-0.060622 -0.046335 0.097312
-0.057913 -0.045600 0.096978
-0.055198 -0.044863 0.096643
-0.053501 -0.044863 0.097794
-0.050779 -0.044125 0.097460
-0.048050 -0.043385 0.097125
-0.046350 -0.043385 0.098279
-0.043614 -0.042644 0.097944
-0.040871 -0.041901 0.097608
-0.039168 -0.041901 0.098765
-0.036418 -0.041156 0.098430
-0.033662 -0.040410 0.098094
-0.031954 -0.040410 0.099254
-0.029191 -0.039663 0.098918
-0.027482 -0.039663 0.100079
-0.024710 -0.038913 0.099744
-0.022999 -0.038913 0.100906
-0.020220 -0.038162 0.100572
-0.017434 -0.037410 0.100237
-0.015719 -0.037410 0.101401
-0.012926 -0.036655 0.101067
-0.010127 -0.035899 0.100732
-0.008408 -0.035899 0.101898
-0.005601 -0.035142 0.101564
-0.002788 -0.034383 0.101229
-0.001065 -0.034383 0.102398
0.001756 -0.033622 0.102063
0.004583 -0.032859 0.101728
0.008527 -0.031329 0.099881
0.011371 -0.030562 0.099542
0.013103 -0.030562 0.100717
0.015955 -0.029793 0.100379
0.017689 -0.029793 0.101556
0.020550 -0.029022 0.101218
0.023416 -0.028249 0.100880
0.025154 -0.028249 0.102059
0.028029 -0.027475 0.101721
0.030910 -0.026699 0.101383
0.032651 -0.026699 0.102565
0.035541 -0.025921 0.102227
0.038437 -0.025142 0.101888
0.040182 -0.025142 0.103072
0.044248 -0.023578 0.101208
0.047163 -0.022793 0.100866
0.050085 -0.022007 0.100525
0.051838 -0.022007 0.101714
0.054768 -0.021219 0.101373
0.057704 -0.020429 0.101031
0.059461 -0.020429 0.102224
0.062406 -0.019638 0.101882
0.065357 -0.018844 0.101540
0.068316 -0.018049 0.101197
0.070078 -0.018049 0.102393
0.073045 -0.017252 0.102051
0.076018 -0.016454 0.101708
0.078998 -0.015653 0.101364
0.080767 -0.015653 0.102564
0.083755 -0.014851 0.102221
0.086751 -0.014047 0.101876
0.088523 -0.014047 0.103080
0.091527 -0.013241 0.102736
0.094538 -0.012433 0.102392
0.097556 -0.011624 0.102047
0.100580 -0.010813 0.101701
0.103611 -0.010000 0.101354
0.105393 -0.010000 0.102564
0.108433 -0.009185 0.102218
0.111480 -0.008368 0.101871
0.114534 -0.007549 0.101523
0.117595 -0.006729 0.101175
0.119385 -0.006729 0.102390
0.122455 -0.005907 0.102042
0.125531 -0.005082 0.101693
0.126040 -0.005907 0.104476
0.127832 -0.005907 0.105693
0.130915 -0.005082 0.105348
0.132710 -0.005082 0.106566
0.134504 -0.005082 0.107785
0.137598 -0.004256 0.107442
0.139395 -0.004256 0.108662
0.141191 -0.004256 0.109881
0.142988 -0.004256 0.111101
0.146095 -0.003428 0.110762
0.147894 -0.003428 0.111983
0.149692 -0.003428 0.113204
0.151491 -0.003428 0.114425
0.153290 -0.003428 0.115646
0.156412 -0.002599 0.115312
0.158212 -0.002599 0.116534
0.160013 -0.002599 0.117756
0.161814 -0.002599 0.118979
0.164949 -0.001767 0.118648
0.166752 -0.001767 0.119872
0.168555 -0.001767 0.121095
-0.050967 -0.139054 0.378048
-0.051273 -0.140150 0.381082
-0.051578 -0.141243 0.384106
-0.051882 -0.142331 0.387118
-0.051306 -0.142874 0.389114
-0.051610 -0.143957 0.392109
-0.051913 -0.145035 0.395093
-0.051339 -0.145573 0.397072
-0.051642 -0.146646 0.400039
-0.051943 -0.147714 0.402995
-0.052243 -0.148779 0.405940
-0.051673 -0.149310 0.407897
-0.050234 -0.149310 0.408874
-0.049666 -0.149840 0.410827
-0.049100 -0.150369 0.412776
-0.048534 -0.150897 0.414721
-0.048839 -0.151951 0.417629
-0.048275 -0.152476 0.419565
-0.047713 -0.153000 0.421497
-0.047151 -0.153523 0.423426
-0.046590 -0.154046 0.425351
-0.046031 -0.154567 0.427273
-0.045472 -0.155088 0.429191
-0.044914 -0.155607 0.431106
-0.044358 -0.156126 0.433018
-0.043802 -0.156643 0.434926
-0.043247 -0.157160 0.436831
-0.042694 -0.157676 0.438732
-0.042141 -0.158191 0.440630
-0.041589 -0.158705 0.442524
-0.041039 -0.159218 0.444415
-0.040489 -0.159730 0.446303
-0.039940 -0.160241 0.448187
-0.039393 -0.160752 0.450068
-0.038846 -0.161261 0.451946
-0.038300 -0.161770 0.453820
-0.037755 -0.162277 0.455691
-0.037212 -0.162784 0.457558
-0.036669 -0.163290 0.459423
-0.036127 -0.163795 0.461284
-0.035586 -0.164299 0.463141
-0.035046 -0.164802 0.464996
-0.034507 -0.165304 0.466847
-0.033969 -0.165806 0.468695
-0.032570 -0.165806 0.469644
-0.031172 -0.165806 0.470593
-0.029774 -0.165806 0.471542
-0.027509 -0.165304 0.471597
-0.025241 -0.164802 0.471652
-0.023840 -0.164802 0.472603
-0.021566 -0.164299 0.472659
-0.019288 -0.163795 0.472715
-0.017885 -0.163795 0.473667
-0.015602 -0.163290 0.473724
0.201569 -0.039663 0.255569
0.201971 -0.040410 0.258053
0.202373 -0.041156 0.260532
0.202773 -0.041901 0.263006
0.204477 -0.041901 0.264162
0.204875 -0.042644 0.266630
0.206577 -0.042644 0.267785
0.206973 -0.043385 0.270245
0.208673 -0.043385 0.271400
0.210373 -0.043385 0.272554
0.213385 -0.042644 0.272406
0.216404 -0.041901 0.272259
0.220753 -0.040410 0.270803
0.225122 -0.038913 0.269342
0.230852 -0.036655 0.266554
0.235266 -0.035142 0.265076
0.249288 -0.028249 0.254212
0.265002 -0.020429 0.241754
0.281068 -0.012433 0.229017
0.282844 -0.012433 0.230223
0.283172 -0.013241 0.232833
0.284946 -0.013241 0.234038
0.285270 -0.014047 0.236641
0.284148 -0.015653 0.240629
0.284473 -0.016454 0.243216
0.284796 -0.017252 0.245797
0.285119 -0.018049 0.248373
0.285441 -0.018844 0.250942
0.285762 -0.019638 0.253507
0.286083 -0.020429 0.256065
0.286403 -0.021219 0.258618
0.288157 -0.021219 0.259809
0.288475 -0.022007 0.262355
0.288791 -0.022793 0.264895
0.290542 -0.022793 0.266083
0.290856 -0.023578 0.268617
0.291169 -0.024361 0.271144
0.291482 -0.025142 0.273666
0.293227 -0.025142 0.274851
0.293537 -0.025921 0.277366
0.293846 -0.026699 0.279876
0.295587 -0.026699 0.281058
0.295894 -0.027475 0.283560
0.297633 -0.027475 0.284741
0.297937 -0.028249 0.287237
0.299675 -0.028249 0.288417
0.299976 -0.029022 0.290906
0.301712 -0.029022 0.292084
0.302011 -0.029793 0.294567
0.303744 -0.029793 0.295744
0.305478 -0.029793 0.296920
0.307212 -0.029793 0.298097
0.308946 -0.029793 0.299274
0.310679 -0.029793 0.300451
0.312413 -0.029793 0.301628
0.312700 -0.030562 0.304097
0.314431 -0.030562 0.305273
0.316163 -0.030562 0.306449
0.316446 -0.031329 0.308910
0.318176 -0.031329 0.310084
0.319905 -0.031329 0.311259
0.321635 -0.031329 0.312433
0.323365 -0.031329 0.313607
0.325095 -0.031329 0.314782
0.328286 -0.030562 0.314678
0.330017 -0.030562 0.315853
0.331749 -0.030562 0.317029
0.333481 -0.030562 0.318205
0.335213 -0.030562 0.319380
0.336944 -0.030562 0.320556
0.338676 -0.030562 0.321731
0.341885 -0.029793 0.321635
0.345101 -0.029022 0.321539
0.348324 -0.028249 0.321442
0.351554 -0.027475 0.321345
