ply
format ascii 1.0
element vertex 1679
property float x
property float y
property float z
end_header
-0.201298 0.098067 -0.488518
-0.202944 0.098067 -0.488704
-0.204590 0.098067 -0.488889
-0.206592 0.097606 -0.487919
-0.208239 0.097606 -0.488104
-0.209887 0.097606 -0.488289
-0.211534 0.097606 -0.488475
-0.213544 0.097145 -0.487504
-0.215193 0.097145 -0.487689
-0.217207 0.096682 -0.486717
-0.218858 0.096682 -0.486902
-0.220508 0.096682 -0.487088
-0.222158 0.096682 -0.487273
-0.223808 0.096682 -0.487459
-0.225832 0.096219 -0.486485
-0.227484 0.096219 -0.486671
-0.229136 0.096219 -0.486857
-0.230787 0.096219 -0.487043
-0.232439 0.096219 -0.487228
-0.234472 0.095755 -0.486254
-0.236125 0.095755 -0.486440
-0.237778 0.095755 -0.486626
-0.239432 0.095755 -0.486812
-0.241085 0.095755 -0.486997
-0.242738 0.095755 -0.487183
-0.244782 0.095290 -0.486208
-0.246436 0.095290 -0.486394
-0.248091 0.095290 -0.486580
-0.249745 0.095290 -0.486766
-0.251400 0.095290 -0.486952
-0.253453 0.094824 -0.485976
-0.255109 0.094824 -0.486162
-0.256765 0.094824 -0.486348
-0.258421 0.094824 -0.486534
-0.260077 0.094824 -0.486721
-0.261733 0.094824 -0.486907
-0.263797 0.094358 -0.485929
-0.265455 0.094358 -0.486116
-0.267112 0.094358 -0.486302
-0.268770 0.094358 -0.486489
-0.270842 0.093890 -0.485510
-0.272500 0.093890 -0.485697
-0.274159 0.093890 -0.485883
-0.275818 0.093890 -0.486070
-0.277898 0.093422 -0.485090
-0.279558 0.093422 -0.485277
-0.281219 0.093422 -0.485463
-0.282879 0.093422 -0.485650
-0.284967 0.092953 -0.484669
-0.287059 0.092484 -0.483686
-0.288722 0.092484 -0.483873
-0.290385 0.092484 -0.484060
-0.292483 0.092013 -0.483076
-0.294148 0.092013 -0.483263
-0.296251 0.091542 -0.482277
-0.297917 0.091542 -0.482465
-0.299583 0.091542 -0.482652
-0.301693 0.091069 -0.481665
-0.303361 0.091069 -0.481852
-0.305029 0.091069 -0.482040
-0.307145 0.090596 -0.481051
-0.308814 0.090596 -0.481239
-0.310936 0.090122 -0.480249
-0.312606 0.090122 -0.480437
-0.314277 0.090122 -0.480625
-0.316405 0.089648 -0.479633
-0.318077 0.089648 -0.479821
-0.319749 0.089648 -0.480009
-0.321884 0.089172 -0.479016
-0.324023 0.088696 -0.478021
-0.326166 0.088218 -0.477025
-0.327842 0.088218 -0.477213
-0.329990 0.087740 -0.476215
-0.332142 0.087261 -0.475215
-0.333821 0.087261 -0.475404
-0.335978 0.086782 -0.474403
-0.338139 0.086301 -0.473399
-0.340303 0.085819 -0.472394
-0.342472 0.085337 -0.471388
-0.344644 0.084854 -0.470379
-0.346820 0.084370 -0.469368
-0.349000 0.083885 -0.468356
-0.351184 0.083399 -0.467342
-0.353869 0.082425 -0.465118
-0.356063 0.081937 -0.464099
-0.358261 0.081447 -0.463077
-0.360463 0.080957 -0.462054
-0.362668 0.080466 -0.461029
-0.364878 0.079974 -0.460002
-0.367092 0.079481 -0.458973
-0.369310 0.078988 -0.457943
-0.371531 0.078493 -0.456910
-0.373757 0.077998 -0.455876
-0.375987 0.077502 -0.454840
-0.378220 0.077004 -0.453802
-0.380458 0.076506 -0.452762
-0.382700 0.076007 -0.451720
-0.384946 0.075507 -0.450676
-0.387195 0.075007 -0.449631
-0.389987 0.074002 -0.447340
-0.392247 0.073499 -0.446289
-0.394512 0.072994 -0.445236
-0.396236 0.072994 -0.445430
-0.399054 0.071983 -0.443123
-0.401331 0.071475 -0.442064
-0.404166 0.070458 -0.439746
-0.406454 0.069948 -0.438680
-0.409867 0.068413 -0.435083
-0.412168 0.067899 -0.434010
-0.414474 0.067384 -0.432934
-0.417354 0.066352 -0.430582
-0.419671 0.065835 -0.429501
-0.422568 0.064797 -0.427135
-0.425476 0.063755 -0.424762
-0.428395 0.062710 -0.422379
-0.431913 0.061134 -0.418689
-0.434858 0.060079 -0.416284
-0.438411 0.058489 -0.412560
-0.441983 0.056890 -0.408816
-0.444968 0.055819 -0.406374
-0.448576 0.054204 -0.402595
-0.451588 0.053123 -0.400130
-0.455231 0.051494 -0.396315
-0.458270 0.050403 -0.393827
-0.461950 0.048758 -0.389976
0.434136 0.001892 -0.173086
0.431044 0.005076 -0.181664
0.427757 0.008855 -0.191800
0.424510 0.012589 -0.201815
0.421302 0.016278 -0.211710
0.418132 0.019924 -0.221487
0.415831 0.021129 -0.224861
0.413540 0.022330 -0.228222
0.411257 0.023526 -0.231570
0.408783 0.025311 -0.236462
0.406719 0.025904 -0.238226
0.404463 0.027086 -0.241534
0.402409 0.027675 -0.243288
0.400168 0.028850 -0.246577
0.398125 0.029436 -0.248321
0.395899 0.030604 -0.251590
0.393865 0.031186 -0.253324
0.391654 0.032348 -0.256574
0.389631 0.032927 -0.258298
0.387611 0.033505 -0.260019
0.385595 0.034082 -0.261736
0.383411 0.035232 -0.264955
0.381405 0.035805 -0.266662
0.379235 0.036949 -0.269862
0.377239 0.037519 -0.271560
0.375247 0.038088 -0.273254
0.373096 0.039223 -0.276429
0.371114 0.039789 -0.278114
0.369135 0.040353 -0.279796
0.367005 0.041480 -0.282946
0.344822 0.116075 -0.478224
0.343121 0.116503 -0.479522
0.341309 0.117358 -0.481934
0.339615 0.117784 -0.483225
0.337923 0.118209 -0.484515
0.336235 0.118634 -0.485802
0.334549 0.119058 -0.487087
0.332973 0.119058 -0.487265
0.331292 0.119481 -0.488548
0.329717 0.119481 -0.488725
0.328141 0.119481 -0.488902
0.326566 0.119481 -0.489079
0.324991 0.119481 -0.489256
0.323416 0.119481 -0.489433
0.321841 0.119481 -0.489610
0.320266 0.119481 -0.489788
0.318691 0.119481 -0.489965
0.317116 0.119481 -0.490142
0.315541 0.119481 -0.490319
0.313966 0.119481 -0.490496
0.312391 0.119481 -0.490673
0.310816 0.119481 -0.490851
0.309327 0.119058 -0.489924
0.307751 0.119058 -0.490101
0.306175 0.119058 -0.490279
0.304598 0.119058 -0.490456
0.303022 0.119058 -0.490633
0.301446 0.119058 -0.490811
0.299869 0.119058 -0.490988
0.298293 0.119058 -0.491165
0.296716 0.119058 -0.491342
0.295215 0.118634 -0.490416
0.293638 0.118634 -0.490593
0.292060 0.118634 -0.490771
0.290482 0.118634 -0.490948
0.288905 0.118634 -0.491126
0.287327 0.118634 -0.491303
0.285749 0.118634 -0.491480
0.284238 0.118209 -0.490553
0.282659 0.118209 -0.490731
0.281080 0.118209 -0.490908
0.279501 0.118209 -0.491086
0.277922 0.118209 -0.491263
0.276343 0.118209 -0.491441
0.274764 0.118209 -0.491619
0.273185 0.118209 -0.491796
0.271606 0.118209 -0.491974
0.270081 0.117784 -0.491046
0.268501 0.117784 -0.491224
0.266921 0.117784 -0.491401
0.265340 0.117784 -0.491579
0.263760 0.117784 -0.491757
0.262180 0.117784 -0.491935
0.260599 0.117784 -0.492112
0.259019 0.117784 -0.492290
0.257439 0.117784 -0.492468
0.255858 0.117784 -0.492646
0.254278 0.117784 -0.492823
0.252698 0.117784 -0.493001
0.251117 0.117784 -0.493179
0.249537 0.117784 -0.493357
0.247957 0.117784 -0.493534
0.246376 0.117784 -0.493712
0.244830 0.117358 -0.492785
0.243248 0.117358 -0.492963
0.241666 0.117358 -0.493141
0.240085 0.117358 -0.493319
0.238503 0.117358 -0.493497
0.236922 0.117358 -0.493674
0.235366 0.116931 -0.492747
0.233783 0.116931 -0.492925
0.232200 0.116931 -0.493103
0.230617 0.116931 -0.493281
0.229034 0.116931 -0.493459
0.227470 0.116503 -0.492530
0.225886 0.116503 -0.492708
0.224301 0.116503 -0.492886
0.222717 0.116503 -0.493064
0.221133 0.116503 -0.493243
0.219549 0.116503 -0.493421
0.217964 0.116503 -0.493599
0.216390 0.116075 -0.492669
0.214805 0.116075 -0.492848
0.213219 0.116075 -0.493026
0.211633 0.116075 -0.493204
0.210052 0.115646 -0.492274
0.208465 0.115646 -0.492452
0.206879 0.115646 -0.492631
0.205292 0.115646 -0.492809
0.203704 0.115217 -0.491878
0.202116 0.115217 -0.492056
0.200528 0.115217 -0.492235
0.198939 0.115217 -0.492413
0.197351 0.115217 -0.492592
0.195763 0.115217 -0.492771
0.194166 0.114786 -0.491838
0.192576 0.114786 -0.492017
0.190987 0.114786 -0.492196
0.189397 0.114786 -0.492374
0.187808 0.114786 -0.492553
0.186218 0.114786 -0.492732
0.184612 0.114355 -0.491799
0.183039 0.114786 -0.493090
0.181450 0.114786 -0.493268
0.179860 0.114786 -0.493447
0.178248 0.114355 -0.492514
0.176658 0.114355 -0.492693
0.175067 0.114355 -0.492872
0.173476 0.114355 -0.493051
0.171885 0.114355 -0.493230
0.170294 0.114355 -0.493409
0.168673 0.113923 -0.492475
0.167081 0.113923 -0.492655
0.165489 0.113923 -0.492834
0.163896 0.113923 -0.493013
0.162304 0.113923 -0.493192
0.160712 0.113923 -0.493371
0.159082 0.113491 -0.492436
0.157488 0.113491 -0.492616
0.155895 0.113491 -0.492795
0.154301 0.113491 -0.492974
0.152664 0.113058 -0.492039
0.151069 0.113058 -0.492218
0.149474 0.113058 -0.492397
0.147879 0.113058 -0.492577
0.146285 0.113058 -0.492756
0.144690 0.113058 -0.492936
0.143043 0.112624 -0.491999
0.141447 0.112624 -0.492179
0.139851 0.112624 -0.492358
0.138254 0.112624 -0.492538
0.136658 0.112624 -0.492717
0.135062 0.112624 -0.492897
0.133406 0.112189 -0.491960
0.131808 0.112189 -0.492139
0.130211 0.112189 -0.492319
0.128613 0.112189 -0.492499
0.126951 0.111754 -0.491561
0.125352 0.111754 -0.491740
0.123753 0.111754 -0.491920
0.122154 0.111754 -0.492100
0.120555 0.111754 -0.492280
0.118956 0.111754 -0.492460
0.117284 0.111318 -0.491521
0.115683 0.111318 -0.491701
0.114083 0.111318 -0.491881
0.112483 0.111318 -0.492061
0.110883 0.111318 -0.492241
0.109282 0.111318 -0.492421
0.107601 0.110881 -0.491481
0.106082 0.111318 -0.492781
0.104482 0.111318 -0.492961
0.102881 0.111318 -0.493141
0.101194 0.110881 -0.492201
0.099592 0.110881 -0.492381
0.097991 0.110881 -0.492561
0.096389 0.110881 -0.492742
0.094788 0.110881 -0.492922
0.093186 0.110881 -0.493102
0.091394 0.110005 -0.491040
0.089790 0.110005 -0.491220
0.088185 0.110005 -0.491401
0.086581 0.110005 -0.491581
0.084977 0.110005 -0.491761
0.083372 0.110005 -0.491942
0.081664 0.109566 -0.490999
0.080059 0.109566 -0.491180
0.078453 0.109566 -0.491360
0.076847 0.109566 -0.491541
0.075132 0.109126 -0.490597
0.073525 0.109126 -0.490778
0.071918 0.109126 -0.490958
0.070311 0.109126 -0.491139
0.068704 0.109126 -0.491320
0.067097 0.109126 -0.491501
0.065373 0.108685 -0.490556
0.063764 0.108685 -0.490737
0.062156 0.108685 -0.490918
0.060547 0.108685 -0.491099
0.058939 0.108685 -0.491280
0.057331 0.108685 -0.491461
0.055596 0.108244 -0.490515
0.053986 0.108244 -0.490696
0.052377 0.108244 -0.490877
0.050767 0.108244 -0.491058
0.049026 0.107802 -0.490112
0.047414 0.107802 -0.490293
0.045803 0.107802 -0.490474
0.044192 0.107802 -0.490655
0.042581 0.107802 -0.490836
0.040970 0.107802 -0.491018
0.039219 0.107359 -0.490070
0.037606 0.107359 -0.490252
0.035994 0.107359 -0.490433
0.034381 0.107359 -0.490614
0.032769 0.107359 -0.490796
0.031156 0.107359 -0.490977
0.029395 0.106915 -0.490029
0.027931 0.107359 -0.491340
0.026319 0.107359 -0.491521
0.024707 0.107359 -0.491702
0.022940 0.106915 -0.490755
0.021326 0.106915 -0.490936
0.019712 0.106915 -0.491118
0.018098 0.106915 -0.491299
0.016485 0.106915 -0.491481
0.014710 0.106471 -0.490532
0.013094 0.106471 -0.490714
0.011479 0.106471 -0.490895
0.009698 0.106026 -0.489945
0.008082 0.106026 -0.490127
0.006465 0.106026 -0.490309
0.004849 0.106026 -0.490491
0.003232 0.106026 -0.490673
0.001616 0.106026 -0.490855
-0.000001 0.106026 -0.491036
-0.001618 0.106026 -0.491218
-0.003234 0.106026 -0.491400
-0.004851 0.106026 -0.491582
-0.006647 0.105580 -0.490632
-0.008265 0.105580 -0.490814
-0.009883 0.105580 -0.490996
-0.011501 0.105580 -0.491178
-0.013119 0.105580 -0.491360
-0.014737 0.105580 -0.491542
-0.016543 0.105133 -0.490590
-0.018162 0.105133 -0.490773
-0.019782 0.105133 -0.490955
-0.021401 0.105133 -0.491137
-0.023020 0.105133 -0.491319
-0.024835 0.104686 -0.490367
-0.026456 0.104686 -0.490549
-0.028076 0.104686 -0.490731
-0.029697 0.104686 -0.490914
-0.031318 0.104686 -0.491096
-0.033141 0.104238 -0.490143
-0.034763 0.104238 -0.490325
-0.036386 0.104238 -0.490508
-0.038008 0.104238 -0.490690
-0.039630 0.104238 -0.490873
-0.041252 0.104238 -0.491055
-0.043085 0.103789 -0.490101
-0.044709 0.103789 -0.490284
-0.046332 0.103789 -0.490466
-0.047956 0.103789 -0.490649
-0.049579 0.103789 -0.490832
-0.051421 0.103339 -0.489877
-0.053046 0.103339 -0.490059
-0.054671 0.103339 -0.490242
-0.056296 0.103339 -0.490425
-0.057921 0.103339 -0.490608
-0.059772 0.102889 -0.489652
-0.061398 0.102889 -0.489835
-0.063024 0.102889 -0.490018
-0.064650 0.102889 -0.490200
-0.066277 0.102889 -0.490383
-0.067903 0.102889 -0.490566
-0.069764 0.102438 -0.489610
-0.071391 0.102438 -0.489793
-0.073019 0.102438 -0.489976
-0.074647 0.102438 -0.490159
-0.076274 0.102438 -0.490342
-0.078144 0.101986 -0.489384
-0.079773 0.101986 -0.489567
-0.081402 0.101986 -0.489750
-0.083031 0.101986 -0.489934
-0.084660 0.101986 -0.490117
-0.086539 0.101533 -0.489158
-0.088169 0.101533 -0.489341
-0.089800 0.101533 -0.489525
-0.091430 0.101533 -0.489708
-0.093061 0.101533 -0.489892
-0.094691 0.101533 -0.490075
-0.096580 0.101079 -0.489115
-0.098212 0.101079 -0.489299
-0.099844 0.101079 -0.489482
-0.101475 0.101079 -0.489666
-0.103107 0.101079 -0.489849
-0.104739 0.101079 -0.490033
-0.106371 0.101079 -0.490217
-0.108003 0.101079 -0.490400
-0.109635 0.101079 -0.490584
-0.111267 0.101079 -0.490767
-0.113171 0.100625 -0.489807
-0.114804 0.100625 -0.489991
-0.116438 0.100625 -0.490175
-0.118071 0.100625 -0.490358
-0.119704 0.100625 -0.490542
-0.121337 0.100625 -0.490726
-0.123252 0.100170 -0.489765
-0.124887 0.100170 -0.489949
-0.126522 0.100170 -0.490133
-0.128156 0.100170 -0.490317
-0.129791 0.100170 -0.490500
-0.131715 0.099714 -0.489539
-0.133351 0.099714 -0.489723
-0.134987 0.099714 -0.489907
-0.136623 0.099714 -0.490091
-0.138259 0.099714 -0.490275
-0.140192 0.099257 -0.489312
-0.141829 0.099257 -0.489496
-0.143467 0.099257 -0.489680
-0.145104 0.099257 -0.489864
-0.146742 0.099257 -0.490049
-0.148379 0.099257 -0.490233
-0.150322 0.098800 -0.489269
-0.151961 0.098800 -0.489453
-0.153600 0.098800 -0.489638
-0.155239 0.098800 -0.489822
-0.157190 0.098342 -0.488857
-0.158830 0.098342 -0.489042
-0.160470 0.098342 -0.489226
-0.162110 0.098342 -0.489411
-0.163751 0.098342 -0.489595
-0.165391 0.098342 -0.489780
-0.167352 0.097883 -0.488814
-0.168994 0.097883 -0.488999
-0.170636 0.097883 -0.489183
-0.172277 0.097883 -0.489368
-0.173919 0.097883 -0.489552
-0.175889 0.097423 -0.488586
-0.177532 0.097423 -0.488771
-0.179176 0.097423 -0.488955
-0.180819 0.097423 -0.489140
-0.182462 0.097423 -0.489325
-0.184441 0.096962 -0.488357
-0.186086 0.096962 -0.488542
-0.187730 0.096962 -0.488727
-0.189375 0.096962 -0.488912
-0.191019 0.096962 -0.489097
-0.192664 0.096962 -0.489282
-0.194654 0.096501 -0.488313
-0.196300 0.096501 -0.488498
-0.197946 0.096501 -0.488684
-0.199592 0.096501 -0.488869
-0.201238 0.096501 -0.489054
-0.203237 0.096039 -0.488084
-0.204884 0.096039 -0.488269
-0.206532 0.096039 -0.488455
-0.208179 0.096039 -0.488640
-0.209826 0.096039 -0.488825
-0.211835 0.095576 -0.487855
-0.213846 0.095112 -0.486882
-0.215497 0.095112 -0.487068
-0.217147 0.095112 -0.487253
-0.218797 0.095112 -0.487439
-0.220447 0.095112 -0.487625
-0.222468 0.094647 -0.486651
-0.224120 0.094647 -0.486837
-0.225772 0.094647 -0.487023
-0.227423 0.094647 -0.487208
-0.229075 0.094647 -0.487394
-0.231105 0.094182 -0.486420
-0.232758 0.094182 -0.486606
-0.234412 0.094182 -0.486791
-0.236065 0.094182 -0.486977
-0.237718 0.094182 -0.487163
-0.239757 0.093715 -0.486188
-0.241412 0.093715 -0.486374
-0.243067 0.093715 -0.486560
-0.244721 0.093715 -0.486746
-0.246376 0.093715 -0.486932
-0.248030 0.093715 -0.487118
-0.250081 0.093248 -0.486142
-0.251737 0.093248 -0.486328
-0.253393 0.093248 -0.486514
-0.255049 0.093248 -0.486701
-0.256705 0.093248 -0.486887
-0.258361 0.093248 -0.487073
-0.260017 0.093248 -0.487259
-0.262079 0.092781 -0.486282
-0.263737 0.092781 -0.486469
-0.265394 0.092781 -0.486655
-0.267051 0.092781 -0.486841
-0.269122 0.092312 -0.485863
-0.270781 0.092312 -0.486050
-0.272440 0.092312 -0.486236
-0.274517 0.091842 -0.485256
-0.276177 0.091842 -0.485443
-0.277837 0.091842 -0.485630
-0.279498 0.091842 -0.485817
-0.281158 0.091842 -0.486003
-0.283244 0.091372 -0.485022
-0.285334 0.090901 -0.484040
-0.286998 0.090901 -0.484227
-0.289093 0.090429 -0.483243
-0.290758 0.090429 -0.483430
-0.292422 0.090429 -0.483617
-0.294524 0.089956 -0.482632
-0.296190 0.089956 -0.482819
-0.298297 0.089482 -0.481832
-0.299965 0.089482 -0.482020
-0.301632 0.089482 -0.482207
-0.303746 0.089008 -0.481219
-0.305415 0.089008 -0.481406
-0.307084 0.089008 -0.481594
-0.309204 0.088533 -0.480604
-0.310875 0.088533 -0.480792
-0.312545 0.088533 -0.480980
-0.314672 0.088057 -0.479989
-0.316344 0.088057 -0.480177
-0.318016 0.088057 -0.480365
-0.320150 0.087580 -0.479372
-0.321823 0.087580 -0.479560
-0.323962 0.087102 -0.478566
-0.326104 0.086623 -0.477570
-0.327781 0.086623 -0.477759
-0.329929 0.086144 -0.476761
-0.332080 0.085663 -0.475762
-0.334236 0.085182 -0.474760
-0.336395 0.084700 -0.473757
-0.338558 0.084217 -0.472753
-0.340725 0.083733 -0.471746
-0.342895 0.083249 -0.470738
-0.345070 0.082763 -0.469728
-0.347248 0.082277 -0.468716
-0.349431 0.081790 -0.467702
-0.351617 0.081302 -0.466687
-0.353807 0.080813 -0.465669
-0.356001 0.080323 -0.464650
-0.358199 0.079832 -0.463629
-0.360400 0.079340 -0.462607
-0.362606 0.078848 -0.461582
-0.364816 0.078355 -0.460556
-0.367030 0.077860 -0.459527
-0.369762 0.076869 -0.457273
-0.371986 0.076372 -0.456239
-0.374215 0.075875 -0.455203
-0.376447 0.075376 -0.454166
-0.378683 0.074876 -0.453126
-0.380923 0.074376 -0.452085
-0.383167 0.073875 -0.451041
-0.385415 0.073372 -0.449996
-0.387668 0.072869 -0.448949
-0.389924 0.072365 -0.447900
-0.392184 0.071860 -0.446849
-0.394449 0.071354 -0.445796
-0.396718 0.070847 -0.444742
-0.399539 0.069831 -0.442432
-0.401819 0.069321 -0.441371
-0.404657 0.068299 -0.439049
-0.407506 0.067273 -0.436719
-0.410365 0.066244 -0.434380
-0.412669 0.065728 -0.433305
-0.414978 0.065211 -0.432228
-0.417861 0.064174 -0.429872
-0.420180 0.063654 -0.428789
-0.422504 0.063133 -0.427704
-0.425993 0.061564 -0.424043
-0.428916 0.060514 -0.421657
-0.432439 0.058930 -0.417962
-0.435387 0.057870 -0.415553
-0.438945 0.056272 -0.411824
-0.442522 0.054665 -0.408074
-0.445511 0.053589 -0.405628
-0.449124 0.051967 -0.401843
-0.452757 0.050336 -0.398037
-0.456411 0.048696 -0.394208
-0.460085 0.047046 -0.390359
-0.463781 0.045388 -0.386487
0.431806 0.001329 -0.177287
0.428505 0.005142 -0.187481
0.425244 0.008910 -0.197551
0.422021 0.012632 -0.207502
0.418838 0.016310 -0.217333
0.416319 0.018132 -0.222311
0.414022 0.019341 -0.225684
0.411734 0.020546 -0.229043
0.409253 0.022343 -0.233952
0.406986 0.023536 -0.237278
0.404923 0.024130 -0.239041
0.402671 0.025316 -0.242348
0.400619 0.025907 -0.244101
0.398381 0.027085 -0.247389
0.396340 0.027673 -0.249132
0.394117 0.028844 -0.252400
0.392085 0.029428 -0.254133
0.389878 0.030593 -0.257381
0.387856 0.031174 -0.259105
0.385838 0.031754 -0.260825
0.383651 0.032909 -0.264048
0.381643 0.033486 -0.265758
0.379470 0.034635 -0.268962
0.377472 0.035208 -0.270663
0.375313 0.036350 -0.273848
0.373325 0.036920 -0.275539
0.371340 0.037488 -0.277227
0.369360 0.038056 -0.278911
0.367227 0.039188 -0.282066
0.344880 0.114566 -0.478740
0.343179 0.114996 -0.480038
0.341367 0.115853 -0.482448
0.339672 0.116280 -0.483739
0.337981 0.116706 -0.485028
0.336402 0.116706 -0.485206
0.334715 0.117132 -0.486493
0.333031 0.117557 -0.487777
0.331454 0.117557 -0.487955
0.329878 0.117557 -0.488132
0.328302 0.117557 -0.488309
0.326725 0.117557 -0.488487
0.325149 0.117557 -0.488664
0.323573 0.117557 -0.488841
0.321996 0.117557 -0.489018
0.320420 0.117557 -0.489196
0.318749 0.117982 -0.490477
0.317174 0.117982 -0.490654
0.315599 0.117982 -0.490831
0.314023 0.117982 -0.491009
0.312538 0.117557 -0.490082
0.310962 0.117557 -0.490260
0.309385 0.117557 -0.490437
0.307809 0.117557 -0.490614
0.306232 0.117557 -0.490791
0.304656 0.117557 -0.490969
0.303080 0.117557 -0.491146
0.301584 0.117132 -0.490219
0.300006 0.117132 -0.490397
0.298428 0.117132 -0.490574
0.296851 0.117132 -0.490752
0.295273 0.117132 -0.490929
0.293695 0.117132 -0.491106
0.292118 0.117132 -0.491284
0.290540 0.117132 -0.491461
0.288962 0.117132 -0.491639
0.287453 0.116706 -0.490711
0.285874 0.116706 -0.490889
0.284295 0.116706 -0.491067
0.282716 0.116706 -0.491244
0.281137 0.116706 -0.491422
0.279558 0.116706 -0.491599
0.277979 0.116706 -0.491777
0.276460 0.116280 -0.490849
0.274880 0.116280 -0.491027
0.273300 0.116280 -0.491205
0.271719 0.116280 -0.491382
0.270139 0.116280 -0.491560
0.268559 0.116280 -0.491738
0.266978 0.116280 -0.491916
0.265398 0.116280 -0.492093
0.263818 0.116280 -0.492271
0.262285 0.115853 -0.491343
0.260704 0.115853 -0.491521
0.259077 0.116280 -0.492804
0.257496 0.116280 -0.492982
0.255916 0.116280 -0.493160
0.254336 0.116280 -0.493337
0.252756 0.116280 -0.493515
0.251214 0.115853 -0.492588
0.249632 0.115853 -0.492766
0.248051 0.115853 -0.492944
0.246469 0.115853 -0.493122
0.244888 0.115853 -0.493299
0.243306 0.115853 -0.493477
0.241724 0.115853 -0.493655
0.240172 0.115425 -0.492727
0.238589 0.115425 -0.492905
0.237006 0.115425 -0.493083
0.235424 0.115425 -0.493261
0.233841 0.115425 -0.493439
0.232281 0.114996 -0.492511
0.230696 0.114996 -0.492689
0.229112 0.114996 -0.492867
0.227528 0.114996 -0.493045
0.225944 0.114996 -0.493223
0.224359 0.114996 -0.493401
0.222790 0.114566 -0.492472
0.221205 0.114566 -0.492650
0.219619 0.114566 -0.492828
0.218034 0.114566 -0.493007
0.216448 0.114566 -0.493185
0.214871 0.114136 -0.492254
0.213284 0.114136 -0.492433
0.211697 0.114136 -0.492611
0.210110 0.114136 -0.492790
0.208527 0.113705 -0.491858
0.206939 0.113705 -0.492037
0.205350 0.113705 -0.492216
0.203762 0.113705 -0.492394
0.202174 0.113705 -0.492573
0.200586 0.113705 -0.492751
0.198993 0.113274 -0.491819
0.197403 0.113274 -0.491998
0.195814 0.113274 -0.492176
0.194224 0.113274 -0.492355
0.192635 0.113274 -0.492534
0.191045 0.113274 -0.492713
0.189443 0.112841 -0.491779
0.187852 0.112841 -0.491958
0.186261 0.112841 -0.492137
0.184670 0.112841 -0.492316
0.183079 0.112841 -0.492495
0.181488 0.112841 -0.492674
0.179898 0.112841 -0.492853
0.178307 0.112841 -0.493032
0.176716 0.112841 -0.493211
0.175125 0.112841 -0.493390
0.173508 0.112408 -0.492456
0.171916 0.112408 -0.492635
0.170324 0.112408 -0.492814
0.168731 0.112408 -0.492993
0.167139 0.112408 -0.493172
0.165547 0.112408 -0.493351
0.163921 0.111975 -0.492417
0.162327 0.111975 -0.492596
0.160734 0.111975 -0.492776
0.159140 0.111975 -0.492955
0.157507 0.111540 -0.492019
0.155912 0.111540 -0.492199
0.154317 0.111540 -0.492378
0.152722 0.111540 -0.492557
0.151128 0.111540 -0.492737
0.149533 0.111540 -0.492916
0.147890 0.111105 -0.491980
0.146294 0.111105 -0.492159
0.144698 0.111105 -0.492339
0.143102 0.111105 -0.492518
0.141505 0.111105 -0.492698
0.139909 0.111105 -0.492878
0.138257 0.110669 -0.491940
0.136660 0.110669 -0.492120
0.135062 0.110669 -0.492300
0.133465 0.110669 -0.492479
0.131806 0.110232 -0.491541
0.130207 0.110232 -0.491721
0.128608 0.110232 -0.491901
0.127009 0.110232 -0.492081
0.125410 0.110232 -0.492260
0.123811 0.110232 -0.492440
0.122143 0.109795 -0.491501
0.120543 0.109795 -0.491681
0.118943 0.109795 -0.491861
0.117342 0.109795 -0.492041
0.115742 0.109795 -0.492221
0.114142 0.109795 -0.492401
0.112464 0.109357 -0.491461
0.110862 0.109357 -0.491641
0.109261 0.109357 -0.491821
0.107659 0.109357 -0.492002
0.106058 0.109357 -0.492182
0.104456 0.109357 -0.492362
0.102854 0.109357 -0.492542
0.101253 0.109357 -0.492722
0.099651 0.109357 -0.492902
0.098049 0.109357 -0.493082
0.096265 0.108478 -0.491020
0.094661 0.108478 -0.491201
0.093057 0.108478 -0.491381
0.091453 0.108478 -0.491562
0.089848 0.108478 -0.491742
0.088244 0.108478 -0.491922
0.086540 0.108038 -0.490980
0.084934 0.108038 -0.491160
0.083329 0.108038 -0.491341
0.081723 0.108038 -0.491521
0.080012 0.107596 -0.490577
0.078405 0.107596 -0.490758
0.076798 0.107596 -0.490939
0.075191 0.107596 -0.491120
0.073584 0.107596 -0.491300
0.071977 0.107596 -0.491481
0.070257 0.107155 -0.490537
0.068648 0.107155 -0.490718
0.067040 0.107155 -0.490898
0.065431 0.107155 -0.491079
0.063823 0.107155 -0.491260
0.062215 0.107155 -0.491441
0.060484 0.106712 -0.490496
0.058875 0.106712 -0.490677
0.057265 0.106712 -0.490858
0.055655 0.106712 -0.491039
0.053918 0.106269 -0.490092
0.052307 0.106269 -0.490273
0.050696 0.106269 -0.490454
0.049085 0.106269 -0.490636
0.047473 0.106269 -0.490817
0.045862 0.106269 -0.490998
0.044115 0.105824 -0.490051
0.042503 0.105824 -0.490232
0.040890 0.105824 -0.490413
0.039278 0.105824 -0.490595
0.037665 0.105824 -0.490776
0.036053 0.105824 -0.490957
0.034296 0.105380 -0.490009
0.032682 0.105380 -0.490191
0.031068 0.105380 -0.490372
0.029454 0.105380 -0.490554
0.027841 0.105380 -0.490735
0.026227 0.105380 -0.490917
0.024613 0.105380 -0.491098
0.022999 0.105380 -0.491280
0.021385 0.105380 -0.491461
0.019771 0.105380 -0.491643
0.017999 0.104934 -0.490694
0.016384 0.104934 -0.490876
0.014769 0.104934 -0.491057
0.013154 0.104934 -0.491239
0.011538 0.104934 -0.491421
0.009923 0.104934 -0.491602
0.008141 0.104488 -0.490653
0.006524 0.104488 -0.490835
0.004908 0.104488 -0.491017
0.003291 0.104488 -0.491199
0.001502 0.104040 -0.490248
-0.000116 0.104040 -0.490430
-0.001734 0.104040 -0.490612
-0.003352 0.104040 -0.490794
-0.004970 0.104040 -0.490976
-0.006588 0.104040 -0.491158
-0.008387 0.103592 -0.490207
-0.009824 0.104040 -0.491522
-0.011442 0.104040 -0.491704
-0.013245 0.103592 -0.490753
-0.014864 0.103592 -0.490935
-0.016484 0.103592 -0.491117
-0.018103 0.103592 -0.491299
-0.019722 0.103592 -0.491481
-0.021342 0.103592 -0.491664
-0.023155 0.103144 -0.490712
-0.024776 0.103144 -0.490894
-0.026396 0.103144 -0.491076
-0.028017 0.103144 -0.491259
-0.029838 0.102694 -0.490306
-0.031460 0.102694 -0.490488
-0.033082 0.102694 -0.490671
-0.034704 0.102694 -0.490853
-0.036326 0.102694 -0.491035
-0.037948 0.102694 -0.491218
-0.039779 0.102244 -0.490264
-0.041402 0.102244 -0.490447
-0.043026 0.102244 -0.490629
-0.044649 0.102244 -0.490812
-0.046273 0.102244 -0.490994
-0.047896 0.102244 -0.491177
-0.049737 0.101793 -0.490223
-0.051362 0.101793 -0.490405
-0.052987 0.101793 -0.490588
-0.054612 0.101793 -0.490771
-0.056460 0.101341 -0.489815
-0.058086 0.101341 -0.489998
-0.059712 0.101341 -0.490181
-0.061338 0.101341 -0.490364
-0.062965 0.101341 -0.490547
-0.064591 0.101341 -0.490729
-0.066449 0.100889 -0.489773
-0.068077 0.100889 -0.489956
-0.069704 0.100889 -0.490139
-0.071332 0.100889 -0.490322
-0.072960 0.100889 -0.490505
-0.074587 0.100889 -0.490688
-0.076455 0.100435 -0.489731
-0.078085 0.100435 -0.489914
-0.079714 0.100435 -0.490097
-0.081343 0.100435 -0.490280
-0.083218 0.099981 -0.489322
-0.084849 0.099981 -0.489505
-0.086479 0.099981 -0.489688
-0.088110 0.099981 -0.489872
-0.089740 0.099981 -0.490055
-0.091371 0.099981 -0.490239
-0.093256 0.099527 -0.489279
-0.094888 0.099527 -0.489463
-0.096520 0.099527 -0.489646
-0.098152 0.099527 -0.489830
-0.099784 0.099527 -0.490013
-0.101416 0.099527 -0.490197
-0.103312 0.099071 -0.489236
-0.104679 0.099527 -0.490564
-0.106311 0.099527 -0.490747
-0.107943 0.099527 -0.490931
-0.109845 0.099071 -0.489971
-0.111478 0.099071 -0.490155
-0.113111 0.099071 -0.490339
-0.114745 0.099071 -0.490522
-0.116378 0.099071 -0.490706
-0.118011 0.099071 -0.490890
-0.119923 0.098614 -0.489929
-0.121558 0.098614 -0.490113
-0.123192 0.098614 -0.490297
-0.124827 0.098614 -0.490481
-0.126462 0.098614 -0.490664
-0.128096 0.098614 -0.490848
-0.130019 0.098157 -0.489887
-0.131655 0.098157 -0.490071
-0.133291 0.098157 -0.490255
-0.134927 0.098157 -0.490439
-0.136857 0.097699 -0.489476
-0.138494 0.097699 -0.489660
-0.140132 0.097699 -0.489845
-0.141769 0.097699 -0.490029
-0.143407 0.097699 -0.490213
-0.145044 0.097699 -0.490397
-0.146984 0.097240 -0.489433
-0.148623 0.097240 -0.489618
-0.150262 0.097240 -0.489802
-0.151901 0.097240 -0.489987
-0.153849 0.096781 -0.489022
-0.155489 0.096781 -0.489206
-0.157129 0.096781 -0.489391
-0.158770 0.096781 -0.489575
-0.160410 0.096781 -0.489760
-0.162050 0.096781 -0.489944
-0.164009 0.096320 -0.488979
-0.165650 0.096320 -0.489163
-0.167292 0.096320 -0.489348
-0.168934 0.096320 -0.489533
-0.170576 0.096320 -0.489717
-0.172543 0.095859 -0.488751
-0.174186 0.095859 -0.488935
-0.175829 0.095859 -0.489120
-0.177472 0.095859 -0.489305
-0.179115 0.095859 -0.489490
-0.181092 0.095397 -0.488522
-0.182736 0.095397 -0.488707
-0.184381 0.095397 -0.488892
-0.186026 0.095397 -0.489077
-0.187670 0.095397 -0.489262
-0.189315 0.095397 -0.489447
-0.191302 0.094935 -0.488478
-0.192948 0.094935 -0.488664
-0.194594 0.094935 -0.488849
-0.196240 0.094935 -0.489034
-0.197886 0.094935 -0.489219
-0.199882 0.094471 -0.488249
-0.201529 0.094471 -0.488435
-0.203177 0.094471 -0.488620
-0.204824 0.094471 -0.488805
-0.206471 0.094471 -0.488991
-0.208477 0.094007 -0.488020
-0.210125 0.094007 -0.488205
-0.211774 0.094007 -0.488391
-0.213786 0.093541 -0.487419
-0.215436 0.093541 -0.487604
-0.217087 0.093541 -0.487790
-0.219105 0.093075 -0.486817
-0.220756 0.093075 -0.487003
-0.222408 0.093075 -0.487188
-0.224060 0.093075 -0.487374
-0.225711 0.093075 -0.487560
-0.227739 0.092609 -0.486585
-0.229392 0.092609 -0.486771
-0.231045 0.092609 -0.486957
-0.232698 0.092609 -0.487143
-0.234351 0.092609 -0.487329
-0.236388 0.092141 -0.486354
-0.238042 0.092141 -0.486540
-0.239697 0.092141 -0.486726
-0.241351 0.092141 -0.486912
-0.243006 0.092141 -0.487098
-0.244661 0.092141 -0.487284
-0.246708 0.091673 -0.486308
-0.248364 0.091673 -0.486494
-0.250020 0.091673 -0.486680
-0.251676 0.091673 -0.486867
-0.253332 0.091673 -0.487053
-0.255389 0.091203 -0.486076
-0.257046 0.091203 -0.486262
-0.258704 0.091203 -0.486448
-0.260361 0.091203 -0.486635
-0.262018 0.091203 -0.486821
-0.263676 0.091203 -0.487008
-0.265743 0.090733 -0.486029
-0.267402 0.090733 -0.486216
-0.269061 0.090733 -0.486403
-0.270720 0.090733 -0.486589
-0.272796 0.090262 -0.485610
-0.274456 0.090262 -0.485796
-0.276116 0.090262 -0.485983
-0.277777 0.090262 -0.486170
-0.279860 0.089791 -0.485189
-0.281522 0.089791 -0.485376
-0.283610 0.089318 -0.484394
-0.285274 0.089318 -0.484581
-0.287367 0.088845 -0.483597
-0.289032 0.088845 -0.483784
-0.290697 0.088845 -0.483972
-0.292797 0.088371 -0.482986
-0.294463 0.088371 -0.483174
-0.296568 0.087896 -0.482187
-0.298236 0.087896 -0.482375
-0.299904 0.087896 -0.482562
-0.302016 0.087420 -0.481574
-0.303685 0.087420 -0.481762
-0.305802 0.086943 -0.480772
-0.307472 0.086943 -0.480960
-0.309143 0.086943 -0.481148
-0.311267 0.086465 -0.480157
-0.312939 0.086465 -0.480345
-0.314611 0.086465 -0.480533
-0.316741 0.085987 -0.479540
-0.318415 0.085987 -0.479728
-0.320089 0.085987 -0.479917
-0.321762 0.085987 -0.480105
-0.323901 0.085508 -0.479111
-0.326043 0.085028 -0.478115
-0.327720 0.085028 -0.478304
-0.329867 0.084547 -0.477307
-0.332019 0.084065 -0.476308
-0.334174 0.083582 -0.475307
-0.336333 0.083099 -0.474305
-0.338496 0.082615 -0.473300
-0.340663 0.082130 -0.472294
-0.342834 0.081643 -0.471287
-0.345497 0.080669 -0.469076
-0.347677 0.080180 -0.468062
-0.349862 0.079691 -0.467047
-0.352050 0.079200 -0.466030
-0.354243 0.078709 -0.465011
-0.356439 0.078217 -0.463991
-0.358639 0.077724 -0.462968
-0.360844 0.077230 -0.461944
-0.363052 0.076735 -0.460918
-0.365264 0.076239 -0.459890
-0.367480 0.075743 -0.458860
-0.369700 0.075245 -0.457828
-0.371924 0.074747 -0.456795
-0.374152 0.074248 -0.455760
-0.376384 0.073748 -0.454722
-0.378620 0.073247 -0.453683
-0.381388 0.072242 -0.451407
-0.383635 0.071738 -0.450362
-0.385886 0.071233 -0.449315
-0.388141 0.070728 -0.448266
-0.390399 0.070221 -0.447216
-0.392662 0.069714 -0.446163
-0.394929 0.069206 -0.445109
-0.397201 0.068696 -0.444052
-0.400026 0.067675 -0.441739
-0.402308 0.067163 -0.440677
-0.405706 0.065621 -0.437088
-0.408002 0.065106 -0.436018
-0.410865 0.064071 -0.433675
-0.413171 0.063552 -0.432599
-0.415482 0.063033 -0.431521
-0.418369 0.061991 -0.429161
-0.420691 0.061468 -0.428077
-0.423017 0.060945 -0.426990
-0.426511 0.059369 -0.423323
-0.429437 0.058313 -0.420934
-0.432965 0.056723 -0.417233
-0.436513 0.055123 -0.413512
-0.440080 0.053515 -0.409770
-0.443668 0.051897 -0.406007
-0.446664 0.050814 -0.403553
-0.450287 0.049181 -0.399755
-0.453930 0.047539 -0.395935
-0.456969 0.046439 -0.393444
-0.460649 0.044781 -0.389589
0.432806 -0.003087 -0.171199
0.429257 0.001407 -0.183135
0.426205 0.004578 -0.191619
0.422745 0.008964 -0.203268
0.419762 0.012059 -0.211550
0.416598 0.015733 -0.221338
0.414298 0.016948 -0.224716
0.412007 0.018158 -0.228081
0.409523 0.019965 -0.232998
0.407253 0.021163 -0.236329
0.405188 0.021760 -0.238095
0.402933 0.022952 -0.241407
0.400879 0.023545 -0.243163
0.398639 0.024730 -0.246455
0.396595 0.025320 -0.248201
0.394369 0.026498 -0.251474
0.392335 0.027084 -0.253209
0.390125 0.028255 -0.256463
0.388101 0.028839 -0.258189
0.386081 0.029421 -0.259911
0.384065 0.030002 -0.261630
0.381881 0.031162 -0.264852
0.379875 0.031739 -0.266561
0.377706 0.032892 -0.269764
0.375544 0.034040 -0.272955
0.373554 0.034612 -0.274648
0.371567 0.035184 -0.276338
0.369426 0.036323 -0.279504
0.367449 0.036891 -0.281184
0.344938 0.113058 -0.479256
0.343121 0.113918 -0.481670
0.341424 0.114348 -0.482963
0.339730 0.114776 -0.484253
0.338150 0.114776 -0.484431
0.336460 0.115204 -0.485720
0.334773 0.115631 -0.487006
0.333088 0.116057 -0.488290
0.331512 0.116057 -0.488467
0.329936 0.116057 -0.488645
0.328359 0.116057 -0.488822
0.326783 0.116057 -0.488999
0.325207 0.116057 -0.489177
0.323630 0.116057 -0.489354
0.322054 0.116057 -0.489531
0.320477 0.116057 -0.489709
0.318901 0.116057 -0.489886
0.317325 0.116057 -0.490063
0.315748 0.116057 -0.490240
0.314172 0.116057 -0.490418
0.312596 0.116057 -0.490595
0.311019 0.116057 -0.490772
0.309443 0.116057 -0.490950
0.307952 0.115631 -0.490023
0.306375 0.115631 -0.490200
0.304797 0.115631 -0.490377
0.303219 0.115631 -0.490555
0.301641 0.115631 -0.490732
0.300064 0.115631 -0.490910
0.298486 0.115631 -0.491087
0.296908 0.115631 -0.491265
0.295331 0.115631 -0.491442
0.293827 0.115204 -0.490515
0.292248 0.115204 -0.490692
0.290669 0.115204 -0.490870
0.289090 0.115204 -0.491048
0.287511 0.115204 -0.491225
0.285932 0.115204 -0.491403
0.284353 0.115204 -0.491580
0.282839 0.114776 -0.490652
0.281259 0.114776 -0.490830
0.279679 0.114776 -0.491008
0.278098 0.114776 -0.491185
0.276518 0.114776 -0.491363
0.274938 0.114776 -0.491541
0.273357 0.114776 -0.491719
0.271777 0.114776 -0.491896
0.270197 0.114776 -0.492074
0.268670 0.114348 -0.491146
0.267088 0.114348 -0.491324
0.265507 0.114348 -0.491501
0.263925 0.114348 -0.491679
0.262343 0.114348 -0.491857
0.260762 0.114348 -0.492035
0.259135 0.114776 -0.493318
0.257598 0.114348 -0.492391
0.256017 0.114348 -0.492569
0.254435 0.114348 -0.492747
0.252854 0.114348 -0.492925
0.251272 0.114348 -0.493102
0.249690 0.114348 -0.493280
0.248109 0.114348 -0.493458
0.246527 0.114348 -0.493636
0.244945 0.114348 -0.493814
0.243396 0.113918 -0.492886
0.241813 0.113918 -0.493064
0.240230 0.113918 -0.493242
0.238647 0.113918 -0.493420
0.237064 0.113918 -0.493598
0.235507 0.113488 -0.492669
0.233923 0.113488 -0.492848
0.232339 0.113488 -0.493026
0.230754 0.113488 -0.493204
0.229170 0.113488 -0.493382
0.227605 0.113058 -0.492453
0.226020 0.113058 -0.492631
0.224434 0.113058 -0.492809
0.222848 0.113058 -0.492988
0.221263 0.113058 -0.493166
0.219677 0.113058 -0.493344
0.218103 0.112626 -0.492414
0.216506 0.113058 -0.493701
0.214929 0.112626 -0.492771
0.213342 0.112626 -0.492949
0.211755 0.112626 -0.493128
0.210168 0.112626 -0.493306
0.208585 0.112194 -0.492375
0.206997 0.112194 -0.492554
0.205408 0.112194 -0.492732
0.203820 0.111761 -0.491799
0.202230 0.111761 -0.491978
0.200641 0.111761 -0.492157
0.199051 0.111761 -0.492336
0.197461 0.111761 -0.492515
0.195872 0.111761 -0.492693
0.194282 0.111761 -0.492872
0.192683 0.111328 -0.491939
0.191092 0.111328 -0.492118
0.189501 0.111328 -0.492297
0.187910 0.111328 -0.492476
0.186319 0.111328 -0.492655
0.184728 0.111328 -0.492834
0.183138 0.111328 -0.493013
0.181547 0.111328 -0.493192
0.179956 0.111328 -0.493370
0.178343 0.110893 -0.492437
0.176751 0.110893 -0.492616
0.175159 0.110893 -0.492795
0.173566 0.110893 -0.492974
0.171974 0.110893 -0.493153
0.170382 0.110893 -0.493332
0.168790 0.110893 -0.493511
0.167166 0.110458 -0.492577
0.165573 0.110458 -0.492756
0.163979 0.110458 -0.492935
0.162385 0.110458 -0.493115
0.160792 0.110458 -0.493294
0.159198 0.110458 -0.493473
0.157565 0.110022 -0.492538
0.155971 0.110022 -0.492717
0.154376 0.110022 -0.492897
0.152737 0.109586 -0.491961
0.151141 0.109586 -0.492140
0.149545 0.109586 -0.492320
0.147949 0.109586 -0.492499
0.146352 0.109586 -0.492679
0.144756 0.109586 -0.492858
0.143160 0.109586 -0.493038
0.141511 0.109149 -0.492101
0.139913 0.109149 -0.492280
0.138316 0.109149 -0.492460
0.136718 0.109149 -0.492640
0.135121 0.109149 -0.492819
0.133523 0.109149 -0.492999
0.131864 0.108711 -0.492061
0.130265 0.108711 -0.492241
0.128666 0.108711 -0.492421
0.127002 0.108272 -0.491482
0.125402 0.108272 -0.491662
0.123802 0.108272 -0.491842
0.122202 0.108272 -0.492022
0.120601 0.108272 -0.492202
0.119001 0.108272 -0.492382
0.117401 0.108272 -0.492562
0.115726 0.107832 -0.491622
0.114124 0.107832 -0.491802
0.112523 0.107832 -0.491982
0.110921 0.107832 -0.492162
0.109319 0.107832 -0.492342
0.107718 0.107832 -0.492523
0.106116 0.107832 -0.492703
0.104515 0.107832 -0.492883
0.102913 0.107832 -0.493063
0.101137 0.106951 -0.491001
0.099533 0.106951 -0.491181
0.097928 0.106951 -0.491362
0.096324 0.106951 -0.491542
0.094720 0.106951 -0.491722
0.093116 0.106951 -0.491903
0.091511 0.106951 -0.492083
0.089810 0.106510 -0.491141
0.088204 0.106510 -0.491321
0.086599 0.106510 -0.491502
0.084993 0.106510 -0.491682
0.083387 0.106510 -0.491863
0.081782 0.106510 -0.492044
0.080071 0.106067 -0.491100
0.078464 0.106067 -0.491281
0.076857 0.106067 -0.491462
0.075141 0.105624 -0.490517
0.073532 0.105624 -0.490698
0.071924 0.105624 -0.490879
0.070315 0.105624 -0.491060
0.068707 0.105624 -0.491241
0.067099 0.105624 -0.491422
0.065490 0.105624 -0.491603
0.063763 0.105180 -0.490657
0.062153 0.105180 -0.490838
0.060543 0.105180 -0.491019
0.058934 0.105180 -0.491200
0.057324 0.105180 -0.491381
0.055714 0.105180 -0.491562
0.053977 0.104735 -0.490616
0.052366 0.104735 -0.490797
0.050755 0.104735 -0.490979
0.049012 0.104290 -0.490031
0.047399 0.104290 -0.490212
0.045787 0.104290 -0.490394
0.044174 0.104290 -0.490575
0.042562 0.104290 -0.490757
0.040949 0.104290 -0.490938
0.039337 0.104290 -0.491119
0.037583 0.103844 -0.490171
0.035969 0.103844 -0.490352
0.034355 0.103844 -0.490534
0.032741 0.103844 -0.490715
0.031127 0.103844 -0.490897
0.029513 0.103844 -0.491078
0.027900 0.103844 -0.491260
0.026286 0.103844 -0.491442
0.024672 0.103844 -0.491623
0.022904 0.103397 -0.490675
0.021289 0.103397 -0.490856
0.019673 0.103397 -0.491038
0.018058 0.103397 -0.491220
0.016443 0.103397 -0.491401
0.014828 0.103397 -0.491583
0.013213 0.103397 -0.491765
0.011433 0.102949 -0.490815
0.009817 0.102949 -0.490997
0.008200 0.102949 -0.491179
0.006584 0.102949 -0.491361
0.004967 0.102949 -0.491543
0.003350 0.102949 -0.491724
0.001561 0.102501 -0.490774
-0.000057 0.102501 -0.490956
-0.001675 0.102501 -0.491138
-0.003470 0.102052 -0.490187
-0.005089 0.102052 -0.490369
-0.006708 0.102052 -0.490551
-0.008328 0.102052 -0.490733
-0.009947 0.102052 -0.490915
-0.011566 0.102052 -0.491098
-0.013186 0.102052 -0.491280
-0.014992 0.101601 -0.490327
-0.016613 0.101601 -0.490510
-0.018234 0.101601 -0.490692
-0.019854 0.101601 -0.490874
-0.021475 0.101601 -0.491057
-0.023096 0.101601 -0.491239
-0.024912 0.101151 -0.490286
-0.026534 0.101151 -0.490468
-0.028156 0.101151 -0.490651
-0.029978 0.100699 -0.489697
-0.031602 0.100699 -0.489879
-0.033023 0.101151 -0.491198
-0.034645 0.101151 -0.491381
-0.036472 0.100699 -0.490427
-0.038096 0.100699 -0.490610
-0.039719 0.100699 -0.490792
-0.041343 0.100699 -0.490975
-0.042966 0.100699 -0.491157
-0.044803 0.100247 -0.490203
-0.046428 0.100247 -0.490386
-0.048053 0.100247 -0.490568
-0.049677 0.100247 -0.490751
-0.051302 0.100247 -0.490934
-0.053147 0.099794 -0.489978
-0.054774 0.099794 -0.490161
-0.056400 0.099794 -0.490344
-0.058026 0.099794 -0.490527
-0.059653 0.099794 -0.490710
-0.061279 0.099794 -0.490893
-0.063134 0.099340 -0.489936
-0.064762 0.099340 -0.490119
-0.066389 0.099340 -0.490302
-0.068017 0.099340 -0.490485
-0.069645 0.099340 -0.490668
-0.071509 0.098885 -0.489711
-0.073138 0.098885 -0.489894
-0.074767 0.098885 -0.490077
-0.076396 0.098885 -0.490261
-0.078025 0.098885 -0.490444
-0.079898 0.098430 -0.489485
-0.081528 0.098430 -0.489669
-0.083159 0.098430 -0.489852
-0.084789 0.098430 -0.490035
-0.086420 0.098430 -0.490219
-0.088050 0.098430 -0.490402
-0.089933 0.097974 -0.489443
-0.091565 0.097974 -0.489626
-0.093197 0.097974 -0.489810
-0.094829 0.097974 -0.489993
-0.096460 0.097974 -0.490177
-0.098352 0.097517 -0.489217
-0.099986 0.097517 -0.489400
-0.101619 0.097517 -0.489584
-0.103252 0.097517 -0.489768
-0.104620 0.097974 -0.491095
-0.106519 0.097517 -0.490135
-0.108152 0.097517 -0.490319
-0.109785 0.097517 -0.490502
-0.111418 0.097517 -0.490686
-0.113052 0.097517 -0.490870
-0.114685 0.097517 -0.491053
-0.116594 0.097059 -0.490093
-0.118229 0.097059 -0.490277
-0.119863 0.097059 -0.490461
-0.121498 0.097059 -0.490645
-0.123133 0.097059 -0.490828
-0.125051 0.096600 -0.489867
-0.126687 0.096600 -0.490051
-0.128323 0.096600 -0.490235
-0.129959 0.096600 -0.490419
-0.131595 0.096600 -0.490603
-0.133522 0.096141 -0.489640
-0.135159 0.096141 -0.489825
-0.136797 0.096141 -0.490009
-0.138434 0.096141 -0.490193
-0.140072 0.096141 -0.490377
-0.141709 0.096141 -0.490561
-0.143647 0.095681 -0.489598
-0.145286 0.095681 -0.489782
-0.146924 0.095681 -0.489967
-0.148563 0.095681 -0.490151
-0.150202 0.095681 -0.490335
-0.152149 0.095220 -0.489371
-0.153789 0.095220 -0.489555
-0.155429 0.095220 -0.489740
-0.157382 0.094758 -0.488774
-0.158710 0.095220 -0.490109
-0.160665 0.094758 -0.489143
-0.162307 0.094758 -0.489328
-0.163949 0.094758 -0.489513
-0.165590 0.094758 -0.489697
-0.167232 0.094758 -0.489882
-0.169197 0.094296 -0.488915
-0.170840 0.094296 -0.489100
-0.172483 0.094296 -0.489285
-0.174126 0.094296 -0.489470
-0.175769 0.094296 -0.489655
-0.177743 0.093832 -0.488687
-0.179387 0.093832 -0.488872
-0.181032 0.093832 -0.489057
-0.182676 0.093832 -0.489242
-0.184658 0.093368 -0.488273
-0.185965 0.093832 -0.489612
-0.187949 0.093368 -0.488644
-0.189595 0.093368 -0.488829
-0.191241 0.093368 -0.489014
-0.192887 0.093368 -0.489199
-0.194533 0.093368 -0.489384
-0.196527 0.092903 -0.488415
-0.198174 0.092903 -0.488600
-0.199821 0.092903 -0.488785
-0.201469 0.092903 -0.488971
-0.203116 0.092903 -0.489156
-0.205119 0.092438 -0.488185
-0.206767 0.092438 -0.488371
-0.208416 0.092438 -0.488556
-0.210065 0.092438 -0.488742
-0.212075 0.091971 -0.487770
-0.213726 0.091971 -0.487956
-0.215741 0.091504 -0.486982
-0.217392 0.091504 -0.487168
-0.219044 0.091504 -0.487354
-0.220696 0.091504 -0.487540
-0.222347 0.091504 -0.487726
-0.224372 0.091035 -0.486751
-0.226025 0.091035 -0.486937
-0.227678 0.091035 -0.487123
-0.229331 0.091035 -0.487309
-0.230984 0.091035 -0.487495
-0.233018 0.090566 -0.486520
-0.234673 0.090566 -0.486706
-0.236327 0.090566 -0.486892
-0.237982 0.090566 -0.487078
-0.240023 0.090097 -0.486102
-0.241291 0.090566 -0.487450
-0.243335 0.090097 -0.486474
-0.244991 0.090097 -0.486660
-0.246647 0.090097 -0.486847
-0.248303 0.090097 -0.487033
-0.249959 0.090097 -0.487219
-0.252013 0.089626 -0.486242
-0.253671 0.089626 -0.486428
-0.255328 0.089626 -0.486615
-0.256985 0.089626 -0.486801
-0.258643 0.089626 -0.486988
-0.260300 0.089626 -0.487174
-0.262365 0.089155 -0.486196
-0.264024 0.089155 -0.486382
-0.265683 0.089155 -0.486569
-0.267342 0.089155 -0.486756
-0.269414 0.088682 -0.485776
-0.271074 0.088682 -0.485963
-0.272735 0.088682 -0.486150
-0.274395 0.088682 -0.486337
-0.276476 0.088209 -0.485356
-0.278137 0.088209 -0.485543
-0.279799 0.088209 -0.485730
-0.281886 0.087735 -0.484748
-0.283977 0.087261 -0.483764
-0.285642 0.087261 -0.483951
-0.287306 0.087261 -0.484139
-0.289404 0.086785 -0.483154
-0.291070 0.086785 -0.483341
-0.292736 0.086785 -0.483528
-0.294840 0.086309 -0.482542
-0.296507 0.086309 -0.482729
-0.298616 0.085831 -0.481741
-0.300285 0.085831 -0.481929
-0.301955 0.085831 -0.482117
-0.304070 0.085353 -0.481128
-0.305741 0.085353 -0.481315
-0.307411 0.085353 -0.481503
-0.309534 0.084874 -0.480512
-0.311206 0.084874 -0.480700
-0.312878 0.084874 -0.480889
-0.315007 0.084395 -0.479896
-0.316680 0.084395 -0.480084
-0.318814 0.083914 -0.479091
-0.320489 0.083914 -0.479279
-0.322164 0.083914 -0.479467
-0.323839 0.083914 -0.479656
-0.325982 0.083432 -0.478661
-0.328128 0.082950 -0.477664
-0.330278 0.082467 -0.476665
-0.332432 0.081983 -0.475665
-0.334113 0.081983 -0.475854
-0.336751 0.081012 -0.473659
-0.338916 0.080526 -0.472653
-0.341085 0.080038 -0.471646
-0.343258 0.079550 -0.470636
-0.345435 0.079061 -0.469625
-0.347615 0.078571 -0.468612
-0.349800 0.078080 -0.467598
-0.351988 0.077588 -0.466581
-0.354680 0.076602 -0.464352
-0.356878 0.076107 -0.463330
-0.359081 0.075612 -0.462306
-0.361287 0.075116 -0.461280
-0.363498 0.074618 -0.460252
-0.365712 0.074120 -0.459223
-0.367931 0.073622 -0.458192
-0.370153 0.073122 -0.457158
-0.372380 0.072621 -0.456123
-0.374610 0.072119 -0.455087
-0.376845 0.071617 -0.454048
-0.379083 0.071114 -0.453007
-0.381326 0.070609 -0.451965
-0.383572 0.070104 -0.450920
-0.385823 0.069598 -0.449874
-0.388078 0.069091 -0.448826
-0.390876 0.068074 -0.446530
-0.392599 0.068074 -0.446724
-0.395411 0.067053 -0.444420
-0.397684 0.066542 -0.443362
-0.400513 0.065515 -0.441046
-0.402797 0.065001 -0.439982
-0.406200 0.063452 -0.436388
-0.408499 0.062934 -0.435316
-0.411365 0.061894 -0.432970
-0.413674 0.061373 -0.431892
-0.415988 0.060851 -0.430812
-0.418878 0.059804 -0.428449
-0.421203 0.059279 -0.427363
-0.423532 0.058753 -0.426274
-0.427614 0.056640 -0.421308
-0.430548 0.055577 -0.418910
-0.434085 0.053976 -0.415197
-0.437643 0.052366 -0.411463
-0.440617 0.051287 -0.409029
-0.444209 0.049662 -0.405260
-0.447822 0.048027 -0.401470
-0.450838 0.046933 -0.398999
-0.454486 0.045283 -0.395173
-0.458155 0.043623 -0.391326
0.430013 -0.002352 -0.178762
0.426948 0.000848 -0.187295
0.423693 0.004645 -0.197377
0.420477 0.008397 -0.207338
0.417511 0.011489 -0.215583
0.414782 0.013940 -0.222163
0.412486 0.015159 -0.225539
0.409996 0.016978 -0.230473
0.407720 0.018184 -0.233817
0.405454 0.019386 -0.237147
0.403196 0.020583 -0.240464
0.401139 0.021180 -0.242222
0.398896 0.022370 -0.245519
0.396850 0.022963 -0.247268
0.394622 0.024146 -0.250546
0.392586 0.024736 -0.252284
0.390373 0.025912 -0.255542
0.388347 0.026499 -0.257271
0.386325 0.027084 -0.258996
0.384306 0.027668 -0.260718
0.382120 0.028833 -0.263944
0.380111 0.029414 -0.265656
0.377940 0.030572 -0.268864
0.375941 0.031149 -0.270566
0.373783 0.032301 -0.273755
0.371795 0.032875 -0.275447
0.369651 0.034020 -0.278618
0.367672 0.034590 -0.280301
0.344996 0.111549 -0.479772
0.343179 0.112412 -0.482185
0.341482 0.112842 -0.483477
0.339901 0.112842 -0.483655
0.338208 0.113272 -0.484945
0.336518 0.113701 -0.486233
0.334831 0.114130 -0.487519
0.333253 0.114130 -0.487697
0.331675 0.114130 -0.487874
0.330097 0.114130 -0.488051
0.328520 0.114130 -0.488229
0.326942 0.114130 -0.488406
0.325364 0.114130 -0.488584
0.323688 0.114557 -0.489867
0.322111 0.114557 -0.490044
0.320535 0.114557 -0.490221
0.318959 0.114557 -0.490399
0.317382 0.114557 -0.490576
0.315806 0.114557 -0.490753
0.314230 0.114557 -0.490930
0.312653 0.114557 -0.491108
0.311077 0.114557 -0.491285
0.309588 0.114130 -0.490358
0.308010 0.114130 -0.490536
0.306432 0.114130 -0.490713
0.304855 0.114130 -0.490891
0.303277 0.114130 -0.491068
0.301699 0.114130 -0.491246
0.300121 0.114130 -0.491423
0.298622 0.113701 -0.490496
0.297043 0.113701 -0.490673
0.295464 0.113701 -0.490851
0.293885 0.113701 -0.491028
0.292306 0.113701 -0.491206
0.290727 0.113701 -0.491384
0.289148 0.113701 -0.491561
0.287569 0.113701 -0.491739
0.285990 0.113701 -0.491916
0.284477 0.113272 -0.490988
0.282897 0.113272 -0.491166
0.281317 0.113272 -0.491344
0.279736 0.113272 -0.491522
0.278156 0.113272 -0.491699
0.276576 0.113272 -0.491877
0.274995 0.113272 -0.492055
0.273472 0.112842 -0.491126
0.271891 0.112842 -0.491304
0.270309 0.112842 -0.491482
0.268728 0.112842 -0.491660
0.267146 0.112842 -0.491838
0.265564 0.112842 -0.492016
0.263983 0.112842 -0.492194
0.262401 0.112842 -0.492372
0.260819 0.112842 -0.492550
0.259238 0.112842 -0.492727
0.257656 0.112842 -0.492905
0.256075 0.112842 -0.493083
0.254493 0.112842 -0.493261
0.252911 0.112842 -0.493439
0.251330 0.112842 -0.493617
0.249748 0.112842 -0.493795
