ply
format ascii 1.0
element vertex 1633
property float x
property float y
property float z
end_header
-0.302467 -0.066076 -0.015958
-0.298606 -0.069628 -0.014722
-0.295705 -0.071398 -0.014628
-0.293750 -0.071398 -0.015674
-0.290858 -0.073163 -0.015580
-0.287973 -0.074925 -0.015486
-0.285094 -0.076682 -0.015393
-0.282222 -0.078436 -0.015299
-0.279356 -0.080185 -0.015206
-0.276497 -0.081931 -0.015113
-0.273645 -0.083672 -0.015020
-0.271706 -0.083672 -0.016058
-0.268862 -0.085409 -0.015964
-0.266025 -0.087143 -0.015870
-0.263195 -0.088872 -0.015777
-0.260371 -0.090598 -0.015683
-0.257553 -0.092319 -0.015590
-0.254742 -0.094037 -0.015498
-0.251937 -0.095750 -0.015405
-0.249139 -0.097460 -0.015313
-0.246347 -0.099166 -0.015221
-0.243561 -0.100868 -0.015129
-0.241644 -0.100868 -0.016154
-0.238867 -0.102566 -0.016062
-0.236952 -0.102566 -0.017086
-0.233331 -0.105951 -0.015876
-0.231421 -0.105951 -0.016899
-0.228665 -0.107637 -0.016805
-0.225915 -0.109320 -0.016712
-0.224009 -0.109320 -0.017732
-0.221268 -0.110999 -0.017638
-0.218532 -0.112674 -0.017544
-0.215803 -0.114346 -0.017450
-0.213903 -0.114346 -0.018467
-0.211182 -0.116013 -0.018372
-0.208468 -0.117677 -0.018278
-0.206572 -0.117677 -0.019292
-0.203866 -0.119337 -0.019197
-0.201165 -0.120994 -0.019102
-0.199274 -0.120994 -0.020114
-0.196582 -0.122647 -0.020018
-0.194693 -0.122647 -0.021029
-0.192009 -0.124296 -0.020932
-0.189330 -0.125941 -0.020835
-0.187446 -0.125941 -0.021844
-0.184776 -0.127583 -0.021746
-0.182111 -0.129221 -0.021648
-0.180231 -0.129221 -0.022655
-0.177575 -0.130855 -0.022557
-0.174924 -0.132486 -0.022458
-0.173048 -0.132486 -0.023463
-0.170406 -0.134113 -0.023364
-0.167769 -0.135737 -0.023265
-0.165139 -0.137357 -0.023166
-0.163269 -0.137357 -0.024167
-0.160646 -0.138973 -0.024067
-0.158778 -0.138973 -0.025067
-0.156163 -0.140586 -0.024967
-0.154298 -0.140586 -0.025965
-0.151690 -0.142195 -0.025864
-0.149089 -0.143801 -0.025763
-0.147228 -0.143801 -0.026760
-0.144634 -0.145403 -0.026658
-0.142774 -0.145403 -0.027653
-0.140189 -0.147001 -0.027550
-0.138331 -0.147001 -0.028544
-0.135753 -0.148596 -0.028441
-0.133898 -0.148596 -0.029434
-0.131327 -0.150188 -0.029329
-0.129474 -0.150188 -0.030321
-0.126911 -0.151776 -0.030216
-0.124354 -0.153361 -0.030111
-0.122505 -0.153361 -0.031101
-0.119955 -0.154942 -0.030995
-0.118108 -0.154942 -0.031984
-0.115566 -0.156519 -0.031877
-0.113721 -0.156519 -0.032864
-0.111187 -0.158094 -0.032757
-0.109343 -0.158094 -0.033743
-0.106135 -0.161232 -0.032542
-0.104295 -0.161232 -0.033527
-0.101780 -0.162796 -0.033418
-0.099942 -0.162796 -0.034402
-0.097434 -0.164356 -0.034293
-0.095599 -0.164356 -0.035275
-0.093763 -0.164356 -0.036258
-0.091265 -0.165913 -0.036147
-0.089431 -0.165913 -0.037128
-0.087598 -0.165913 -0.038109
-0.085109 -0.167467 -0.037997
-0.083277 -0.167467 -0.038977
-0.081446 -0.167467 -0.039957
-0.078966 -0.169017 -0.039843
-0.077137 -0.169017 -0.040822
-0.075307 -0.169017 -0.041801
-0.072837 -0.170564 -0.041684
-0.071009 -0.170564 -0.042662
-0.069182 -0.170564 -0.043641
-0.067354 -0.170564 -0.044619
-0.065527 -0.170564 -0.045597
-0.063700 -0.170564 -0.046575
-0.061244 -0.172108 -0.046453
-0.059419 -0.172108 -0.047430
-0.057593 -0.172108 -0.048407
-0.055768 -0.172108 -0.049384
-0.053324 -0.173648 -0.049260
-0.051500 -0.173648 -0.050236
-0.049677 -0.173648 -0.051212
-0.047853 -0.173648 -0.052188
-0.045420 -0.175185 -0.052061
-0.043599 -0.175185 -0.053036
-0.041778 -0.175185 -0.054010
-0.039956 -0.175185 -0.054985
-0.038135 -0.175185 -0.055960
-0.035715 -0.176719 -0.055829
-0.033895 -0.176719 -0.056803
-0.032076 -0.176719 -0.057777
-0.029665 -0.178249 -0.057644
-0.027847 -0.178249 -0.058617
-0.026030 -0.178249 -0.059589
-0.024212 -0.178249 -0.060562
-0.022395 -0.178249 -0.061535
-0.019997 -0.179777 -0.061398
-0.018181 -0.179777 -0.062370
-0.016366 -0.179777 -0.063342
-0.014550 -0.179777 -0.064313
-0.012163 -0.181300 -0.064174
-0.010350 -0.181300 -0.065144
-0.008536 -0.181300 -0.066115
-0.006723 -0.181300 -0.067086
-0.004347 -0.182821 -0.066943
-0.002535 -0.182821 -0.067913
-0.000723 -0.182821 -0.068883
0.001643 -0.184338 -0.068738
0.003453 -0.184338 -0.069707
0.005263 -0.184338 -0.070675
0.007073 -0.184338 -0.071644
0.008882 -0.184338 -0.072613
0.011236 -0.185852 -0.072464
0.012502 -0.184338 -0.074550
0.014312 -0.184338 -0.075519
0.016660 -0.185852 -0.075367
0.018467 -0.185852 -0.076335
0.020275 -0.185852 -0.077303
0.022614 -0.187363 -0.077149
0.024420 -0.187363 -0.078116
0.026226 -0.187363 -0.079083
0.028032 -0.187363 -0.080049
0.030361 -0.188871 -0.079893
0.032164 -0.188871 -0.080859
0.034486 -0.190375 -0.080702
0.036288 -0.190375 -0.081667
0.038090 -0.190375 -0.082631
0.040403 -0.191876 -0.082473
0.042203 -0.191876 -0.083436
0.044003 -0.191876 -0.084400
0.045803 -0.191876 -0.085363
0.047603 -0.191876 -0.086327
0.049403 -0.191876 -0.087290
0.051203 -0.191876 -0.088254
0.053003 -0.191876 -0.089217
0.054803 -0.191876 -0.090181
0.056604 -0.191876 -0.091144
0.058404 -0.191876 -0.092108
0.060204 -0.191876 -0.093071
0.062004 -0.191876 -0.094035
0.063804 -0.191876 -0.094998
0.065604 -0.191876 -0.095962
0.067404 -0.191876 -0.096925
0.069204 -0.191876 -0.097888
0.071004 -0.191876 -0.098852
0.072805 -0.191876 -0.099815
0.074605 -0.191876 -0.100779
0.076405 -0.191876 -0.101742
0.077735 -0.190375 -0.103850
0.079537 -0.190375 -0.104815
0.081339 -0.190375 -0.105779
0.082675 -0.188871 -0.107894
0.084479 -0.188871 -0.108859
0.085820 -0.187363 -0.110979
0.087626 -0.187363 -0.111946
0.089432 -0.187363 -0.112912
0.090780 -0.185852 -0.115039
0.092588 -0.185852 -0.116007
0.093941 -0.184338 -0.118139
0.094842 -0.181300 -0.121446
0.096202 -0.179777 -0.123591
0.098017 -0.179777 -0.124563
0.099382 -0.178249 -0.126714
0.100749 -0.176719 -0.128869
0.102120 -0.175185 -0.131029
0.103493 -0.173648 -0.133194
0.104870 -0.172108 -0.135363
0.106695 -0.172108 -0.136340
0.108076 -0.170564 -0.138515
0.109461 -0.169017 -0.140695
0.110848 -0.167467 -0.142879
0.112680 -0.167467 -0.143859
0.113632 -0.164356 -0.147263
0.115029 -0.162796 -0.149461
0.116866 -0.162796 -0.150445
0.117393 -0.158094 -0.155100
0.118362 -0.154942 -0.158550
0.119773 -0.153361 -0.160776
0.120750 -0.150188 -0.164250
0.121732 -0.147001 -0.167739
0.122718 -0.143801 -0.171243
0.123709 -0.140586 -0.174764
0.124703 -0.137357 -0.178299
0.125266 -0.132486 -0.183130
0.126270 -0.129221 -0.186704
0.127278 -0.125941 -0.190294
0.128727 -0.124296 -0.192600
0.131047 -0.125941 -0.192312
0.132501 -0.124296 -0.194620
0.134387 -0.124296 -0.195630
0.136274 -0.124296 -0.196640
0.137735 -0.122647 -0.198955
0.139624 -0.122647 -0.199966
0.141513 -0.122647 -0.200977
0.142981 -0.120994 -0.203300
0.144872 -0.120994 -0.204312
0.146346 -0.119337 -0.206642
0.148239 -0.119337 -0.207655
0.150132 -0.119337 -0.208668
0.151613 -0.117677 -0.211005
0.153508 -0.117677 -0.212020
0.155404 -0.117677 -0.213034
0.156893 -0.116013 -0.215378
0.158790 -0.116013 -0.216394
0.160284 -0.114346 -0.218745
0.162184 -0.114346 -0.219762
0.164083 -0.114346 -0.220778
0.165585 -0.112674 -0.223137
0.167487 -0.112674 -0.224154
0.169389 -0.112674 -0.225172
0.170898 -0.110999 -0.227538
0.172802 -0.110999 -0.228557
0.174318 -0.109320 -0.230930
0.176223 -0.109320 -0.231950
0.178129 -0.109320 -0.232970
0.179652 -0.107637 -0.235350
0.181560 -0.107637 -0.236372
0.183468 -0.107637 -0.237393
0.184999 -0.105951 -0.239781
0.187285 -0.107637 -0.239435
0.188820 -0.105951 -0.241826
0.190730 -0.105951 -0.242848
0.192640 -0.105951 -0.243871
0.194183 -0.104260 -0.246269
0.196096 -0.104260 -0.247292
0.198008 -0.104260 -0.248316
0.199559 -0.102566 -0.250722
0.201473 -0.102566 -0.251746
0.203030 -0.100868 -0.254159
0.204947 -0.100868 -0.255185
0.206863 -0.100868 -0.256211
0.208428 -0.099166 -0.258631
0.210347 -0.099166 -0.259658
0.212266 -0.099166 -0.260685
0.214184 -0.099166 -0.261712
0.216103 -0.099166 -0.262739
0.218022 -0.099166 -0.263766
0.219601 -0.097460 -0.266198
0.221522 -0.097460 -0.267226
0.223107 -0.095750 -0.269664
0.224695 -0.094037 -0.272108
0.226621 -0.094037 -0.273139
0.227883 -0.090598 -0.277013
0.229813 -0.090598 -0.278046
0.231414 -0.088872 -0.280508
0.233020 -0.087143 -0.282975
0.234954 -0.087143 -0.284011
0.236565 -0.085409 -0.286485
0.238180 -0.083672 -0.288965
0.240119 -0.083672 -0.290003
0.241739 -0.081931 -0.292490
0.243364 -0.080185 -0.294983
0.244992 -0.078436 -0.297481
0.246310 -0.074925 -0.301452
0.247947 -0.073163 -0.303967
0.249588 -0.071398 -0.306487
0.251233 -0.069628 -0.309014
0.252573 -0.066076 -0.313034
0.253611 -0.060717 -0.318574
0.254347 -0.053514 -0.325667
0.255399 -0.048066 -0.331297
0.256459 -0.042580 -0.336966
0.257835 -0.038901 -0.341125
0.257983 -0.027760 -0.351566
0.255926 -0.003063 -0.373434
0.257968 -0.003063 -0.374527
0.259383 0.000805 -0.378882
0.261430 0.000805 -0.379978
0.263477 0.000805 -0.381073
0.265217 0.002746 -0.383810
0.267266 0.002746 -0.384907
0.269316 0.002746 -0.386004
0.271065 0.004693 -0.388750
0.273117 0.004693 -0.389848
0.274873 0.006643 -0.392602
0.276927 0.006643 -0.393702
0.278981 0.006643 -0.394802
0.280746 0.008599 -0.397565
0.282803 0.008599 -0.398666
0.284860 0.008599 -0.399767
0.286917 0.008599 -0.400868
0.288694 0.010559 -0.403642
0.290754 0.010559 -0.404744
0.292813 0.010559 -0.405847
0.294872 0.010559 -0.406949
0.296661 0.012524 -0.409734
0.298723 0.012524 -0.410838
0.300785 0.012524 -0.411941
0.302847 0.012524 -0.413045
0.304648 0.014494 -0.415841
0.306712 0.014494 -0.416946
0.308777 0.014494 -0.418051
0.310841 0.014494 -0.419156
0.312654 0.016469 -0.421963
0.314721 0.016469 -0.423069
0.316788 0.016469 -0.424175
0.318855 0.016469 -0.425282
0.320680 0.018449 -0.428100
0.322749 0.018449 -0.429207
0.325056 0.016469 -0.428601
0.327123 0.016469 -0.429707
0.328958 0.018449 -0.432530
0.331028 0.018449 -0.433638
0.333097 0.018449 -0.434746
0.335167 0.018449 -0.435853
0.337014 0.020433 -0.438688
0.339086 0.020433 -0.439797
0.340940 0.022422 -0.442639
0.342799 0.024417 -0.445489
0.344662 0.026416 -0.448346
0.346530 0.028420 -0.451209
0.348402 0.030429 -0.454080
0.350280 0.032443 -0.456958
0.352161 0.034462 -0.459843
0.354048 0.036486 -0.462735
0.355939 0.038515 -0.465634
0.356628 0.052861 -0.479346
-0.373299 0.009234 -0.051504
-0.363701 -0.004377 -0.043953
-0.356364 -0.013959 -0.038948
-0.349115 -0.023426 -0.034002
-0.341951 -0.032781 -0.029116
-0.334873 -0.042025 -0.024287
-0.330872 -0.045693 -0.023010
-0.326889 -0.049343 -0.021739
-0.322925 -0.052975 -0.020475
-0.319962 -0.054785 -0.020374
-0.316028 -0.058393 -0.019116
-0.313083 -0.060190 -0.019017
-0.310144 -0.061983 -0.018919
-0.307213 -0.063772 -0.018820
-0.303332 -0.067338 -0.017574
-0.300418 -0.069114 -0.017477
-0.297512 -0.070887 -0.017380
-0.294612 -0.072655 -0.017284
-0.291719 -0.074419 -0.017188
-0.288832 -0.076179 -0.017092
-0.285952 -0.077935 -0.016997
-0.283079 -0.079687 -0.016901
-0.281134 -0.079687 -0.017943
-0.278270 -0.081435 -0.017846
-0.275412 -0.083179 -0.017750
-0.272561 -0.084919 -0.017654
-0.269716 -0.086655 -0.017559
-0.266878 -0.088387 -0.017463
-0.264047 -0.090115 -0.017368
-0.261221 -0.091839 -0.017273
-0.258403 -0.093559 -0.017178
-0.255591 -0.095275 -0.017084
-0.253665 -0.095275 -0.018114
-0.250862 -0.096987 -0.018019
-0.248064 -0.098696 -0.017923
-0.245274 -0.100400 -0.017828
-0.242489 -0.102101 -0.017733
-0.240572 -0.102101 -0.018759
-0.237796 -0.103797 -0.018663
-0.235027 -0.105490 -0.018568
-0.232263 -0.107179 -0.018472
-0.229506 -0.108865 -0.018377
-0.227598 -0.108865 -0.019398
-0.224849 -0.110546 -0.019302
-0.222107 -0.112224 -0.019206
-0.220203 -0.112224 -0.020225
-0.217469 -0.113897 -0.020128
-0.214741 -0.115567 -0.020032
-0.212019 -0.117234 -0.019935
-0.210122 -0.117234 -0.020951
-0.207408 -0.118896 -0.020853
-0.205513 -0.118896 -0.021868
-0.202807 -0.120555 -0.021769
-0.200108 -0.122210 -0.021671
-0.198217 -0.122210 -0.022683
-0.195526 -0.123862 -0.022584
-0.192840 -0.125509 -0.022486
-0.190954 -0.125509 -0.023496
-0.188277 -0.127153 -0.023396
-0.185605 -0.128794 -0.023296
-0.183723 -0.128794 -0.024304
-0.181060 -0.130431 -0.024204
-0.178403 -0.132064 -0.024104
-0.176524 -0.132064 -0.025109
-0.173875 -0.133693 -0.025008
-0.171232 -0.135319 -0.024907
-0.169358 -0.135319 -0.025910
-0.166723 -0.136941 -0.025809
-0.164093 -0.138560 -0.025707
-0.161470 -0.140175 -0.025606
-0.159602 -0.140175 -0.026606
-0.156986 -0.141786 -0.026504
-0.155120 -0.141786 -0.027502
-0.152512 -0.143394 -0.027399
-0.150648 -0.143394 -0.028397
-0.148048 -0.144998 -0.028293
-0.145454 -0.146599 -0.028189
-0.143594 -0.146599 -0.029185
-0.141735 -0.146599 -0.030180
-0.139150 -0.148196 -0.030074
-0.137292 -0.148196 -0.031069
-0.134716 -0.149790 -0.030962
-0.132860 -0.149790 -0.031955
-0.130291 -0.151380 -0.031848
-0.127727 -0.152967 -0.031741
-0.125169 -0.154550 -0.031634
-0.123320 -0.154550 -0.032624
-0.120770 -0.156130 -0.032516
-0.118922 -0.156130 -0.033505
-0.116380 -0.157706 -0.033397
-0.114534 -0.157706 -0.034384
-0.112689 -0.157706 -0.035372
-0.110156 -0.159279 -0.035262
-0.108312 -0.159279 -0.036248
-0.105106 -0.162415 -0.035041
-0.103267 -0.162415 -0.036026
-0.100752 -0.163977 -0.035915
-0.098915 -0.163977 -0.036899
-0.096408 -0.165537 -0.036787
-0.094573 -0.165537 -0.037769
-0.092737 -0.165537 -0.038752
-0.090240 -0.167093 -0.038638
-0.088406 -0.167093 -0.039619
-0.085916 -0.168645 -0.039505
-0.084085 -0.168645 -0.040485
-0.082253 -0.168645 -0.041465
-0.079772 -0.170194 -0.041349
-0.077943 -0.170194 -0.042328
-0.076114 -0.170194 -0.043308
-0.073642 -0.171740 -0.043189
-0.071815 -0.171740 -0.044168
-0.069987 -0.171740 -0.045146
-0.067525 -0.173282 -0.045026
-0.065700 -0.173282 -0.046003
-0.064505 -0.171740 -0.048080
-0.062049 -0.173282 -0.047957
-0.060224 -0.173282 -0.048934
-0.058398 -0.173282 -0.049911
-0.056573 -0.173282 -0.050888
-0.054128 -0.174821 -0.050762
-0.052304 -0.174821 -0.051738
-0.050481 -0.174821 -0.052714
-0.048657 -0.174821 -0.053690
-0.046223 -0.176357 -0.053561
-0.044402 -0.176357 -0.054536
-0.042580 -0.176357 -0.055511
-0.040759 -0.176357 -0.056486
-0.038336 -0.177889 -0.056354
-0.036517 -0.177889 -0.057328
-0.034697 -0.177889 -0.058302
-0.032878 -0.177889 -0.059275
-0.030466 -0.179419 -0.059141
-0.028649 -0.179419 -0.060114
-0.026831 -0.179419 -0.061086
-0.025014 -0.179419 -0.062059
-0.023196 -0.179419 -0.063032
-0.020797 -0.180944 -0.062893
-0.018982 -0.180944 -0.063865
-0.017166 -0.180944 -0.064837
-0.015351 -0.180944 -0.065809
-0.012963 -0.182467 -0.065667
-0.011149 -0.182467 -0.066638
-0.009336 -0.182467 -0.067609
-0.007522 -0.182467 -0.068580
-0.005145 -0.183986 -0.068435
-0.003334 -0.183986 -0.069405
-0.001522 -0.183986 -0.070375
0.000845 -0.185502 -0.070229
0.002655 -0.185502 -0.071197
0.004465 -0.185502 -0.072166
0.006275 -0.185502 -0.073135
0.008085 -0.185502 -0.074103
0.010439 -0.187015 -0.073953
0.011704 -0.185502 -0.076041
0.013514 -0.185502 -0.077009
0.015863 -0.187015 -0.076856
0.017671 -0.187015 -0.077824
0.019478 -0.187015 -0.078791
0.021818 -0.188525 -0.078637
0.023624 -0.188525 -0.079603
0.025430 -0.188525 -0.080570
0.027236 -0.188525 -0.081536
0.029565 -0.190031 -0.081379
0.031890 -0.191534 -0.081222
0.033692 -0.191534 -0.082186
0.035494 -0.191534 -0.083151
0.037296 -0.191534 -0.084115
0.039609 -0.193034 -0.083956
0.041409 -0.193034 -0.084919
0.043209 -0.193034 -0.085882
0.045009 -0.193034 -0.086846
0.046810 -0.193034 -0.087809
0.048610 -0.193034 -0.088773
0.050410 -0.193034 -0.089736
0.052210 -0.193034 -0.090700
0.054010 -0.193034 -0.091663
0.055810 -0.193034 -0.092627
0.057610 -0.193034 -0.093590
0.059410 -0.193034 -0.094554
0.061210 -0.193034 -0.095517
0.063010 -0.193034 -0.096481
0.064811 -0.193034 -0.097444
0.066611 -0.193034 -0.098408
0.068411 -0.193034 -0.099371
0.070211 -0.193034 -0.100335
0.072011 -0.193034 -0.101298
0.073811 -0.193034 -0.102262
0.075611 -0.193034 -0.103225
0.076940 -0.191534 -0.105335
0.078742 -0.191534 -0.106299
0.080544 -0.191534 -0.107264
0.081880 -0.190031 -0.109380
0.083684 -0.190031 -0.110345
0.085024 -0.188525 -0.112467
0.086830 -0.188525 -0.113433
0.088636 -0.188525 -0.114400
0.089983 -0.187015 -0.116528
0.091791 -0.187015 -0.117496
0.093143 -0.185502 -0.119629
0.094042 -0.182467 -0.122940
0.095856 -0.182467 -0.123911
0.097217 -0.180944 -0.126059
0.098581 -0.179419 -0.128211
0.099947 -0.177889 -0.130368
0.101317 -0.176357 -0.132529
0.102689 -0.174821 -0.134696
0.104065 -0.173282 -0.136866
0.105890 -0.173282 -0.137843
0.107271 -0.171740 -0.140020
0.108654 -0.170194 -0.142202
0.110041 -0.168645 -0.144388
0.111872 -0.168645 -0.145368
0.112823 -0.165537 -0.148774
0.114219 -0.163977 -0.150975
0.116056 -0.163977 -0.151958
0.116580 -0.159279 -0.156618
0.117547 -0.156130 -0.160072
0.118957 -0.154550 -0.162299
0.119933 -0.151380 -0.165776
0.120913 -0.148196 -0.169269
0.121897 -0.144998 -0.172777
0.122886 -0.141786 -0.176300
0.123879 -0.138560 -0.179839
0.124439 -0.133693 -0.184676
0.125441 -0.130431 -0.188253
0.126447 -0.127153 -0.191847
0.127458 -0.123862 -0.195456
0.129347 -0.123862 -0.196467
0.131236 -0.123862 -0.197478
0.132693 -0.122210 -0.199797
0.134584 -0.122210 -0.200809
0.136475 -0.122210 -0.201821
0.137939 -0.120555 -0.204148
0.139832 -0.120555 -0.205161
0.141725 -0.120555 -0.206175
0.143197 -0.118896 -0.208509
0.145092 -0.118896 -0.209523
0.146988 -0.118896 -0.210537
0.148467 -0.117234 -0.212879
0.150364 -0.117234 -0.213895
0.152262 -0.117234 -0.214910
0.153749 -0.115567 -0.217259
0.155648 -0.115567 -0.218276
0.157141 -0.113897 -0.220632
0.159042 -0.113897 -0.221649
0.160541 -0.112224 -0.224012
0.162444 -0.112224 -0.225031
0.164348 -0.112224 -0.226050
0.165854 -0.110546 -0.228419
0.167760 -0.110546 -0.229439
0.169666 -0.110546 -0.230459
0.171179 -0.108865 -0.232837
0.173087 -0.108865 -0.233858
0.174995 -0.108865 -0.234880
0.176517 -0.107179 -0.237265
0.178427 -0.107179 -0.238287
0.180337 -0.107179 -0.239309
0.181866 -0.105490 -0.241702
0.183778 -0.105490 -0.242726
0.185691 -0.105490 -0.243749
0.187603 -0.105490 -0.244773
0.189142 -0.103797 -0.247175
0.191057 -0.103797 -0.248200
0.192971 -0.103797 -0.249224
0.194518 -0.102101 -0.251634
0.196435 -0.102101 -0.252660
0.198352 -0.102101 -0.253686
0.199906 -0.100400 -0.256103
0.201825 -0.100400 -0.257130
0.203744 -0.100400 -0.258157
0.205307 -0.098696 -0.260582
0.207228 -0.098696 -0.261611
0.209149 -0.098696 -0.262639
0.211070 -0.098696 -0.263667
0.212991 -0.098696 -0.264695
0.214912 -0.098696 -0.265724
0.216489 -0.096987 -0.268160
0.218413 -0.096987 -0.269190
0.219996 -0.095275 -0.271633
0.221582 -0.093559 -0.274082
0.223510 -0.093559 -0.275114
0.225102 -0.091839 -0.277570
0.226699 -0.090115 -0.280031
0.228298 -0.088387 -0.282498
0.229902 -0.086655 -0.284971
0.231838 -0.086655 -0.286007
0.233448 -0.084919 -0.288487
0.235386 -0.084919 -0.289524
0.237002 -0.083179 -0.292011
0.238621 -0.081435 -0.294503
0.240564 -0.081435 -0.295543
0.241870 -0.077935 -0.299505
0.243500 -0.076179 -0.302014
0.244818 -0.072655 -0.306005
0.246457 -0.070887 -0.308531
0.248100 -0.069114 -0.311062
0.249747 -0.067338 -0.313600
0.251087 -0.063772 -0.317640
0.251810 -0.056591 -0.324722
0.252853 -0.051161 -0.330341
0.253902 -0.045693 -0.336001
0.254959 -0.040185 -0.341700
0.255712 -0.032781 -0.349005
0.255214 -0.017759 -0.362742
0.255026 -0.004377 -0.375116
0.257068 -0.004377 -0.376209
0.259110 -0.004377 -0.377302
0.261152 -0.004377 -0.378395
0.262575 -0.000512 -0.382759
0.264622 -0.000512 -0.383855
0.266669 -0.000512 -0.384951
0.268412 0.001428 -0.387692
0.270160 0.003373 -0.390440
0.272212 0.003373 -0.391538
0.274264 0.003373 -0.392637
0.276316 0.003373 -0.393735
0.278076 0.005322 -0.396494
0.280130 0.005322 -0.397593
0.282185 0.005322 -0.398693
0.284239 0.005322 -0.399793
0.286010 0.007276 -0.402562
0.288067 0.007276 -0.403663
0.290124 0.007276 -0.404764
0.292181 0.007276 -0.405865
0.293965 0.009234 -0.408645
0.296024 0.009234 -0.409748
0.298083 0.009234 -0.410850
0.300143 0.009234 -0.411952
0.301938 0.011198 -0.414743
0.304000 0.011198 -0.415847
0.306062 0.011198 -0.416951
0.308124 0.011198 -0.418054
0.309931 0.013166 -0.420856
0.311996 0.013166 -0.421961
0.314060 0.013166 -0.423066
0.316372 0.011198 -0.422469
0.318189 0.013166 -0.425276
0.320254 0.013166 -0.426381
0.322318 0.013166 -0.427486
0.324145 0.015139 -0.430303
0.326212 0.015139 -0.431410
0.328279 0.015139 -0.432516
0.330346 0.015139 -0.433622
0.332413 0.015139 -0.434729
0.334254 0.017117 -0.437558
0.336324 0.017117 -0.438666
0.338394 0.017117 -0.439773
0.340025 0.021088 -0.444348
0.342100 0.021088 -0.445459
0.343960 0.023081 -0.448312
0.345825 0.025078 -0.451172
0.347694 0.027081 -0.454039
0.349568 0.029088 -0.456913
0.351447 0.031100 -0.459795
0.353330 0.033118 -0.462683
0.355218 0.035140 -0.465579
0.356507 0.043280 -0.473857
-0.375298 0.009872 -0.054449
-0.366744 -0.001828 -0.048096
-0.358314 -0.013359 -0.041835
-0.351044 -0.022841 -0.036867
-0.343861 -0.032211 -0.031957
-0.336763 -0.041469 -0.027106
-0.332752 -0.045142 -0.025821
-0.328761 -0.048798 -0.024542
-0.324788 -0.052436 -0.023269
-0.320833 -0.056057 -0.022002
-0.317876 -0.057862 -0.021900
-0.314925 -0.059662 -0.021797
-0.311012 -0.063249 -0.020540
-0.308079 -0.065037 -0.020439
-0.305154 -0.066820 -0.020339
-0.301282 -0.070374 -0.019090
-0.298374 -0.072145 -0.018992
-0.295473 -0.073912 -0.018894
-0.292579 -0.075675 -0.018796
-0.290627 -0.075675 -0.019841
-0.287742 -0.077433 -0.019742
-0.284863 -0.079188 -0.019643
-0.281991 -0.080939 -0.019545
-0.279126 -0.082685 -0.019447
-0.276267 -0.084428 -0.019349
-0.273415 -0.086166 -0.019251
-0.270570 -0.087900 -0.019154
-0.267731 -0.089631 -0.019056
-0.265797 -0.089631 -0.020092
-0.262966 -0.091358 -0.019993
-0.260142 -0.093080 -0.019895
-0.257325 -0.094799 -0.019798
-0.254514 -0.096514 -0.019700
-0.251709 -0.098224 -0.019603
-0.248911 -0.099931 -0.019505
-0.246120 -0.101634 -0.019409
-0.244201 -0.101634 -0.020436
-0.241417 -0.103334 -0.020338
-0.238640 -0.105029 -0.020240
-0.236726 -0.105029 -0.021265
-0.233105 -0.108408 -0.020045
-0.231195 -0.108408 -0.021068
-0.228439 -0.110092 -0.020970
-0.225690 -0.111772 -0.020872
-0.223784 -0.111772 -0.021892
-0.221042 -0.113448 -0.021793
-0.218307 -0.115121 -0.021694
-0.215578 -0.116789 -0.021596
-0.213679 -0.116789 -0.022613
-0.210958 -0.118454 -0.022513
-0.208243 -0.120115 -0.022414
-0.206348 -0.120115 -0.023429
-0.203642 -0.121773 -0.023329
-0.200941 -0.123427 -0.023229
-0.199051 -0.123427 -0.024241
-0.196358 -0.125077 -0.024140
-0.194470 -0.125077 -0.025151
-0.191785 -0.126723 -0.025049
-0.189107 -0.128366 -0.024948
-0.187223 -0.128366 -0.025957
-0.184553 -0.130005 -0.025854
-0.181889 -0.131640 -0.025752
-0.180008 -0.131640 -0.026759
-0.177353 -0.133272 -0.026656
-0.174702 -0.134900 -0.026553
-0.172826 -0.134900 -0.027557
-0.170184 -0.136524 -0.027454
-0.167548 -0.138145 -0.027350
-0.164918 -0.139762 -0.027247
-0.163048 -0.139762 -0.028248
-0.160425 -0.141376 -0.028144
-0.158557 -0.141376 -0.029144
-0.155943 -0.142986 -0.029039
-0.153334 -0.144593 -0.028934
-0.151470 -0.144593 -0.029932
-0.148869 -0.146196 -0.029826
-0.147007 -0.146196 -0.030823
-0.144414 -0.147795 -0.030716
-0.142554 -0.147795 -0.031712
-0.139969 -0.149391 -0.031604
-0.138111 -0.149391 -0.032599
-0.135534 -0.150984 -0.032490
-0.133678 -0.150984 -0.033484
-0.131108 -0.152573 -0.033375
-0.129254 -0.152573 -0.034367
-0.126692 -0.154158 -0.034257
-0.124135 -0.155740 -0.034147
-0.122286 -0.155740 -0.035137
-0.119737 -0.157318 -0.035027
-0.117889 -0.157318 -0.036016
-0.115348 -0.158893 -0.035904
-0.113502 -0.158893 -0.036892
-0.110968 -0.160465 -0.036780
-0.109125 -0.160465 -0.037767
-0.105917 -0.163598 -0.036556
-0.104078 -0.163598 -0.037541
-0.101562 -0.165159 -0.037428
-0.099725 -0.165159 -0.038412
-0.097217 -0.166717 -0.038299
-0.096050 -0.165159 -0.040379
-0.093546 -0.166717 -0.040263
-0.091048 -0.168272 -0.040148
-0.089214 -0.168272 -0.041129
-0.087381 -0.168272 -0.042111
-0.084892 -0.169823 -0.041994
-0.083061 -0.169823 -0.042974
-0.081229 -0.169823 -0.043954
-0.078750 -0.171371 -0.043835
-0.076920 -0.171371 -0.044814
-0.074448 -0.172915 -0.044695
-0.072620 -0.172915 -0.045673
-0.070793 -0.172915 -0.046651
-0.068330 -0.174456 -0.046529
-0.066505 -0.174456 -0.047506
-0.064679 -0.174456 -0.048483
-0.062854 -0.174456 -0.049460
-0.061028 -0.174456 -0.050437
-0.059203 -0.174456 -0.051414
-0.057377 -0.174456 -0.052391
-0.054931 -0.175994 -0.052264
-0.053108 -0.175994 -0.053240
-0.051285 -0.175994 -0.054216
-0.049461 -0.175994 -0.055192
-0.047026 -0.177529 -0.055061
-0.045205 -0.177529 -0.056036
-0.043383 -0.177529 -0.057011
-0.041562 -0.177529 -0.057986
-0.039138 -0.179060 -0.057852
-0.037319 -0.179060 -0.058826
-0.035499 -0.179060 -0.059800
-0.033680 -0.179060 -0.060774
-0.031267 -0.180588 -0.060638
-0.029450 -0.180588 -0.061611
-0.027632 -0.180588 -0.062583
-0.025815 -0.180588 -0.063556
-0.023413 -0.182112 -0.063417
-0.021598 -0.182112 -0.064389
-0.019782 -0.182112 -0.065361
-0.017967 -0.182112 -0.066332
-0.016151 -0.182112 -0.067304
-0.013763 -0.183634 -0.067161
-0.011949 -0.183634 -0.068132
-0.010135 -0.183634 -0.069103
-0.008322 -0.183634 -0.070073
-0.005944 -0.185152 -0.069928
-0.004132 -0.185152 -0.070897
-0.002321 -0.185152 -0.071867
0.000048 -0.186666 -0.071719
0.001857 -0.186666 -0.072688
0.003667 -0.186666 -0.073657
0.005477 -0.186666 -0.074625
0.007834 -0.188178 -0.074475
0.009642 -0.188178 -0.075442
0.010906 -0.186666 -0.077531
0.013258 -0.188178 -0.077378
0.015066 -0.188178 -0.078345
0.016874 -0.188178 -0.079313
0.018681 -0.188178 -0.080280
0.021022 -0.189686 -0.080124
0.022828 -0.189686 -0.081091
0.024634 -0.189686 -0.082057
0.026440 -0.189686 -0.083024
0.028770 -0.191191 -0.082865
0.031095 -0.192693 -0.082706
0.032897 -0.192693 -0.083671
0.034699 -0.192693 -0.084635
0.036501 -0.192693 -0.085600
0.038816 -0.194192 -0.085438
0.040616 -0.194192 -0.086402
0.042416 -0.194192 -0.087365
0.044216 -0.194192 -0.088329
0.046016 -0.194192 -0.089292
0.047816 -0.194192 -0.090256
0.049616 -0.194192 -0.091219
0.051416 -0.194192 -0.092182
0.053216 -0.194192 -0.093146
0.055016 -0.194192 -0.094109
0.056817 -0.194192 -0.095073
0.058617 -0.194192 -0.096036
0.060417 -0.194192 -0.097000
0.062217 -0.194192 -0.097963
0.064017 -0.194192 -0.098927
0.065817 -0.194192 -0.099890
0.067617 -0.194192 -0.100854
0.069417 -0.194192 -0.101817
0.071217 -0.194192 -0.102781
0.073018 -0.194192 -0.103744
0.074818 -0.194192 -0.104708
0.076146 -0.192693 -0.106819
0.077948 -0.192693 -0.107783
0.079750 -0.192693 -0.108748
0.081085 -0.191191 -0.110865
0.082889 -0.191191 -0.111831
0.084228 -0.189686 -0.113954
0.086034 -0.189686 -0.114921
0.087379 -0.188178 -0.117049
0.089186 -0.188178 -0.118017
0.090994 -0.188178 -0.118985
0.092345 -0.186666 -0.121120
0.093243 -0.183634 -0.124434
0.095056 -0.183634 -0.125405
0.096416 -0.182112 -0.127554
0.097779 -0.180588 -0.129708
0.099145 -0.179060 -0.131866
0.100514 -0.177529 -0.134030
0.101886 -0.175994 -0.136197
0.103260 -0.174456 -0.138370
0.105086 -0.174456 -0.139347
0.106465 -0.172915 -0.141525
0.107848 -0.171371 -0.143708
0.109234 -0.169823 -0.145896
0.111065 -0.169823 -0.146876
0.112014 -0.166717 -0.150286
0.113409 -0.165159 -0.152488
0.115246 -0.165159 -0.153471
0.115768 -0.160465 -0.158137
0.116733 -0.157318 -0.161593
0.118142 -0.155740 -0.163822
0.119116 -0.152573 -0.167303
0.120094 -0.149391 -0.170799
0.121077 -0.146196 -0.174310
0.122064 -0.142986 -0.177837
0.123055 -0.139762 -0.181380
0.123612 -0.134900 -0.186221
0.124612 -0.131640 -0.189802
0.125617 -0.128366 -0.193399
0.126626 -0.125077 -0.197012
0.128078 -0.123427 -0.199331
0.129533 -0.121773 -0.201654
0.131426 -0.121773 -0.202668
0.133319 -0.121773 -0.203681
0.134781 -0.120115 -0.206012
0.136676 -0.120115 -0.207027
0.138571 -0.120115 -0.208041
0.140042 -0.118454 -0.210380
0.141939 -0.118454 -0.211395
0.143836 -0.118454 -0.212411
0.145314 -0.116789 -0.214757
0.147213 -0.116789 -0.215774
0.149113 -0.116789 -0.216791
0.150598 -0.115121 -0.219145
0.152499 -0.115121 -0.220162
0.153990 -0.113448 -0.222523
0.155894 -0.113448 -0.223542
0.157390 -0.111772 -0.225909
0.159296 -0.111772 -0.226929
0.161202 -0.111772 -0.227949
0.162706 -0.110092 -0.230324
0.164614 -0.110092 -0.231345
0.166522 -0.110092 -0.232366
0.168034 -0.108408 -0.234748
0.169944 -0.108408 -0.235771
0.171854 -0.108408 -0.236793
0.173374 -0.106720 -0.239183
0.175286 -0.106720 -0.240207
0.177198 -0.106720 -0.241230
0.178726 -0.105029 -0.243628
0.180640 -0.105029 -0.244653
0.182173 -0.103334 -0.247057
0.184469 -0.105029 -0.246702
0.186006 -0.103334 -0.249109
0.187923 -0.103334 -0.250135
0.189840 -0.103334 -0.251161
0.191385 -0.101634 -0.253575
0.193304 -0.101634 -0.254602
0.195223 -0.101634 -0.255630
0.196776 -0.099931 -0.258052
0.198697 -0.099931 -0.259080
0.200618 -0.099931 -0.260108
0.202179 -0.098224 -0.262539
0.204102 -0.098224 -0.263568
0.206025 -0.098224 -0.264597
0.207594 -0.096514 -0.267036
0.209872 -0.098224 -0.266656
0.211795 -0.098224 -0.267686
0.213718 -0.098224 -0.268715
0.215296 -0.096514 -0.271158
0.216877 -0.094799 -0.273606
0.218805 -0.094799 -0.274638
0.220392 -0.093080 -0.277093
0.221983 -0.091358 -0.279554
0.223915 -0.091358 -0.280588
0.225175 -0.087900 -0.284493
0.227112 -0.087900 -0.285529
0.228716 -0.086166 -0.288008
0.230323 -0.084428 -0.290493
0.232264 -0.084428 -0.291532
0.233878 -0.082685 -0.294024
0.235495 -0.080939 -0.296521
0.237441 -0.080939 -0.297562
0.239064 -0.079188 -0.300067
0.240369 -0.075675 -0.304048
0.242002 -0.073912 -0.306569
0.243638 -0.072145 -0.309095
0.244960 -0.068599 -0.313116
0.246606 -0.066820 -0.315659
0.248255 -0.065037 -0.318207
0.249280 -0.059662 -0.323778
0.249997 -0.052436 -0.330913
0.251036 -0.046972 -0.336574
0.252083 -0.041469 -0.342276
0.253138 -0.035927 -0.348018
0.253569 -0.026603 -0.356961
0.252406 -0.007615 -0.374079
0.254446 -0.007615 -0.375171
0.256168 -0.005690 -0.377891
0.258210 -0.005690 -0.378984
0.260252 -0.005690 -0.380077
0.261673 -0.001828 -0.384445
0.263719 -0.001828 -0.385541
0.265766 -0.001828 -0.386637
0.267509 0.000110 -0.389380
0.269558 0.000110 -0.390477
0.271608 0.000110 -0.391574
0.273657 0.000110 -0.392671
0.275412 0.002053 -0.395425
0.277463 0.002053 -0.396523
0.279515 0.002053 -0.397622
0.281567 0.002053 -0.398720
0.283333 0.004000 -0.401485
0.285388 0.004000 -0.402584
0.287442 0.004000 -0.403684
0.289497 0.004000 -0.404784
0.291274 0.005953 -0.407559
0.293606 0.004000 -0.406983
0.295660 0.004000 -0.408082
0.297445 0.005953 -0.410862
0.299502 0.005953 -0.411963
0.301559 0.005953 -0.413064
0.303616 0.005953 -0.414165
0.305673 0.005953 -0.415266
0.307473 0.007910 -0.418058
0.309532 0.007910 -0.419160
0.311592 0.007910 -0.420262
0.313651 0.007910 -0.421364
0.315463 0.009872 -0.424167
0.317525 0.009872 -0.425271
0.319587 0.009872 -0.426374
0.321649 0.009872 -0.427478
0.323473 0.011838 -0.430292
0.325537 0.011838 -0.431397
0.327602 0.011838 -0.432502
0.329435 0.013810 -0.435325
0.331502 0.013810 -0.436431
0.333569 0.013810 -0.437537
0.335412 0.015786 -0.440370
0.337481 0.015786 -0.441478
0.339331 0.017767 -0.444319
0.341186 0.019753 -0.447167
0.343260 0.019753 -0.448278
0.345122 0.021744 -0.451134
0.346988 0.023740 -0.453998
0.348859 0.025741 -0.456869
0.350734 0.027747 -0.459746
0.352614 0.029758 -0.462631
0.354499 0.031773 -0.465523
0.356187 0.035820 -0.470207
-0.368723 -0.001208 -0.051019
-0.360268 -0.012757 -0.044730
-0.352978 -0.022255 -0.039738
-0.345775 -0.031639 -0.034805
-0.338657 -0.040912 -0.029931
-0.333630 -0.046423 -0.027461
-0.329636 -0.050076 -0.026178
-0.325661 -0.053711 -0.024902
-0.321705 -0.057329 -0.023631
-0.318746 -0.059132 -0.023526
-0.315794 -0.060931 -0.023422
-0.312849 -0.062725 -0.023318
-0.309911 -0.064515 -0.023214
-0.306019 -0.068083 -0.021956
-0.303100 -0.069861 -0.021854
-0.300186 -0.071634 -0.021753
-0.297280 -0.073404 -0.021651
-0.294381 -0.075169 -0.021550
-0.291488 -0.076930 -0.021449
-0.288601 -0.078688 -0.021348
-0.285722 -0.080441 -0.021248
-0.282849 -0.082190 -0.021147
-0.279983 -0.083935 -0.021047
-0.278040 -0.083935 -0.022087
-0.275182 -0.085676 -0.021986
-0.272331 -0.087413 -0.021886
-0.269487 -0.089146 -0.021785
-0.266649 -0.090875 -0.021685
-0.263818 -0.092600 -0.021585
-0.260993 -0.094322 -0.021485
-0.258175 -0.096039 -0.021385
-0.255363 -0.097752 -0.021286
-0.252557 -0.099462 -0.021187
-0.250634 -0.099462 -0.022216
-0.246965 -0.102869 -0.020989
-0.245047 -0.102869 -0.022016
-0.242262 -0.104566 -0.021916
-0.240346 -0.104566 -0.022942
-0.237570 -0.106260 -0.022842
-0.234801 -0.107950 -0.022741
-0.232037 -0.109637 -0.022641
-0.229280 -0.111319 -0.022541
-0.227372 -0.111319 -0.023562
-0.224624 -0.112998 -0.023462
-0.221882 -0.114673 -0.023361
-0.219978 -0.114673 -0.024380
-0.217244 -0.116344 -0.024278
-0.214516 -0.118011 -0.024177
-0.211794 -0.119675 -0.024076
-0.209897 -0.119675 -0.025091
-0.207184 -0.121334 -0.024989
-0.205288 -0.121334 -0.026004
-0.202583 -0.122990 -0.025901
-0.199884 -0.124643 -0.025798
-0.197191 -0.126292 -0.025696
-0.195302 -0.126292 -0.026707
-0.192617 -0.127937 -0.026603
-0.190731 -0.127937 -0.027613
-0.188054 -0.129578 -0.027509
-0.185383 -0.131216 -0.027405
-0.183500 -0.131216 -0.028413
-0.180837 -0.132850 -0.028308
-0.178181 -0.134480 -0.028203
-0.176302 -0.134480 -0.029208
-0.173653 -0.136107 -0.029103
-0.171010 -0.137730 -0.028997
-0.168373 -0.139349 -0.028892
-0.166501 -0.139349 -0.029894
-0.163872 -0.140965 -0.029788
-0.161249 -0.142578 -0.029683
-0.159381 -0.142578 -0.030682
-0.156765 -0.144186 -0.030576
-0.154899 -0.144186 -0.031574
-0.152292 -0.145792 -0.031467
-0.150428 -0.145792 -0.032464
-0.147828 -0.147393 -0.032356
-0.145234 -0.148991 -0.032248
-0.143374 -0.148991 -0.033243
-0.141515 -0.148991 -0.034239
-0.138930 -0.150586 -0.034129
-0.137073 -0.150586 -0.035123
-0.134496 -0.152177 -0.035012
-0.132640 -0.152177 -0.036005
-0.130071 -0.153765 -0.035893
-0.128218 -0.153765 -0.036885
-0.124951 -0.156930 -0.035671
-0.123101 -0.156930 -0.036660
-0.120551 -0.158507 -0.036548
-0.118704 -0.158507 -0.037537
-0.116161 -0.160081 -0.037424
-0.114316 -0.160081 -0.038412
-0.111781 -0.161651 -0.038298
-0.109938 -0.161651 -0.039285
-0.108094 -0.161651 -0.040271
-0.104889 -0.164781 -0.039056
-0.103049 -0.164781 -0.040040
-0.100535 -0.166341 -0.039925
-0.098698 -0.166341 -0.040909
-0.096860 -0.166341 -0.041892
-0.094355 -0.167898 -0.041775
-0.092520 -0.167898 -0.042757
-0.090023 -0.169451 -0.042639
-0.088189 -0.169451 -0.043621
-0.085699 -0.171001 -0.043502
-0.083868 -0.171001 -0.044482
-0.082037 -0.171001 -0.045462
-0.079556 -0.172548 -0.045342
-0.077727 -0.172548 -0.046321
-0.075897 -0.172548 -0.047300
-0.073426 -0.174091 -0.047178
-0.071599 -0.174091 -0.048156
-0.069771 -0.174091 -0.049134
-0.067309 -0.175631 -0.049010
-0.065484 -0.175631 -0.049987
-0.063658 -0.175631 -0.050964
-0.061833 -0.175631 -0.051941
-0.060008 -0.175631 -0.052918
-0.058182 -0.175631 -0.053895
-0.055735 -0.177167 -0.053766
-0.053912 -0.177167 -0.054742
-0.052088 -0.177167 -0.055718
-0.050265 -0.177167 -0.056694
-0.047829 -0.178700 -0.056561
-0.046008 -0.178700 -0.057536
-0.044186 -0.178700 -0.058511
-0.042365 -0.178700 -0.059486
-0.039941 -0.180230 -0.059351
-0.038121 -0.180230 -0.060325
-0.036301 -0.180230 -0.061299
-0.034482 -0.180230 -0.062273
-0.032069 -0.181757 -0.062135
-0.030251 -0.181757 -0.063108
-0.028434 -0.181757 -0.064080
-0.026616 -0.181757 -0.065053
-0.024214 -0.183280 -0.064913
-0.022398 -0.183280 -0.065884
-0.020583 -0.183280 -0.066856
-0.018767 -0.183280 -0.067828
-0.016376 -0.184800 -0.067684
-0.014562 -0.184800 -0.068655
-0.012748 -0.184800 -0.069626
-0.010935 -0.184800 -0.070596
-0.009121 -0.184800 -0.071567
-0.006743 -0.186317 -0.071420
-0.004931 -0.186317 -0.072389
-0.003119 -0.186317 -0.073359
-0.000750 -0.187830 -0.073210
0.001060 -0.187830 -0.074179
0.002869 -0.187830 -0.075147
0.004679 -0.187830 -0.076116
0.007038 -0.189341 -0.075964
0.008845 -0.189341 -0.076931
0.010108 -0.187830 -0.079022
0.012461 -0.189341 -0.078867
0.014269 -0.189341 -0.079834
0.016077 -0.189341 -0.080802
0.017884 -0.189341 -0.081769
0.020226 -0.190848 -0.081612
0.022032 -0.190848 -0.082578
0.023838 -0.190848 -0.083545
0.025644 -0.190848 -0.084511
0.027975 -0.192352 -0.084351
0.030301 -0.193852 -0.084190
0.032103 -0.193852 -0.085155
0.033905 -0.193852 -0.086119
0.035707 -0.193852 -0.087084
0.038022 -0.195350 -0.086921
0.039822 -0.195350 -0.087884
0.041622 -0.195350 -0.088848
0.043422 -0.195350 -0.089811
0.045222 -0.195350 -0.090775
0.047023 -0.195350 -0.091738
0.048823 -0.195350 -0.092702
0.050623 -0.195350 -0.093665
0.052423 -0.195350 -0.094629
0.054223 -0.195350 -0.095592
0.056023 -0.195350 -0.096556
0.057823 -0.195350 -0.097519
0.059623 -0.195350 -0.098482
0.061423 -0.195350 -0.099446
0.063223 -0.195350 -0.100409
0.065024 -0.195350 -0.101373
0.066824 -0.195350 -0.102336
0.068624 -0.195350 -0.103300
0.070424 -0.195350 -0.104263
0.072224 -0.195350 -0.105227
0.074024 -0.195350 -0.106190
0.075351 -0.193852 -0.108303
0.077153 -0.193852 -0.109267
0.078955 -0.193852 -0.110232
0.080289 -0.192352 -0.112351
0.082093 -0.192352 -0.113317
0.083432 -0.190848 -0.115441
0.085238 -0.190848 -0.116408
0.086582 -0.189341 -0.118538
0.088389 -0.189341 -0.119506
0.090197 -0.189341 -0.120474
0.091548 -0.187830 -0.122611
0.092443 -0.184800 -0.125928
0.094257 -0.184800 -0.126898
0.095616 -0.183280 -0.129049
0.096978 -0.181757 -0.131205
0.098343 -0.180230 -0.133365
0.099711 -0.178700 -0.135530
0.101082 -0.177167 -0.137699
0.102905 -0.177167 -0.138675
0.104281 -0.175631 -0.140850
0.105660 -0.174091 -0.143030
0.107041 -0.172548 -0.145215
0.108426 -0.171001 -0.147404
0.110258 -0.171001 -0.148385
0.111205 -0.167898 -0.151798
0.112599 -0.166341 -0.154001
0.114436 -0.166341 -0.154985
0.114955 -0.161651 -0.159655
0.116359 -0.160081 -0.161877
0.117327 -0.156930 -0.165346
0.118299 -0.153765 -0.168829
0.119275 -0.150586 -0.172329
0.120256 -0.147393 -0.175843
0.121241 -0.144186 -0.179374
0.122230 -0.140965 -0.182920
0.123224 -0.137730 -0.186481
0.123783 -0.132850 -0.191351
0.124786 -0.129578 -0.194951
0.125793 -0.126292 -0.198568
0.126805 -0.122990 -0.202200
0.128260 -0.121334 -0.204530
0.130155 -0.121334 -0.205544
0.131616 -0.119675 -0.207881
0.133513 -0.119675 -0.208896
0.135411 -0.119675 -0.209912
0.136879 -0.118011 -0.212255
0.138778 -0.118011 -0.213272
0.140252 -0.116344 -0.215622
0.142153 -0.116344 -0.216640
0.144055 -0.116344 -0.217657
0.145536 -0.114673 -0.220015
0.147440 -0.114673 -0.221034
0.149344 -0.114673 -0.222053
0.150832 -0.112998 -0.224418
0.152738 -0.112998 -0.225438
0.154233 -0.111319 -0.227810
0.156141 -0.111319 -0.228831
0.158049 -0.111319 -0.229853
0.159551 -0.109637 -0.232232
0.161461 -0.109637 -0.233255
0.163371 -0.109637 -0.234277
0.164881 -0.107950 -0.236664
0.166793 -0.107950 -0.237688
0.168309 -0.106260 -0.240081
0.170223 -0.106260 -0.241106
0.172138 -0.106260 -0.242131
0.173661 -0.104566 -0.244532
0.175578 -0.104566 -0.245558
0.177495 -0.104566 -0.246584
0.179026 -0.102869 -0.248994
0.180945 -0.102869 -0.250021
0.182863 -0.102869 -0.251048
0.184782 -0.102869 -0.252075
0.186701 -0.102869 -0.253102
0.188245 -0.101167 -0.255521
0.190166 -0.101167 -0.256549
0.192087 -0.101167 -0.257578
0.193638 -0.099462 -0.260005
0.195561 -0.099462 -0.261034
0.197118 -0.097752 -0.263469
0.199044 -0.097752 -0.264499
0.200969 -0.097752 -0.265530
0.202534 -0.096039 -0.267972
0.204462 -0.096039 -0.269003
0.206032 -0.094322 -0.271452
0.208317 -0.096039 -0.271067
0.210244 -0.096039 -0.272099
0.212172 -0.096039 -0.273130
0.213752 -0.094322 -0.275584
0.215682 -0.094322 -0.276617
0.217267 -0.092600 -0.279077
0.218856 -0.090875 -0.281543
0.220790 -0.090875 -0.282578
0.222385 -0.089146 -0.285051
0.223983 -0.087413 -0.287530
0.225586 -0.085676 -0.290014
0.227192 -0.083935 -0.292504
0.229135 -0.083935 -0.293544
0.230747 -0.082190 -0.296041
0.232362 -0.080441 -0.298543
0.234310 -0.080441 -0.299586
0.235931 -0.078688 -0.302096
0.237557 -0.076930 -0.304611
0.238862 -0.073404 -0.308612
0.240496 -0.071634 -0.311144
0.242134 -0.069861 -0.313681
0.243776 -0.068083 -0.316225
0.245104 -0.064515 -0.320276
0.246755 -0.062725 -0.322837
0.247459 -0.055522 -0.329959
0.248170 -0.048252 -0.337148
0.249207 -0.042753 -0.342852
0.250251 -0.037216 -0.348596
0.251303 -0.031639 -0.354381
0.249792 -0.010844 -0.373046
0.251507 -0.008926 -0.375759
0.253546 -0.008926 -0.376851
0.255586 -0.008926 -0.377943
0.257310 -0.007004 -0.380666
0.259352 -0.007004 -0.381758
0.261394 -0.007004 -0.382851
0.262817 -0.003145 -0.387227
0.264864 -0.003145 -0.388323
0.266911 -0.003145 -0.389418
0.268958 -0.003145 -0.390514
0.270704 -0.001208 -0.393262
0.272754 -0.001208 -0.394359
0.274803 -0.001208 -0.395456
0.276853 -0.001208 -0.396553
0.278611 0.000733 -0.399312
0.280663 0.000733 -0.400410
0.282715 0.000733 -0.401508
0.284767 0.000733 -0.402606
0.286819 0.000733 -0.403705
0.288591 0.002679 -0.406476
0.290922 0.000733 -0.405901
0.292974 0.000733 -0.407000
0.294754 0.002679 -0.409774
0.296809 0.002679 -0.410874
0.298863 0.002679 -0.411974
0.300918 0.002679 -0.413073
0.302709 0.004630 -0.415859
0.304766 0.004630 -0.416960
0.306823 0.004630 -0.418061
0.308880 0.004630 -0.419162
0.310684 0.006585 -0.421958
0.312743 0.006585 -0.423061
0.314803 0.006585 -0.424163
0.316862 0.006585 -0.425265
0.318922 0.006585 -0.426367
0.320740 0.008545 -0.429176
0.322802 0.008545 -0.430280
0.324864 0.008545 -0.431384
0.326691 0.010510 -0.434202
0.328756 0.010510 -0.435307
0.330820 0.010510 -0.436412
0.332658 0.012480 -0.439240
0.334725 0.012480 -0.440346
0.336792 0.012480 -0.441453
0.338638 0.014455 -0.444290
0.340490 0.016434 -0.447135
0.342346 0.018419 -0.449987
0.344420 0.018419 -0.451097
0.346283 0.020408 -0.453957
0.348151 0.022403 -0.456824
0.350023 0.024402 -0.459698
0.351900 0.026406 -0.462579
0.353781 0.028415 -0.465468
0.355667 0.030429 -0.468363
-0.371790 0.001357 -0.055195
-0.363292 -0.010238 -0.048860
-0.355966 -0.019774 -0.043831
-0.348728 -0.029195 -0.038862
-0.341576 -0.038504 -0.033953
-0.335516 -0.045873 -0.030281
-0.331513 -0.049531 -0.028990
-0.327529 -0.053172 -0.027705
-0.323564 -0.056796 -0.026426
-0.320599 -0.058601 -0.026318
-0.316664 -0.062200 -0.025047
-0.313718 -0.063992 -0.024941
-0.310779 -0.065781 -0.024835
-0.307847 -0.067566 -0.024730
-0.303964 -0.071122 -0.023470
-0.301050 -0.072894 -0.023366
-0.298143 -0.074662 -0.023263
-0.295242 -0.076426 -0.023160
-0.292348 -0.078186 -0.023057
-0.289461 -0.079942 -0.022954
-0.287511 -0.079942 -0.023998
-0.284633 -0.081694 -0.023894
-0.281761 -0.083441 -0.023791
-0.278896 -0.085185 -0.023688
-0.276038 -0.086925 -0.023585
-0.273186 -0.088660 -0.023482
-0.270341 -0.090392 -0.023380
-0.267502 -0.092119 -0.023278
-0.264670 -0.093843 -0.023176
-0.262738 -0.093843 -0.024210
-0.259914 -0.095563 -0.024107
-0.257097 -0.097279 -0.024005
-0.254286 -0.098991 -0.023902
-0.251482 -0.100699 -0.023800
-0.248684 -0.102403 -0.023698
-0.245893 -0.104103 -0.023596
-0.243974 -0.104103 -0.024624
-0.241191 -0.105799 -0.024521
-0.238414 -0.107492 -0.024418
-0.235644 -0.109181 -0.024316
-0.232879 -0.110865 -0.024214
-0.230969 -0.110865 -0.025237
-0.228214 -0.112546 -0.025134
-0.225464 -0.114224 -0.025031
-0.223558 -0.114224 -0.026051
-0.220817 -0.115897 -0.025948
-0.218082 -0.117567 -0.025845
-0.215353 -0.119233 -0.025742
-0.213454 -0.119233 -0.026758
-0.210733 -0.120895 -0.026654
-0.208836 -0.120895 -0.027670
-0.206124 -0.122554 -0.027565
-0.203418 -0.124208 -0.027460
-0.201525 -0.124208 -0.028473
-0.198827 -0.125859 -0.028368
-0.196135 -0.127507 -0.028262
-0.193449 -0.129150 -0.028157
-0.191562 -0.129150 -0.029167
-0.188884 -0.130790 -0.029061
-0.187000 -0.130790 -0.030070
-0.184330 -0.132426 -0.029963
-0.181666 -0.134059 -0.029856
-0.179786 -0.134059 -0.030863
-0.177130 -0.135688 -0.030755
-0.174480 -0.137313 -0.030648
-0.172604 -0.137313 -0.031652
-0.169962 -0.138935 -0.031544
-0.167326 -0.140553 -0.031436
-0.164696 -0.142168 -0.031328
-0.162826 -0.142168 -0.032329
-0.160204 -0.143779 -0.032221
-0.158336 -0.143779 -0.033221
-0.155722 -0.145386 -0.033111
-0.153113 -0.146990 -0.033002
-0.151249 -0.146990 -0.033999
-0.148649 -0.148591 -0.033889
-0.146787 -0.148591 -0.034886
-0.144194 -0.150188 -0.034775
-0.142334 -0.150188 -0.035770
-0.139749 -0.151781 -0.035659
-0.137891 -0.151781 -0.036653
-0.135314 -0.153371 -0.036540
-0.133458 -0.153371 -0.037533
-0.130889 -0.154957 -0.037420
-0.129035 -0.154957 -0.038412
-0.126473 -0.156540 -0.038298
-0.123916 -0.158119 -0.038184
-0.122067 -0.158119 -0.039174
-0.119518 -0.159695 -0.039059
-0.117671 -0.159695 -0.040048
-0.115129 -0.161268 -0.039932
-0.113284 -0.161268 -0.040920
-0.110750 -0.162837 -0.040803
-0.108907 -0.162837 -0.041790
-0.105699 -0.165964 -0.040571
-0.103860 -0.165964 -0.041555
-0.101345 -0.167523 -0.041439
-0.099508 -0.167523 -0.042422
-0.097670 -0.167523 -0.043405
-0.095164 -0.169078 -0.043287
-0.093329 -0.169078 -0.044269
-0.091494 -0.169078 -0.045251
-0.088998 -0.170630 -0.045131
-0.086507 -0.172179 -0.045010
-0.084675 -0.172179 -0.045991
-0.082844 -0.172179 -0.046971
-0.080362 -0.173724 -0.046849
-0.078533 -0.173724 -0.047828
-0.076704 -0.173724 -0.048807
-0.074232 -0.175266 -0.048683
-0.072404 -0.175266 -0.049661
-0.070577 -0.175266 -0.050639
-0.068114 -0.176805 -0.050513
-0.066289 -0.176805 -0.051490
-0.064463 -0.176805 -0.052467
-0.062638 -0.176805 -0.053444
-0.060812 -0.176805 -0.054421
-0.058987 -0.176805 -0.055398
-0.056539 -0.178340 -0.055267
-0.054716 -0.178340 -0.056243
-0.052892 -0.178340 -0.057219
-0.051069 -0.178340 -0.058195
-0.048632 -0.179872 -0.058062
-0.046811 -0.179872 -0.059037
-0.044989 -0.179872 -0.060011
-0.043168 -0.179872 -0.060986
-0.040743 -0.181401 -0.060850
-0.038923 -0.181401 -0.061824
-0.037104 -0.181401 -0.062797
-0.035284 -0.181401 -0.063771
-0.032870 -0.182926 -0.063632
-0.031052 -0.182926 -0.064605
-0.029235 -0.182926 -0.065577
-0.027417 -0.182926 -0.066550
-0.025014 -0.184448 -0.066408
-0.023199 -0.184448 -0.067380
-0.021383 -0.184448 -0.068351
-0.019567 -0.184448 -0.069323
-0.017175 -0.185967 -0.069178
-0.015362 -0.185967 -0.070149
-0.013548 -0.185967 -0.071119
-0.011734 -0.185967 -0.072090
-0.009921 -0.185967 -0.073061
-0.007542 -0.187482 -0.072912
-0.005730 -0.187482 -0.073882
-0.003918 -0.187482 -0.074851
-0.001548 -0.188995 -0.074700
0.000262 -0.188995 -0.075669
0.002072 -0.188995 -0.076638
0.003881 -0.188995 -0.077606
0.006241 -0.190504 -0.077453
0.007501 -0.188995 -0.079544
0.009311 -0.188995 -0.080512
0.011664 -0.190504 -0.080356
0.013472 -0.190504 -0.081323
0.015280 -0.190504 -0.082291
0.017087 -0.190504 -0.083258
0.019430 -0.192009 -0.083099
0.021236 -0.192009 -0.084066
0.023042 -0.192009 -0.085032
0.025376 -0.193512 -0.084871
0.027180 -0.193512 -0.085836
0.029506 -0.195011 -0.085675
0.031308 -0.195011 -0.086639
0.033110 -0.195011 -0.087604
0.034912 -0.195011 -0.088568
0.037228 -0.196508 -0.088403
0.039029 -0.196508 -0.089367
0.040829 -0.196508 -0.090330
0.042629 -0.196508 -0.091294
0.044429 -0.196508 -0.092257
0.046229 -0.196508 -0.093221
0.048029 -0.196508 -0.094184
0.049829 -0.196508 -0.095148
0.051629 -0.196508 -0.096111
0.053429 -0.196508 -0.097075
0.055229 -0.196508 -0.098038
0.057030 -0.196508 -0.099002
0.058830 -0.196508 -0.099965
0.060630 -0.196508 -0.100929
0.062430 -0.196508 -0.101892
0.064230 -0.196508 -0.102856
0.066030 -0.196508 -0.103819
0.067830 -0.196508 -0.104782
0.069630 -0.196508 -0.105746
0.071430 -0.196508 -0.106709
0.073230 -0.196508 -0.107673
0.074557 -0.195011 -0.109787
0.076359 -0.195011 -0.110752
0.078161 -0.195011 -0.111716
0.079494 -0.193512 -0.113837
0.081298 -0.193512 -0.114802
0.082636 -0.192009 -0.116929
0.084442 -0.192009 -0.117895
0.085785 -0.190504 -0.120027
0.087592 -0.190504 -0.120995
0.089400 -0.190504 -0.121963
0.090750 -0.188995 -0.124101
0.091644 -0.185967 -0.127422
0.093457 -0.185967 -0.128392
0.094816 -0.184448 -0.130545
0.096177 -0.182926 -0.132702
0.097541 -0.181401 -0.134864
0.098908 -0.179872 -0.137030
0.100278 -0.178340 -0.139201
0.102101 -0.178340 -0.140177
0.103476 -0.176805 -0.142354
0.104854 -0.175266 -0.144535
0.106235 -0.173724 -0.146722
0.107619 -0.172179 -0.148913
0.109450 -0.172179 -0.149893
0.110839 -0.170630 -0.152090
0.111789 -0.167523 -0.155515
0.113626 -0.167523 -0.156498
0.114142 -0.162837 -0.161173
0.115545 -0.161268 -0.163397
0.116512 -0.158119 -0.166869
0.117482 -0.154957 -0.170356
0.118456 -0.151781 -0.173859
0.119435 -0.148591 -0.177377
