ply
format ascii 1.0
element vertex 1750
property float x
property float y
property float z
end_header
0.270379 0.017997 0.296346
0.271678 0.018014 0.294333
0.272980 0.018031 0.292316
0.274283 0.018048 0.290295
0.275590 0.018066 0.288270
0.276898 0.018083 0.286241
0.278209 0.018100 0.284209
0.279523 0.018117 0.282173
0.280839 0.018135 0.280133
0.285319 0.017997 0.290909
0.288016 0.017946 0.294532
0.290357 0.017912 0.296736
0.292689 0.017878 0.298932
0.294676 0.017861 0.299727
0.296994 0.017827 0.301912
0.298972 0.017810 0.302702
0.300945 0.017794 0.303490
0.303243 0.017760 0.305660
0.305208 0.017743 0.306444
0.307169 0.017727 0.307226
0.309447 0.017694 0.309381
0.311399 0.017677 0.310159
0.313664 0.017644 0.312303
0.315606 0.017627 0.313076
0.317546 0.017611 0.313847
0.319171 0.017611 0.313255
0.321105 0.017595 0.314026
0.323036 0.017578 0.314795
0.324658 0.017578 0.314205
0.326584 0.017562 0.314973
0.328205 0.017562 0.314383
0.330126 0.017546 0.315151
0.332043 0.017529 0.315917
0.333661 0.017529 0.315328
0.335574 0.017513 0.316093
0.337190 0.017513 0.315505
0.339388 0.017481 0.317620
0.341002 0.017481 0.317032
0.342616 0.017481 0.316445
0.344515 0.017464 0.317207
0.346128 0.017464 0.316620
0.348022 0.017448 0.317382
0.349633 0.017448 0.316795
0.351244 0.017448 0.316209
0.353132 0.017432 0.316970
0.354741 0.017432 0.316384
0.356351 0.017432 0.315799
0.357960 0.017432 0.315213
0.359841 0.017416 0.315974
0.361448 0.017416 0.315389
0.363056 0.017416 0.314804
0.364664 0.017416 0.314218
0.366537 0.017400 0.314980
0.368144 0.017400 0.314395
0.369750 0.017400 0.313810
0.371357 0.017400 0.313226
0.372963 0.017400 0.312641
0.374570 0.017400 0.312056
0.376432 0.017384 0.312819
0.378037 0.017384 0.312235
0.379642 0.017384 0.311651
0.381499 0.017368 0.312413
0.383102 0.017368 0.311829
0.384706 0.017368 0.311246
0.386063 0.017384 0.309314
0.387668 0.017384 0.308730
0.389273 0.017384 0.308145
0.390878 0.017384 0.307561
0.392483 0.017384 0.306977
0.394088 0.017384 0.306393
0.395694 0.017384 0.305809
0.397062 0.017400 0.303870
0.398668 0.017400 0.303285
0.400275 0.017400 0.302701
0.401648 0.017416 0.300757
0.403256 0.017416 0.300172
0.404633 0.017432 0.298225
0.406243 0.017432 0.297639
0.407624 0.017448 0.295688
0.409235 0.017448 0.295102
0.410620 0.017464 0.293147
0.412232 0.017464 0.292560
0.413621 0.017481 0.290601
0.415235 0.017481 0.290014
0.416628 0.017497 0.288051
0.418023 0.017513 0.286084
0.419421 0.017529 0.284114
0.421039 0.017529 0.283525
0.422225 0.017562 0.280163
0.423198 0.017611 0.275393
0.424393 0.017644 0.272000
0.425592 0.017677 0.268596
0.426581 0.017727 0.263764
0.427361 0.017794 0.257479
0.428575 0.017827 0.254020
0.429580 0.017878 0.249108
0.430591 0.017929 0.244169
0.431607 0.017980 0.239202
0.432842 0.018014 0.235674
0.433869 0.018066 0.230661
0.434902 0.018117 0.225620
0.436152 0.018152 0.222040
0.437197 0.018205 0.216951
0.438247 0.018257 0.211834
0.439512 0.018293 0.208202
0.440574 0.018346 0.203035
0.441642 0.018399 0.197840
0.442923 0.018435 0.194154
0.444003 0.018489 0.188908
0.445088 0.018543 0.183633
0.446180 0.018598 0.178327
0.447278 0.018653 0.172992
0.448587 0.018690 0.169208
0.449288 0.018782 0.160631
0.449995 0.018876 0.151971
0.450915 0.018951 0.144856
0.451636 0.019046 0.136043
0.453186 0.019065 0.133758
0.454535 0.019104 0.129817
0.456092 0.019123 0.127520
0.457047 0.019200 0.120217
0.458011 0.019278 0.112857
0.458981 0.019357 0.105438
0.459353 0.019496 0.092803
0.459934 0.019617 0.081737
0.460317 0.019760 0.068767
0.445687 0.021426 -0.075704
0.447183 0.021475 -0.080580
0.448449 0.021547 -0.087575
0.449017 0.021694 -0.100979
0.449355 0.021868 -0.116722
0.449938 0.022019 -0.130518
-0.353074 0.021613 -0.011417
-0.337467 0.021319 0.012047
-0.325788 0.021111 0.028513
-0.316643 0.020957 0.040464
-0.309912 0.020856 0.048080
-0.306653 0.020830 0.049396
-0.302268 0.020780 0.052786
-0.297903 0.020730 0.056160
-0.293559 0.020681 0.059518
-0.289235 0.020631 0.062861
-0.284931 0.020582 0.066188
-0.280647 0.020533 0.069500
-0.276383 0.020484 0.072796
-0.272138 0.020435 0.076077
-0.268987 0.020411 0.077335
-0.264774 0.020363 0.080594
-0.260581 0.020315 0.083838
-0.255355 0.020243 0.089051
-0.252251 0.020220 0.090282
-0.248115 0.020172 0.093482
-0.243998 0.020125 0.096668
-0.239899 0.020078 0.099839
-0.236838 0.020055 0.101048
-0.233783 0.020031 0.102255
-0.229726 0.019985 0.105399
-0.226690 0.019962 0.106596
-0.223661 0.019939 0.107791
-0.220638 0.019915 0.108983
-0.217623 0.019892 0.110172
-0.214614 0.019869 0.111359
-0.211612 0.019847 0.112543
-0.208616 0.019824 0.113725
-0.205628 0.019801 0.114903
-0.202646 0.019778 0.116079
-0.200635 0.019778 0.115347
-0.197662 0.019755 0.116522
-0.194695 0.019733 0.117693
-0.191735 0.019710 0.118863
-0.188782 0.019688 0.120029
-0.185835 0.019665 0.121193
-0.182895 0.019643 0.122354
-0.179961 0.019620 0.123513
-0.177966 0.019620 0.122787
-0.175041 0.019598 0.123944
-0.172123 0.019575 0.125098
-0.169211 0.019553 0.126250
-0.166305 0.019531 0.127399
-0.164319 0.019531 0.126676
-0.161422 0.019509 0.127824
-0.159438 0.019509 0.127101
-0.156549 0.019487 0.128247
-0.154567 0.019487 0.127526
-0.151688 0.019465 0.128670
-0.149708 0.019465 0.127949
-0.146836 0.019443 0.129092
-0.144859 0.019443 0.128372
-0.141996 0.019421 0.129513
-0.140020 0.019421 0.128793
-0.137166 0.019399 0.129932
-0.134318 0.019377 0.131069
-0.132347 0.019377 0.130351
-0.130375 0.019377 0.129634
-0.127538 0.019355 0.130769
-0.125569 0.019355 0.130053
-0.123600 0.019355 0.129336
-0.121631 0.019355 0.128619
-0.118806 0.019333 0.129755
-0.116839 0.019333 0.129039
-0.114872 0.019333 0.128323
-0.112058 0.019311 0.129457
-0.110093 0.019311 0.128742
-0.108128 0.019311 0.128027
-0.106164 0.019311 0.127312
-0.102527 0.019268 0.130292
-0.100566 0.019268 0.129578
-0.098606 0.019268 0.128865
-0.095818 0.019247 0.129995
-0.093860 0.019247 0.129282
-0.091081 0.019225 0.130411
-0.089124 0.019225 0.129699
-0.087168 0.019225 0.128987
-0.085212 0.019225 0.128275
-0.082445 0.019204 0.129403
-0.080491 0.019204 0.128692
-0.078537 0.019204 0.127981
-0.075781 0.019182 0.129108
-0.073829 0.019182 0.128398
-0.071877 0.019182 0.127687
-0.069925 0.019182 0.126977
-0.067180 0.019161 0.128104
-0.065231 0.019161 0.127394
-0.063281 0.019161 0.126685
-0.060547 0.019139 0.127811
-0.059381 0.019161 0.125265
-0.056651 0.019139 0.126393
-0.054704 0.019139 0.125684
-0.052756 0.019139 0.124975
-0.050808 0.019139 0.124267
-0.048091 0.019118 0.125394
-0.046145 0.019118 0.124686
-0.044199 0.019118 0.123978
-0.041492 0.019097 0.125105
-0.039548 0.019097 0.124398
-0.037605 0.019097 0.123690
-0.035661 0.019097 0.122983
-0.032966 0.019076 0.124109
-0.031025 0.019076 0.123403
-0.029083 0.019076 0.122696
-0.026398 0.019054 0.123822
-0.025200 0.019076 0.121283
-0.022519 0.019054 0.122410
-0.020580 0.019054 0.121705
-0.018641 0.019054 0.120999
-0.016701 0.019054 0.120293
-0.014032 0.019033 0.121420
-0.012095 0.019033 0.120715
-0.010158 0.019033 0.120010
-0.007498 0.019012 0.121136
-0.005563 0.019012 0.120432
-0.003628 0.019012 0.119728
-0.001693 0.019012 0.119023
0.000954 0.018991 0.120149
0.002887 0.018991 0.119446
0.004820 0.018991 0.118742
0.084458 0.016676 0.319772
0.088881 0.016594 0.326234
0.093796 0.016498 0.334032
0.098130 0.016418 0.340361
0.102424 0.016339 0.346632
0.107192 0.016246 0.354201
0.111400 0.016169 0.360345
0.115570 0.016092 0.366432
0.120690 0.015986 0.375099
0.124773 0.015911 0.381053
0.128818 0.015837 0.386954
0.130439 0.015837 0.386364
0.132538 0.015822 0.387067
0.135108 0.015793 0.389057
0.137197 0.015778 0.389755
0.139283 0.015763 0.390452
0.141364 0.015749 0.391148
0.142977 0.015749 0.390561
0.144589 0.015749 0.389974
0.146201 0.015749 0.389388
0.147814 0.015749 0.388801
0.149426 0.015749 0.388214
0.151038 0.015749 0.387627
0.152651 0.015749 0.387040
0.154718 0.015734 0.387739
0.156329 0.015734 0.387152
0.157940 0.015734 0.386566
0.159551 0.015734 0.385980
0.161162 0.015734 0.385393
0.162773 0.015734 0.384807
0.164384 0.015734 0.384221
0.165994 0.015734 0.383634
0.167605 0.015734 0.383048
0.169216 0.015734 0.382462
0.170827 0.015734 0.381875
0.172438 0.015734 0.381289
0.174049 0.015734 0.380703
0.175660 0.015734 0.380117
0.177270 0.015734 0.379530
0.178447 0.015749 0.377651
0.180060 0.015749 0.377064
0.181672 0.015749 0.376477
0.183284 0.015749 0.375890
0.185325 0.015734 0.376599
0.186936 0.015734 0.376012
0.188546 0.015734 0.375426
0.190157 0.015734 0.374840
0.191768 0.015734 0.374253
0.193379 0.015734 0.373667
0.194571 0.015749 0.371783
0.196183 0.015749 0.371196
0.197378 0.015763 0.369307
0.198992 0.015763 0.368720
0.200605 0.015763 0.368133
0.201806 0.015778 0.366240
0.203421 0.015778 0.365652
0.205036 0.015778 0.365064
0.206241 0.015793 0.363166
0.207858 0.015793 0.362578
0.209067 0.015807 0.360677
0.210685 0.015807 0.360088
0.212303 0.015807 0.359499
0.213517 0.015822 0.357593
0.215136 0.015822 0.357003
0.216354 0.015837 0.355094
0.217975 0.015837 0.354504
0.219596 0.015837 0.353914
0.220420 0.015866 0.350673
0.222044 0.015866 0.350082
0.223271 0.015881 0.348160
0.224896 0.015881 0.347569
0.226522 0.015881 0.346977
0.227754 0.015896 0.345051
0.229381 0.015896 0.344459
0.231008 0.015896 0.343867
0.232245 0.015911 0.341937
0.233485 0.015926 0.340003
0.235115 0.015926 0.339410
0.236358 0.015941 0.337472
0.237989 0.015941 0.336878
0.239237 0.015956 0.334936
0.240486 0.015971 0.332990
0.241738 0.015986 0.331041
0.242992 0.016001 0.329089
0.244629 0.016001 0.328493
0.245887 0.016016 0.326536
0.246767 0.016046 0.323210
0.248409 0.016046 0.322612
0.249674 0.016062 0.320645
0.251317 0.016062 0.320047
0.252586 0.016077 0.318075
0.253856 0.016092 0.316100
0.255503 0.016092 0.315501
0.256777 0.016107 0.313521
0.258054 0.016123 0.311538
0.259334 0.016138 0.309552
0.260615 0.016153 0.307561
0.261899 0.016169 0.305567
0.263186 0.016184 0.303570
0.264841 0.016184 0.302967
0.266132 0.016199 0.300965
0.267424 0.016215 0.298960
0.268719 0.016230 0.296951
0.270017 0.016246 0.294938
0.271317 0.016261 0.292921
0.272619 0.016277 0.290900
0.273924 0.016292 0.288876
0.275231 0.016308 0.286848
0.276540 0.016324 0.284817
0.277852 0.016339 0.282781
0.279167 0.016355 0.280742
0.280483 0.016371 0.278699
0.284970 0.016246 0.289495
0.288016 0.016184 0.294532
0.290357 0.016153 0.296736
0.292350 0.016138 0.297535
0.294676 0.016107 0.299727
0.296994 0.016077 0.301912
0.298972 0.016062 0.302702
0.300945 0.016046 0.303490
0.303243 0.016016 0.305660
0.305208 0.016001 0.306444
0.307169 0.015986 0.307226
0.309126 0.015971 0.308007
0.311399 0.015941 0.310159
0.313664 0.015911 0.312303
0.315606 0.015896 0.313076
0.317546 0.015881 0.313847
0.319481 0.015866 0.314617
0.321105 0.015866 0.314026
0.323036 0.015852 0.314795
0.324963 0.015837 0.315563
0.326584 0.015837 0.314973
0.328506 0.015822 0.315740
0.330126 0.015822 0.315151
0.332043 0.015807 0.315917
0.333661 0.015807 0.315328
0.335574 0.015793 0.316093
0.337483 0.015778 0.316857
0.339388 0.015763 0.317620
0.341002 0.015763 0.317032
0.342903 0.015749 0.317794
0.344515 0.015749 0.317207
0.346128 0.015749 0.316620
0.348022 0.015734 0.317382
0.349633 0.015734 0.316795
0.351522 0.015719 0.317556
0.353132 0.015719 0.316970
0.354741 0.015719 0.316384
0.356351 0.015719 0.315799
0.357960 0.015719 0.315213
0.359841 0.015705 0.315974
0.361448 0.015705 0.315389
0.363056 0.015705 0.314804
0.364931 0.015690 0.315565
0.366537 0.015690 0.314980
0.368144 0.015690 0.314395
0.369750 0.015690 0.313810
0.371357 0.015690 0.313226
0.373222 0.015676 0.313988
0.374827 0.015676 0.313403
0.376432 0.015676 0.312819
0.378037 0.015676 0.312235
0.379895 0.015661 0.312997
0.381499 0.015661 0.312413
0.383102 0.015661 0.311829
0.384706 0.015661 0.311246
0.386063 0.015676 0.309314
0.387668 0.015676 0.308730
0.389273 0.015676 0.308145
0.390878 0.015676 0.307561
0.392483 0.015676 0.306977
0.394088 0.015676 0.306393
0.395694 0.015676 0.305809
0.397062 0.015690 0.303870
0.398668 0.015690 0.303285
0.400275 0.015690 0.302701
0.401881 0.015690 0.302116
0.403256 0.015705 0.300172
0.404633 0.015719 0.298225
0.406243 0.015719 0.297639
0.407624 0.015734 0.295688
0.409235 0.015734 0.295102
0.410620 0.015749 0.293147
0.412007 0.015763 0.291188
0.413621 0.015763 0.290601
0.415013 0.015778 0.288639
0.416628 0.015778 0.288051
0.418023 0.015793 0.286084
0.419421 0.015807 0.284114
0.420604 0.015837 0.280753
0.421791 0.015866 0.277380
0.422765 0.015911 0.272593
0.424177 0.015926 0.270596
0.425161 0.015971 0.265774
0.426151 0.016016 0.260925
0.426930 0.016077 0.254619
0.428146 0.016107 0.251148
0.429152 0.016153 0.246219
0.430163 0.016199 0.241263
0.431394 0.016230 0.237742
0.432417 0.016277 0.232739
0.433445 0.016324 0.227708
0.434691 0.016355 0.224136
0.435730 0.016402 0.219058
0.436775 0.016450 0.213951
0.438037 0.016482 0.210326
0.439093 0.016530 0.205171
0.440155 0.016578 0.199986
0.441224 0.016627 0.194772
0.442507 0.016659 0.191073
0.443587 0.016708 0.185809
0.444674 0.016758 0.180515
0.445766 0.016807 0.175190
0.446865 0.016857 0.169835
0.447558 0.016941 0.161261
0.448463 0.017009 0.154216
0.449169 0.017094 0.145491
0.449882 0.017180 0.136681
0.451430 0.017197 0.134397
0.452776 0.017232 0.130457
0.454331 0.017249 0.128161
0.455687 0.017284 0.124197
0.456439 0.017372 0.115186
0.457403 0.017443 0.107784
0.457967 0.017551 0.096896
0.458539 0.017660 0.085877
0.459117 0.017770 0.074725
0.443959 0.019311 -0.072916
0.445211 0.019377 -0.079863
0.446709 0.019421 -0.084759
0.447977 0.019487 -0.091782
0.448306 0.019643 -0.107384
0.448878 0.019778 -0.121056
0.449219 0.019939 -0.137117
-0.359305 0.019401 -0.022656
-0.341090 0.019088 0.005494
-0.328150 0.018877 0.024231
-0.318966 0.018739 0.036240
-0.311059 0.018625 0.045990
-0.306653 0.018580 0.049396
-0.302268 0.018535 0.052786
-0.297903 0.018490 0.056160
-0.294677 0.018468 0.057458
-0.290345 0.018423 0.060810
-0.286034 0.018379 0.064145
-0.281742 0.018335 0.067466
-0.277471 0.018292 0.070771
-0.273219 0.018248 0.074060
-0.268987 0.018205 0.077335
-0.264774 0.018161 0.080594
-0.261642 0.018140 0.081842
-0.256406 0.018076 0.087068
-0.252251 0.018033 0.090282
-0.249155 0.018012 0.091511
-0.245031 0.017970 0.094704
-0.240925 0.017928 0.097884
-0.236838 0.017886 0.101048
-0.233783 0.017865 0.102255
-0.230736 0.017844 0.103458
-0.227695 0.017823 0.104659
-0.224661 0.017802 0.105858
-0.221634 0.017782 0.107053
-0.218614 0.017761 0.108246
-0.215601 0.017740 0.109436
-0.212594 0.017720 0.110624
-0.209594 0.017699 0.111809
-0.206601 0.017679 0.112991
-0.203614 0.017659 0.114171
-0.201601 0.017659 0.113438
-0.198624 0.017638 0.114616
-0.195653 0.017618 0.115791
-0.192689 0.017598 0.116963
-0.189731 0.017577 0.118133
-0.186780 0.017557 0.119300
-0.183836 0.017537 0.120465
-0.180898 0.017517 0.121627
-0.177966 0.017497 0.122787
-0.175041 0.017477 0.123944
-0.173048 0.017477 0.123218
-0.170132 0.017457 0.124373
-0.167222 0.017437 0.125526
-0.164319 0.017417 0.126676
-0.162332 0.017417 0.125953
-0.159438 0.017397 0.127101
-0.157454 0.017397 0.126379
-0.154567 0.017377 0.127526
-0.152585 0.017377 0.126804
-0.149708 0.017358 0.127949
-0.147728 0.017358 0.127229
-0.144859 0.017338 0.128372
-0.142881 0.017338 0.127652
-0.140020 0.017318 0.128793
-0.138045 0.017318 0.128074
-0.135193 0.017299 0.129214
-0.132347 0.017279 0.130351
-0.130375 0.017279 0.129634
-0.128404 0.017279 0.128916
-0.125569 0.017260 0.130053
-0.123600 0.017260 0.129336
-0.121631 0.017260 0.128619
-0.119662 0.017260 0.127903
-0.116839 0.017240 0.129039
-0.114872 0.017240 0.128323
-0.112905 0.017240 0.127607
-0.110093 0.017221 0.128742
-0.108128 0.017221 0.128027
-0.106164 0.017221 0.127312
-0.104199 0.017221 0.126597
-0.100566 0.017182 0.129578
-0.098606 0.017182 0.128865
-0.096645 0.017182 0.128151
-0.093860 0.017163 0.129282
-0.091902 0.017163 0.128569
-0.089124 0.017143 0.129699
-0.087168 0.017143 0.128987
-0.085212 0.017143 0.128275
-0.083256 0.017143 0.127563
-0.080491 0.017124 0.128692
-0.078537 0.017124 0.127981
-0.076583 0.017124 0.127269
-0.073829 0.017105 0.128398
-0.071877 0.017105 0.127687
-0.069925 0.017105 0.126977
-0.067973 0.017105 0.126266
-0.065231 0.017086 0.127394
-0.063281 0.017086 0.126685
-0.061331 0.017086 0.125975
-0.059381 0.017086 0.125265
-0.057431 0.017086 0.124556
-0.054704 0.017067 0.125684
-0.052756 0.017067 0.124975
-0.050808 0.017067 0.124267
-0.048861 0.017067 0.123558
-0.046145 0.017048 0.124686
-0.044199 0.017048 0.123978
-0.042254 0.017048 0.123270
-0.039548 0.017029 0.124398
-0.037605 0.017029 0.123690
-0.035661 0.017029 0.122983
-0.033718 0.017029 0.122275
-0.031025 0.017010 0.123403
-0.029083 0.017010 0.122696
-0.027142 0.017010 0.121990
-0.025200 0.017010 0.121283
-0.023259 0.017010 0.120576
-0.020580 0.016991 0.121705
-0.018641 0.016991 0.120999
-0.016701 0.016991 0.120293
-0.014762 0.016991 0.119587
-0.012095 0.016972 0.120715
-0.010158 0.016972 0.120010
-0.008221 0.016972 0.119305
-0.005563 0.016953 0.120432
-0.003628 0.016953 0.119728
-0.001693 0.016953 0.119023
0.000242 0.016953 0.118319
0.080498 0.014877 0.319589
0.084944 0.014804 0.326059
0.089886 0.014718 0.333865
0.094773 0.014632 0.341583
0.099082 0.014561 0.347848
0.103352 0.014492 0.354055
0.108092 0.014409 0.361549
0.112278 0.014340 0.367630
0.116922 0.014259 0.374974
0.121516 0.014178 0.382239
0.125576 0.014112 0.388134
0.127680 0.014099 0.388835
0.129779 0.014085 0.389535
0.131875 0.014072 0.390234
0.133967 0.014059 0.390931
0.136055 0.014046 0.391627
0.138140 0.014033 0.392322
0.140221 0.014020 0.393015
0.141831 0.014020 0.392429
0.143442 0.014020 0.391843
0.145053 0.014020 0.391256
0.146664 0.014020 0.390670
0.148275 0.014020 0.390084
0.149886 0.014020 0.389497
0.151497 0.014020 0.388911
0.153107 0.014020 0.388325
0.155173 0.014007 0.389021
0.156782 0.014007 0.388436
0.158392 0.014007 0.387850
0.160001 0.014007 0.387264
0.161162 0.014020 0.385393
0.162773 0.014020 0.384807
0.164384 0.014020 0.384221
0.165994 0.014020 0.383634
0.167605 0.014020 0.383048
0.169658 0.014007 0.383749
0.170827 0.014020 0.381875
0.172438 0.014020 0.381289
0.174049 0.014020 0.380703
0.175660 0.014020 0.380117
0.177270 0.014020 0.379530
0.178881 0.014020 0.378944
0.180492 0.014020 0.378358
0.182103 0.014020 0.377771
0.183714 0.014020 0.377185
0.185325 0.014020 0.376599
0.187361 0.014007 0.377306
0.189394 0.013994 0.378011
0.190580 0.014007 0.376134
0.191768 0.014020 0.374253
0.193379 0.014020 0.373667
0.194571 0.014033 0.371783
0.196183 0.014033 0.371196
0.197378 0.014046 0.369307
0.198992 0.014046 0.368720
0.200605 0.014046 0.368133
0.201806 0.014059 0.366240
0.203421 0.014059 0.365652
0.205036 0.014059 0.365064
0.206241 0.014072 0.363166
0.207858 0.014072 0.362578
0.209067 0.014085 0.360677
0.210685 0.014085 0.360088
0.212303 0.014085 0.359499
0.213517 0.014099 0.357593
0.215136 0.014099 0.357003
0.216354 0.014112 0.355094
0.217975 0.014112 0.354504
0.219196 0.014125 0.352590
0.220420 0.014138 0.350673
0.222044 0.014138 0.350082
0.223668 0.014138 0.349490
0.224896 0.014152 0.347569
0.226522 0.014152 0.346977
0.227754 0.014165 0.345051
0.229381 0.014165 0.344459
0.230617 0.014178 0.342529
0.232245 0.014178 0.341937
0.233485 0.014192 0.340003
0.235115 0.014192 0.339410
0.236358 0.014205 0.337472
0.237604 0.014218 0.335530
0.239237 0.014218 0.334936
0.240102 0.014245 0.331637
0.241738 0.014245 0.331041
0.242992 0.014259 0.329089
0.244248 0.014272 0.327133
0.245887 0.014272 0.326536
0.246767 0.014299 0.323210
0.248409 0.014299 0.322612
0.249674 0.014313 0.320645
0.251317 0.014313 0.320047
0.252586 0.014326 0.318075
0.253856 0.014340 0.316100
0.255130 0.014354 0.314121
0.256405 0.014367 0.312139
0.257683 0.014381 0.310152
0.258963 0.014395 0.308163
0.260246 0.014409 0.306169
0.261530 0.014422 0.304172
0.263186 0.014422 0.303570
0.264475 0.014436 0.301568
0.265766 0.014450 0.299563
0.267059 0.014464 0.297555
0.268355 0.014478 0.295542
0.269654 0.014492 0.293526
0.270954 0.014506 0.291506
0.272258 0.014519 0.289483
0.273563 0.014533 0.287455
0.274871 0.014547 0.285424
0.276181 0.014561 0.283389
0.277494 0.014576 0.281351
0.278810 0.014590 0.279308
0.280127 0.014604 0.277262
0.282864 0.014561 0.280957
0.287671 0.014436 0.293126
0.290015 0.014409 0.295334
0.292350 0.014381 0.297535
0.294676 0.014354 0.299727
0.296994 0.014326 0.301912
0.298972 0.014313 0.302702
0.300945 0.014299 0.303490
0.303243 0.014272 0.305660
0.305208 0.014259 0.306444
0.307169 0.014245 0.307226
0.309126 0.014232 0.308007
0.311399 0.014205 0.310159
0.313664 0.014178 0.312303
0.315606 0.014165 0.313076
0.317546 0.014152 0.313847
0.319481 0.014138 0.314617
0.321105 0.014138 0.314026
0.323036 0.014125 0.314795
0.324963 0.014112 0.315563
0.326584 0.014112 0.314973
0.328506 0.014099 0.315740
0.330126 0.014099 0.315151
0.332043 0.014085 0.315917
0.333957 0.014072 0.316682
0.335574 0.014072 0.316093
0.337483 0.014059 0.316857
0.339388 0.014046 0.317620
0.341002 0.014046 0.317032
0.342903 0.014033 0.317794
0.344515 0.014033 0.317207
0.346411 0.014020 0.317968
0.348022 0.014020 0.317382
0.349633 0.014020 0.316795
0.351522 0.014007 0.317556
0.353132 0.014007 0.316970
0.355017 0.013994 0.317730
0.356351 0.014007 0.315799
0.358233 0.013994 0.316559
0.359841 0.013994 0.315974
0.361448 0.013994 0.315389
0.363056 0.013994 0.314804
0.364931 0.013981 0.315565
0.366537 0.013981 0.314980
0.368144 0.013981 0.314395
0.369750 0.013981 0.313810
0.371617 0.013968 0.314572
0.373222 0.013968 0.313988
0.374827 0.013968 0.313403
0.376687 0.013955 0.314164
0.378291 0.013955 0.313580
0.379895 0.013955 0.312997
0.381499 0.013955 0.312413
0.383102 0.013955 0.311829
0.384706 0.013955 0.311246
0.386310 0.013955 0.310662
0.387668 0.013968 0.308730
0.389273 0.013968 0.308145
0.390878 0.013968 0.307561
0.392483 0.013968 0.306977
0.394088 0.013968 0.306393
0.395694 0.013968 0.305809
0.397062 0.013981 0.303870
0.398668 0.013981 0.303285
0.400275 0.013981 0.302701
0.401648 0.013994 0.300757
0.403256 0.013994 0.300172
0.404633 0.014007 0.298225
0.406013 0.014020 0.296275
0.407624 0.014020 0.295688
0.409008 0.014033 0.293734
0.410620 0.014033 0.293147
0.412007 0.014046 0.291188
0.413621 0.014046 0.290601
0.415013 0.014059 0.288639
0.416407 0.014072 0.286672
0.417803 0.014085 0.284703
0.419202 0.014099 0.282730
0.420386 0.014125 0.279363
0.421355 0.014165 0.274586
0.422547 0.014192 0.271190
0.423744 0.014218 0.267781
0.424729 0.014259 0.262942
0.425502 0.014313 0.256648
0.426714 0.014340 0.253185
0.427716 0.014381 0.248266
0.428722 0.014422 0.243319
0.429949 0.014450 0.239806
0.430966 0.014492 0.234813
0.431990 0.014533 0.229793
0.433232 0.014561 0.226228
0.434266 0.014604 0.221160
0.435306 0.014646 0.216064
0.436564 0.014675 0.212446
0.437615 0.014718 0.207302
0.438672 0.014761 0.202128
0.439946 0.014790 0.198457
0.441015 0.014833 0.193234
0.442089 0.014877 0.187981
0.443171 0.014921 0.182698
0.444258 0.014965 0.177385
0.445143 0.015025 0.170462
0.446036 0.015085 0.163486
0.446727 0.015160 0.154848
0.447633 0.015221 0.147750
0.448128 0.015313 0.137319
0.449675 0.015329 0.135036
0.451017 0.015360 0.131098
0.452570 0.015376 0.128802
0.453923 0.015407 0.124839
0.455076 0.015454 0.119188
0.456032 0.015517 0.111816
0.456996 0.015581 0.104386
0.457354 0.015694 0.091730
0.457923 0.015792 0.080647
0.458293 0.015908 0.067656
0.443720 0.017240 -0.074988
0.445211 0.017279 -0.079863
0.446472 0.017338 -0.086855
0.447265 0.017437 -0.098129
0.447828 0.017557 -0.111678
0.448159 0.017699 -0.127594
-0.365613 0.017163 -0.034035
-0.343520 0.016819 0.001099
-0.329335 0.016612 0.022082
-0.320132 0.016489 0.034121
-0.313360 0.016409 0.041795
-0.307794 0.016349 0.047310
-0.303401 0.016309 0.050709
-0.299029 0.016270 0.054091
-0.294677 0.016230 0.057458
-0.290345 0.016191 0.060810
-0.286034 0.016152 0.064145
-0.282840 0.016133 0.065427
-0.278561 0.016094 0.068741
-0.274302 0.016055 0.072039
-0.270062 0.016017 0.075321
-0.265842 0.015979 0.078589
-0.261642 0.015941 0.081842
-0.257460 0.015903 0.085080
-0.253298 0.015865 0.088303
-0.249155 0.015828 0.091511
-0.245031 0.015791 0.094704
-0.241953 0.015772 0.095924
-0.237859 0.015735 0.099096
-0.233783 0.015698 0.102255
-0.230736 0.015680 0.103458
-0.227695 0.015661 0.104659
-0.225664 0.015661 0.103920
-0.222632 0.015643 0.105119
-0.219607 0.015625 0.106316
-0.215601 0.015588 0.109436
-0.213578 0.015588 0.108700
-0.210574 0.015570 0.109889
-0.207576 0.015552 0.111074
-0.204586 0.015534 0.112257
-0.201601 0.015516 0.113438
-0.198624 0.015498 0.114616
-0.195653 0.015480 0.115791
-0.192689 0.015462 0.116963
-0.189731 0.015445 0.118133
-0.187727 0.015445 0.117404
-0.184778 0.015427 0.118572
-0.181836 0.015409 0.119737
-0.178900 0.015391 0.120900
-0.175971 0.015374 0.122061
-0.173048 0.015356 0.123218
-0.170132 0.015338 0.124373
-0.167222 0.015321 0.125526
-0.165234 0.015321 0.124802
-0.162332 0.015303 0.125953
-0.160346 0.015303 0.125230
-0.157454 0.015286 0.126379
-0.155469 0.015286 0.125657
-0.152585 0.015268 0.126804
-0.150603 0.015268 0.126083
-0.147728 0.015251 0.127229
-0.145748 0.015251 0.126508
-0.142881 0.015233 0.127652
-0.140903 0.015233 0.126932
-0.138045 0.015216 0.128074
-0.135193 0.015199 0.129214
-0.133219 0.015199 0.128496
-0.131246 0.015199 0.127778
-0.128404 0.015181 0.128916
-0.125569 0.015164 0.130053
-0.124462 0.015181 0.127481
-0.121631 0.015164 0.128619
-0.119662 0.015164 0.127903
-0.117693 0.015164 0.127186
-0.114872 0.015147 0.128323
-0.112905 0.015147 0.127607
-0.110938 0.015147 0.126891
-0.108128 0.015130 0.128027
-0.106164 0.015130 0.127312
-0.104199 0.015130 0.126597
-0.102234 0.015130 0.125882
-0.098606 0.015096 0.128865
-0.096645 0.015096 0.128151
-0.093860 0.015079 0.129282
-0.091902 0.015079 0.128569
-0.089943 0.015079 0.127857
-0.087168 0.015062 0.128987
-0.085212 0.015062 0.128275
-0.083256 0.015062 0.127563
-0.081300 0.015062 0.126851
-0.078537 0.015045 0.127981
-0.076583 0.015045 0.127269
-0.074629 0.015045 0.126558
-0.071877 0.015028 0.127687
-0.069925 0.015028 0.126977
-0.067973 0.015028 0.126266
-0.066021 0.015028 0.125556
-0.063281 0.015011 0.126685
-0.061331 0.015011 0.125975
-0.059381 0.015011 0.125265
-0.057431 0.015011 0.124556
-0.055482 0.015011 0.123846
-0.052756 0.014994 0.124975
-0.050808 0.014994 0.124267
-0.048861 0.014994 0.123558
-0.046913 0.014994 0.122849
-0.044199 0.014977 0.123978
-0.042254 0.014977 0.123270
-0.040308 0.014977 0.122562
-0.037605 0.014960 0.123690
-0.035661 0.014960 0.122983
-0.033718 0.014960 0.122275
-0.031774 0.014960 0.121568
-0.029083 0.014944 0.122696
-0.027142 0.014944 0.121990
-0.025200 0.014944 0.121283
-0.023259 0.014944 0.120576
-0.021318 0.014944 0.119870
-0.018641 0.014927 0.120999
-0.016701 0.014927 0.120293
-0.014762 0.014927 0.119587
-0.012823 0.014927 0.118881
-0.010158 0.014910 0.120010
-0.008221 0.014910 0.119305
-0.006283 0.014910 0.118600
-0.003628 0.014894 0.119728
0.077087 0.013062 0.320831
0.081000 0.013010 0.325883
0.085969 0.012934 0.333697
0.090347 0.012871 0.340040
0.095214 0.012796 0.347695
0.100026 0.012722 0.355266
0.104785 0.012649 0.362752
0.108985 0.012588 0.368829
0.113647 0.012516 0.376166
0.118259 0.012445 0.383424
0.122334 0.012387 0.389314
0.124925 0.012363 0.391302
0.127025 0.012352 0.391999
0.129121 0.012340 0.392695
0.131214 0.012329 0.393389
0.133303 0.012317 0.394082
0.135388 0.012306 0.394774
0.137469 0.012294 0.395465
0.139079 0.012294 0.394879
0.140688 0.012294 0.394293
0.142298 0.012294 0.393708
0.143907 0.012294 0.393122
0.145516 0.012294 0.392536
0.147126 0.012294 0.391950
0.148735 0.012294 0.391365
0.150345 0.012294 0.390779
0.151954 0.012294 0.390193
0.153564 0.012294 0.389607
0.155173 0.012294 0.389021
0.156782 0.012294 0.388436
0.158392 0.012294 0.387850
0.160001 0.012294 0.387264
0.161611 0.012294 0.386678
0.163220 0.012294 0.386092
0.165275 0.012283 0.386790
0.166439 0.012294 0.384921
0.168048 0.012294 0.384335
0.169658 0.012294 0.383749
0.171267 0.012294 0.383164
0.172877 0.012294 0.382578
0.174486 0.012294 0.381992
0.176095 0.012294 0.381406
0.177705 0.012294 0.380820
0.179314 0.012294 0.380235
0.180924 0.012294 0.379649
0.182533 0.012294 0.379063
0.184143 0.012294 0.378477
0.185752 0.012294 0.377892
0.187786 0.012283 0.378597
0.189394 0.012283 0.378011
0.190157 0.012306 0.374840
0.192190 0.012294 0.375548
0.193379 0.012306 0.373667
0.194571 0.012317 0.371783
0.196183 0.012317 0.371196
0.197795 0.012317 0.370609
0.198992 0.012329 0.368720
0.200605 0.012329 0.368133
0.202219 0.012329 0.367545
0.203421 0.012340 0.365652
0.205036 0.012340 0.365064
0.206241 0.012352 0.363166
0.207858 0.012352 0.362578
0.209475 0.012352 0.361990
0.210685 0.012363 0.360088
0.212303 0.012363 0.359499
0.213517 0.012375 0.357593
0.215136 0.012375 0.357003
0.216354 0.012387 0.355094
0.217574 0.012398 0.353180
0.219196 0.012398 0.352590
0.220420 0.012410 0.350673
0.222044 0.012410 0.350082
0.223668 0.012410 0.349490
0.224896 0.012422 0.347569
0.226522 0.012422 0.346977
0.227754 0.012434 0.345051
0.229381 0.012434 0.344459
0.230617 0.012445 0.342529
0.232245 0.012445 0.341937
0.233485 0.012457 0.340003
0.234727 0.012469 0.338065
0.236358 0.012469 0.337472
0.237604 0.012481 0.335530
0.238852 0.012493 0.333585
0.240102 0.012504 0.331637
0.241354 0.012516 0.329685
0.242992 0.012516 0.329089
0.244248 0.012528 0.327133
0.245887 0.012528 0.326536
0.246767 0.012552 0.323210
0.248409 0.012552 0.322612
0.249674 0.012564 0.320645
0.250941 0.012576 0.318674
0.252210 0.012588 0.316699
0.253482 0.012600 0.314721
0.254756 0.012612 0.312739
0.256032 0.012624 0.310753
0.257311 0.012636 0.308764
0.258592 0.012649 0.306771
0.259875 0.012661 0.304775
0.261530 0.012661 0.304172
0.262818 0.012673 0.302172
0.264107 0.012685 0.300167
0.265399 0.012697 0.298159
0.266694 0.012710 0.296147
0.267991 0.012722 0.294131
0.269290 0.012734 0.292112
0.270591 0.012746 0.290089
0.271895 0.012759 0.288062
0.273202 0.012771 0.286032
0.274511 0.012784 0.283997
0.275822 0.012796 0.281959
0.277136 0.012808 0.279917
0.278452 0.012821 0.277872
0.279771 0.012833 0.275822
0.281092 0.012846 0.273769
0.286979 0.012697 0.290305
0.290015 0.012649 0.295334
0.292350 0.012624 0.297535
0.294676 0.012600 0.299727
0.296659 0.012588 0.300521
0.298972 0.012564 0.302702
0.300945 0.012552 0.303490
0.303243 0.012528 0.305660
0.305208 0.012516 0.306444
0.307169 0.012504 0.307226
0.309126 0.012493 0.308007
0.311399 0.012469 0.310159
0.313664 0.012445 0.312303
0.315606 0.012434 0.313076
0.317546 0.012422 0.313847
0.319481 0.012410 0.314617
0.321105 0.012410 0.314026
0.323036 0.012398 0.314795
0.324963 0.012387 0.315563
0.326584 0.012387 0.314973
0.328506 0.012375 0.315740
0.330425 0.012363 0.316506
0.332043 0.012363 0.315917
0.333957 0.012352 0.316682
0.335574 0.012352 0.316093
0.337483 0.012340 0.316857
0.339388 0.012329 0.317620
0.341291 0.012317 0.318381
0.342903 0.012317 0.317794
0.344515 0.012317 0.317207
0.346411 0.012306 0.317968
0.348022 0.012306 0.317382
0.349913 0.012294 0.318142
0.351522 0.012294 0.317556
0.353132 0.012294 0.316970
0.355017 0.012283 0.317730
0.356625 0.012283 0.317145
0.358233 0.012283 0.316559
0.359841 0.012283 0.315974
0.361448 0.012283 0.315389
0.363324 0.012271 0.316149
0.364931 0.012271 0.315565
0.366537 0.012271 0.314980
0.368144 0.012271 0.314395
0.370012 0.012260 0.315156
0.371617 0.012260 0.314572
0.373222 0.012260 0.313988
0.374827 0.012260 0.313403
0.376687 0.012248 0.314164
0.378291 0.012248 0.313580
0.379895 0.012248 0.312997
0.381499 0.012248 0.312413
0.383102 0.012248 0.311829
0.384706 0.012248 0.311246
0.386310 0.012248 0.310662
0.387668 0.012260 0.308730
0.389273 0.012260 0.308145
0.390878 0.012260 0.307561
0.392483 0.012260 0.306977
0.394088 0.012260 0.306393
0.395694 0.012260 0.305809
0.397062 0.012271 0.303870
0.398668 0.012271 0.303285
0.400275 0.012271 0.302701
0.401648 0.012283 0.300757
0.403024 0.012294 0.298811
0.404633 0.012294 0.298225
0.406013 0.012306 0.296275
0.407624 0.012306 0.295688
0.409008 0.012317 0.293734
0.410394 0.012329 0.291776
0.412007 0.012329 0.291188
0.413397 0.012340 0.289226
0.415013 0.012340 0.288639
0.416407 0.012352 0.286672
0.417803 0.012363 0.284703
0.418983 0.012387 0.281343
0.419948 0.012422 0.276576
0.421136 0.012445 0.273186
0.422330 0.012469 0.269784
0.423309 0.012504 0.264955
0.424077 0.012552 0.258674
0.425286 0.012576 0.255217
0.426282 0.012612 0.250309
0.427283 0.012649 0.245373
0.428507 0.012673 0.241866
0.429519 0.012710 0.236884
0.430537 0.012746 0.231874
0.431775 0.012771 0.228316
0.432805 0.012808 0.223259
0.433839 0.012846 0.218173
0.435093 0.012871 0.214563
0.436139 0.012909 0.209429
0.437192 0.012947 0.204266
0.438250 0.012985 0.199074
0.439525 0.013010 0.195390
0.440594 0.013049 0.190149
0.441670 0.013088 0.184877
0.442752 0.013127 0.179575
0.443631 0.013179 0.172667
0.444307 0.013245 0.164115
0.445200 0.013298 0.157087
0.445889 0.013366 0.148385
0.446796 0.013420 0.141235
0.447919 0.013461 0.135675
0.449258 0.013488 0.131738
0.450810 0.013502 0.129443
0.452158 0.013529 0.125481
0.453512 0.013557 0.121504
0.454667 0.013599 0.115832
0.455418 0.013669 0.106735
0.455971 0.013754 0.095830
0.456531 0.013840 0.084793
0.457097 0.013927 0.073623
0.441995 0.015130 -0.072201
0.443480 0.015164 -0.077064
0.444734 0.015216 -0.084040
0.446234 0.015251 -0.088956
0.446788 0.015356 -0.102384
0.447109 0.015480 -0.118155
0.447677 0.015588 -0.131977
-0.349647 0.014595 -0.009982
-0.332907 0.014377 0.015604
-0.322472 0.014252 0.029867
-0.314515 0.014165 0.039689
-0.308939 0.014113 0.045218
-0.304538 0.014078 0.048626
-0.300158 0.014044 0.052018
-0.295798 0.014010 0.055394
-0.291459 0.013976 0.058754
-0.287139 0.013942 0.062098
-0.282840 0.013908 0.065427
-0.278561 0.013875 0.068741
-0.274302 0.013841 0.072039
-0.271141 0.013825 0.073304
-0.266913 0.013791 0.076580
-0.262705 0.013758 0.079841
-0.257460 0.013709 0.085080
-0.254347 0.013693 0.086318
-0.250197 0.013660 0.089535
-0.246065 0.013628 0.092736
-0.241953 0.013596 0.095924
-0.238882 0.013580 0.097140
-0.234800 0.013548 0.100306
-0.231747 0.013532 0.101514
-0.228702 0.013516 0.102718
-0.225664 0.013500 0.103920
-0.222632 0.013484 0.105119
-0.219607 0.013468 0.106316
-0.216590 0.013452 0.107509
-0.213578 0.013437 0.108700
-0.210574 0.013421 0.109889
-0.207576 0.013405 0.111074
-0.204586 0.013389 0.112257
-0.201601 0.013374 0.113438
-0.199588 0.013374 0.112705
-0.196613 0.013358 0.113884
-0.193644 0.013343 0.115060
-0.190682 0.013327 0.116233
-0.187727 0.013312 0.117404
-0.184778 0.013296 0.118572
-0.181836 0.013281 0.119737
-0.179836 0.013281 0.119009
-0.176903 0.013266 0.120173
-0.173976 0.013250 0.121334
-0.171055 0.013235 0.122493
-0.168141 0.013220 0.123649
-0.165234 0.013204 0.124802
-0.163245 0.013204 0.124078
-0.160346 0.013189 0.125230
-0.158360 0.013189 0.124507
-0.155469 0.013174 0.125657
-0.153485 0.013174 0.124935
-0.150603 0.013159 0.126083
-0.148621 0.013159 0.125362
-0.145748 0.013144 0.126508
-0.143768 0.013144 0.125787
-0.140903 0.013129 0.126932
-0.138045 0.013114 0.128074
-0.136069 0.013114 0.127355
-0.133219 0.013099 0.128496
-0.131246 0.013099 0.127778
-0.128404 0.013084 0.128916
-0.126433 0.013084 0.128199
-0.124462 0.013084 0.127481
-0.122491 0.013084 0.126764
-0.120520 0.013084 0.126047
-0.117693 0.013069 0.127186
-0.115724 0.013069 0.126469
-0.113755 0.013069 0.125753
-0.110938 0.013054 0.126891
-0.108972 0.013054 0.126175
-0.107005 0.013054 0.125459
-0.104199 0.013039 0.126597
-0.102234 0.013039 0.125882
-0.100269 0.013039 0.125167
-0.096645 0.013009 0.128151
-0.094685 0.013009 0.127438
-0.091902 0.012995 0.128569
-0.089943 0.012995 0.127857
-0.087985 0.012995 0.127144
-0.085212 0.012980 0.128275
-0.083256 0.012980 0.127563
-0.081300 0.012980 0.126851
-0.079344 0.012980 0.126139
-0.076583 0.012965 0.127269
-0.074629 0.012965 0.126558
-0.072675 0.012965 0.125847
-0.069925 0.012951 0.126977
-0.067973 0.012951 0.126266
-0.066021 0.012951 0.125556
-0.064069 0.012951 0.124845
-0.061331 0.012936 0.125975
-0.060165 0.012951 0.123424
-0.057431 0.012936 0.124556
-0.055482 0.012936 0.123846
-0.053532 0.012936 0.123136
-0.050808 0.012921 0.124267
-0.048861 0.012921 0.123558
-0.046913 0.012921 0.122849
-0.044965 0.012921 0.122140
-0.042254 0.012907 0.123270
-0.040308 0.012907 0.122562
-0.038363 0.012907 0.121854
-0.035661 0.012892 0.122983
-0.033718 0.012892 0.122275
-0.031774 0.012892 0.121568
-0.029831 0.012892 0.120861
-0.027142 0.012878 0.121990
-0.025944 0.012892 0.119446
-0.023259 0.012878 0.120576
-0.021318 0.012878 0.119870
-0.019376 0.012878 0.119163
-0.016701 0.012863 0.120293
-0.014762 0.012863 0.119587
-0.012823 0.012863 0.118881
-0.010883 0.012863 0.118175
-0.008221 0.012849 0.119305
0.074234 0.011236 0.323493
0.077601 0.011202 0.327120
0.081497 0.011158 0.332129
0.086445 0.011092 0.339879
0.091338 0.011027 0.347542
0.095651 0.010973 0.353762
0.100443 0.010910 0.361271
0.105182 0.010847 0.368697
0.110373 0.010774 0.377358
0.114506 0.010723 0.383308
0.119092 0.010662 0.390494
0.122175 0.010631 0.393764
0.123792 0.010631 0.393176
0.126373 0.010611 0.395151
0.128466 0.010601 0.395843
0.130555 0.010591 0.396533
0.132641 0.010581 0.397222
0.134723 0.010571 0.397910
0.136331 0.010571 0.397325
0.137939 0.010571 0.396740
0.139547 0.010571 0.396154
0.141155 0.010571 0.395569
0.142763 0.010571 0.394984
0.144371 0.010571 0.394399
0.145979 0.010571 0.393813
0.147587 0.010571 0.393228
0.149195 0.010571 0.392643
0.150803 0.010571 0.392058
0.152411 0.010571 0.391472
0.154019 0.010571 0.390887
0.155627 0.010571 0.390302
0.157235 0.010571 0.389717
0.158843 0.010571 0.389131
0.160451 0.010571 0.388546
0.162506 0.010561 0.389241
0.163667 0.010571 0.387376
0.165275 0.010571 0.386790
0.166439 0.010581 0.384921
0.168491 0.010571 0.385620
0.170099 0.010571 0.385035
0.171707 0.010571 0.384449
0.173315 0.010571 0.383864
0.174923 0.010571 0.383279
0.176531 0.010571 0.382694
0.178139 0.010571 0.382108
0.179314 0.010581 0.380235
0.180924 0.010581 0.379649
0.182533 0.010581 0.379063
0.184143 0.010581 0.378477
0.185752 0.010581 0.377892
0.187786 0.010571 0.378597
0.188971 0.010581 0.376720
0.190580 0.010581 0.376134
0.192190 0.010581 0.375548
0.193379 0.010591 0.373667
0.194571 0.010601 0.371783
0.196183 0.010601 0.371196
0.197795 0.010601 0.370609
0.198992 0.010611 0.368720
0.200605 0.010611 0.368133
0.202219 0.010611 0.367545
0.203421 0.010621 0.365652
0.205036 0.010621 0.365064
0.206241 0.010631 0.363166
0.207858 0.010631 0.362578
0.209475 0.010631 0.361990
0.210685 0.010641 0.360088
0.212303 0.010641 0.359499
0.213517 0.010652 0.357593
0.215136 0.010652 0.357003
0.216354 0.010662 0.355094
0.217574 0.010672 0.353180
0.219196 0.010672 0.352590
0.220819 0.010672 0.351999
0.222044 0.010682 0.350082
0.223668 0.010682 0.349490
0.225292 0.010682 0.348899
0.226522 0.010692 0.346977
0.227754 0.010702 0.345051
0.229381 0.010702 0.344459
0.230617 0.010712 0.342529
0.231855 0.010723 0.340596
0.233485 0.010723 0.340003
0.234727 0.010733 0.338065
0.235971 0.010743 0.336124
0.237604 0.010743 0.335530
0.238852 0.010753 0.333585
0.240102 0.010764 0.331637
0.241354 0.010774 0.329685
0.242609 0.010784 0.327729
0.244248 0.010784 0.327133
0.245887 0.010784 0.326536
0.246767 0.010805 0.323210
0.248031 0.010815 0.321243
0.249296 0.010826 0.319272
0.250564 0.010836 0.317298
0.251834 0.010847 0.315320
0.253107 0.010857 0.313339
0.254381 0.010868 0.311354
0.255658 0.010878 0.309365
0.256938 0.010889 0.307373
0.258220 0.010899 0.305377
0.259504 0.010910 0.303378
0.261161 0.010910 0.302775
0.262449 0.010920 0.300771
0.263739 0.010931 0.298763
0.265032 0.010941 0.296752
0.266328 0.010952 0.294737
0.267625 0.010963 0.292718
0.268925 0.010973 0.290696
0.270228 0.010984 0.288669
0.271533 0.010995 0.286639
0.272840 0.011006 0.284606
0.274150 0.011016 0.282568
0.275462 0.011027 0.280527
0.276777 0.011038 0.278481
0.278094 0.011049 0.276432
0.279413 0.011060 0.274380
0.280735 0.011070 0.272323
0.286632 0.010941 0.288890
0.289672 0.010899 0.293930
0.292009 0.010878 0.296135
0.294339 0.010857 0.298332
0.296659 0.010836 0.300521
0.298972 0.010815 0.302702
0.300945 0.010805 0.303490
0.303243 0.010784 0.305660
0.305208 0.010774 0.306444
0.307169 0.010764 0.307226
0.309126 0.010753 0.308007
0.311080 0.010743 0.308787
0.313347 0.010723 0.310935
0.315606 0.010702 0.313076
0.317546 0.010692 0.313847
0.319481 0.010682 0.314617
0.321105 0.010682 0.314026
0.323036 0.010672 0.314795
0.324963 0.010662 0.315563
0.326584 0.010662 0.314973
0.328506 0.010652 0.315740
0.330425 0.010641 0.316506
0.332043 0.010641 0.315917
0.333957 0.010631 0.316682
0.335574 0.010631 0.316093
0.337483 0.010621 0.316857
0.339388 0.010611 0.317620
0.341291 0.010601 0.318381
0.342903 0.010601 0.317794
0.344800 0.010591 0.318554
0.346411 0.010591 0.317968
0.348022 0.010591 0.317382
0.349913 0.010581 0.318142
0.351522 0.010581 0.317556
0.353409 0.010571 0.318315
0.355017 0.010571 0.317730
0.356625 0.010571 0.317145
0.358233 0.010571 0.316559
0.359841 0.010571 0.315974
0.361718 0.010561 0.316734
0.363324 0.010561 0.316149
0.364931 0.010561 0.315565
0.366537 0.010561 0.314980
0.368407 0.010552 0.315740
0.370012 0.010552 0.315156
0.371617 0.010552 0.314572
0.373222 0.010552 0.313988
0.374827 0.010552 0.313403
0.376687 0.010542 0.314164
0.378291 0.010542 0.313580
0.379895 0.010542 0.312997
0.381499 0.010542 0.312413
0.383102 0.010542 0.311829
0.384706 0.010542 0.311246
0.386310 0.010542 0.310662
0.387913 0.010542 0.310078
0.389273 0.010552 0.308145
0.390878 0.010552 0.307561
0.392483 0.010552 0.306977
0.394088 0.010552 0.306393
0.395455 0.010561 0.304455
0.397062 0.010561 0.303870
0.398668 0.010561 0.303285
0.400040 0.010571 0.301343
0.401648 0.010571 0.300757
0.403024 0.010581 0.298811
0.404633 0.010581 0.298225
0.406013 0.010591 0.296275
0.407395 0.010601 0.294321
0.409008 0.010601 0.293734
0.410394 0.010611 0.291776
0.412007 0.010611 0.291188
0.413397 0.010621 0.289226
0.414790 0.010631 0.287261
0.416407 0.010631 0.286672
0.417583 0.010652 0.283319
0.418543 0.010682 0.278562
0.419728 0.010702 0.275178
0.420698 0.010733 0.270377
0.421893 0.010753 0.266964
0.422873 0.010784 0.262118
0.423859 0.010815 0.257246
0.424851 0.010847 0.252348
0.425847 0.010878 0.247422
0.427067 0.010899 0.243922
0.428074 0.010931 0.238950
0.429087 0.010963 0.233951
0.430106 0.010995 0.228923
0.431346 0.011016 0.225353
0.432376 0.011049 0.220278
0.433412 0.011081 0.215175
0.434667 0.011103 0.211552
0.435714 0.011136 0.206400
0.436767 0.011169 0.201219
0.438038 0.011191 0.197543
0.439102 0.011224 0.192312
0.440173 0.011258 0.187052
0.441250 0.011292 0.181761
0.441911 0.011348 0.173293
0.442790 0.011394 0.166335
0.443464 0.011452 0.157719
0.444357 0.011498 0.150639
0.445045 0.011557 0.141872
0.446163 0.011592 0.136314
0.447499 0.011616 0.132378
0.449049 0.011628 0.130084
0.450394 0.011652 0.126123
0.451744 0.011676 0.122148
0.453100 0.011700 0.118156
0.454050 0.011749 0.110773
0.455006 0.011797 0.103331
0.455351 0.011884 0.090655
0.455909 0.011959 0.079554
0.440515 0.013009 -0.067359
0.441753 0.013054 -0.074272
0.443240 0.013084 -0.079145
0.444494 0.013129 -0.086135
0.445517 0.013189 -0.095286
0.446068 0.013281 -0.108801
0.446626 0.013374 -0.122498
-0.355850 0.012343 -0.021199
-0.335303 0.012111 0.011260
-0.324822 0.012005 0.025593
-0.316834 0.011930 0.035464
-0.310086 0.011871 0.043122
-0.305677 0.011842 0.046539
-0.301289 0.011813 0.049940
-0.295798 0.011770 0.055394
-0.292574 0.011755 0.056693
-0.288248 0.011726 0.060046
-0.283941 0.011698 0.063384
-0.279654 0.011669 0.066706
-0.275388 0.011641 0.070012
-0.271141 0.011613 0.073304
-0.266913 0.011585 0.076580
-0.262705 0.011557 0.079841
-0.258517 0.011529 0.083087
-0.254347 0.011501 0.086318
-0.251241 0.011488 0.087554
-0.247103 0.011460 0.090764
-0.242983 0.011433 0.093959
-0.239908 0.011419 0.095179
-0.235818 0.011392 0.098354
-0.232761 0.011378 0.099564
-0.229712 0.011365 0.100773
-0.226669 0.011351 0.101978
-0.223632 0.011338 0.103181
-0.220603 0.011325 0.104381
-0.217581 0.011311 0.105578
-0.214565 0.011298 0.106772
-0.211556 0.011285 0.107964
-0.208554 0.011271 0.109154
-0.205559 0.011258 0.110340
-0.202570 0.011245 0.111524
-0.199588 0.011232 0.112705
-0.196613 0.011218 0.113884
-0.194602 0.011218 0.113152
-0.191636 0.011205 0.114329
-0.188676 0.011192 0.115503
-0.185723 0.011179 0.116674
-0.182776 0.011166 0.117843
-0.179836 0.011153 0.119009
-0.176903 0.011140 0.120173
-0.174905 0.011140 0.119446
-0.171980 0.011127 0.120608
-0.169062 0.011114 0.121767
-0.166150 0.011101 0.122924
-0.163245 0.011088 0.124078
-0.161256 0.011088 0.123355
-0.158360 0.011075 0.124507
-0.156373 0.011075 0.123784
-0.153485 0.011062 0.124935
-0.151501 0.011062 0.124213
-0.148621 0.011050 0.125362
-0.146639 0.011050 0.124640
-0.143768 0.011037 0.125787
-0.140903 0.011024 0.126932
-0.138926 0.011024 0.126212
-0.136069 0.011011 0.127355
-0.134094 0.011011 0.126636
-0.131246 0.010999 0.127778
-0.129273 0.010999 0.127059
-0.127299 0.010999 0.126341
-0.124462 0.010986 0.127481
-0.122491 0.010986 0.126764
-0.120520 0.010986 0.126047
-0.118548 0.010986 0.125329
-0.115724 0.010973 0.126469
-0.113755 0.010973 0.125753
-0.111786 0.010973 0.125036
-0.109817 0.010973 0.124319
-0.107005 0.010961 0.125459
-0.105038 0.010961 0.124744
-0.103071 0.010961 0.124028
-0.100269 0.010948 0.125167
-0.098305 0.010948 0.124452
-0.096340 0.010948 0.123737
-0.092724 0.010923 0.126724
-0.090764 0.010923 0.126011
-0.088803 0.010923 0.125297
-0.086027 0.010911 0.126431
-0.083256 0.010898 0.127563
-0.081300 0.010898 0.126851
-0.079344 0.010898 0.126139
-0.077387 0.010898 0.125427
-0.074629 0.010886 0.126558
-0.072675 0.010886 0.125847
-0.070721 0.010886 0.125136
-0.067973 0.010873 0.126266
-0.066021 0.010873 0.125556
-0.064069 0.010873 0.124845
-0.062117 0.010873 0.124135
-0.060165 0.010873 0.123424
-0.058213 0.010873 0.122714
-0.055482 0.010861 0.123846
-0.053532 0.010861 0.123136
-0.051582 0.010861 0.122427
-0.048861 0.010849 0.123558
-0.046913 0.010849 0.122849
-0.044965 0.010849 0.122140
-0.043017 0.010849 0.121431
-0.040308 0.010836 0.122562
-0.038363 0.010836 0.121854
-0.036417 0.010836 0.121145
-0.033718 0.010824 0.122275
-0.031774 0.010824 0.121568
-0.029831 0.010824 0.120861
-0.027887 0.010824 0.120153
-0.025944 0.010824 0.119446
-0.024000 0.010824 0.118739
-0.021318 0.010812 0.119870
-0.019376 0.010812 0.119163
-0.017435 0.010812 0.118457
-0.014762 0.010799 0.119587
-0.012823 0.010799 0.118881
0.070826 0.009422 0.324733
0.074203 0.009394 0.328357
0.078112 0.009356 0.333361
0.081991 0.009319 0.338329
0.086918 0.009264 0.346015
0.091790 0.009209 0.353616
0.096607 0.009155 0.361132
0.100857 0.009111 0.367233
0.105576 0.009058 0.374599
0.110746 0.008997 0.383191
0.115357 0.008945 0.390384
0.119430 0.008902 0.396222
0.121045 0.008902 0.395634
0.123145 0.008894 0.396326
0.125241 0.008886 0.397016
0.127334 0.008877 0.397706
0.129422 0.008869 0.398394
0.131982 0.008852 0.400351
0.133588 0.008852 0.399766
0.135195 0.008852 0.399182
0.136801 0.008852 0.398597
0.138408 0.008852 0.398012
0.140014 0.008852 0.397427
0.141621 0.008852 0.396843
0.143228 0.008852 0.396258
0.144834 0.008852 0.395673
0.146441 0.008852 0.395089
0.148047 0.008852 0.394504
0.149654 0.008852 0.393919
0.151260 0.008852 0.393334
0.152867 0.008852 0.392750
0.154473 0.008852 0.392165
0.156080 0.008852 0.391580
0.157686 0.008852 0.390995
0.159742 0.008843 0.391688
0.160451 0.008860 0.388546
0.162059 0.008860 0.387961
0.163667 0.008860 0.387376
0.165275 0.008860 0.386790
0.167326 0.008852 0.387487
0.168932 0.008852 0.386902
0.170099 0.008860 0.385035
0.171707 0.008860 0.384449
0.173752 0.008852 0.385148
0.174923 0.008860 0.383279
0.176531 0.008860 0.382694
0.178139 0.008860 0.382108
0.179747 0.008860 0.381523
0.181355 0.008860 0.380938
0.182963 0.008860 0.380353
0.184571 0.008860 0.379767
0.186179 0.008860 0.379182
0.187786 0.008860 0.378597
0.188971 0.008869 0.376720
0.190580 0.008869 0.376134
0.192190 0.008869 0.375548
0.193379 0.008877 0.373667
0.194990 0.008877 0.373081
0.196183 0.008886 0.371196
0.197795 0.008886 0.370609
0.199407 0.008886 0.370022
0.200605 0.008894 0.368133
0.202219 0.008894 0.367545
0.203421 0.008902 0.365652
0.205036 0.008902 0.365064
0.206651 0.008902 0.364476
0.207858 0.008911 0.362578
0.209475 0.008911 0.361990
0.210685 0.008920 0.360088
0.212303 0.008920 0.359499
0.213517 0.008928 0.357593
0.215136 0.008928 0.357003
