ply
format ascii 1.0
element vertex 1697
property float x
property float y
property float z
end_header
0.390871 -0.048441 -0.194165
0.390028 -0.046515 -0.198147
0.390176 -0.045549 -0.200944
0.389328 -0.043612 -0.204952
0.389475 -0.042640 -0.207764
0.388624 -0.040691 -0.211799
0.388771 -0.039713 -0.214627
0.387916 -0.037751 -0.218688
0.388062 -0.036767 -0.221532
0.387203 -0.034794 -0.225621
0.384314 -0.030821 -0.232225
0.381401 -0.026816 -0.238885
0.378463 -0.022776 -0.245600
0.375501 -0.018703 -0.252373
0.347886 0.009719 -0.289894
0.273689 0.084252 -0.385796
0.274987 0.084252 -0.387615
0.277547 0.083002 -0.387850
0.278844 0.083002 -0.389667
0.280141 0.083002 -0.391484
0.282692 0.081754 -0.391714
0.283987 0.081754 -0.393529
0.285282 0.081754 -0.395344
0.287824 0.080510 -0.395569
0.289118 0.080510 -0.397382
0.290412 0.080510 -0.399195
0.292945 0.079269 -0.399415
0.294237 0.079269 -0.401226
0.296763 0.078030 -0.401444
0.298054 0.078030 -0.403252
0.299344 0.078030 -0.405061
0.301861 0.076794 -0.405274
0.303150 0.076794 -0.407081
0.305660 0.075561 -0.407291
0.306948 0.075561 -0.409096
0.308235 0.075561 -0.410900
0.310736 0.074331 -0.411106
0.312023 0.074331 -0.412908
0.313309 0.074331 -0.414711
0.315801 0.073104 -0.414912
0.317085 0.073104 -0.416712
0.318370 0.073104 -0.418512
0.320854 0.071880 -0.418709
0.322137 0.071880 -0.420507
0.323420 0.071880 -0.422305
0.324703 0.071880 -0.424103
0.325987 0.071880 -0.425902
0.328458 0.070658 -0.426090
0.329740 0.070658 -0.427886
0.332205 0.069440 -0.428071
0.333485 0.069440 -0.429865
0.334765 0.069440 -0.431659
0.336045 0.069440 -0.433453
0.337326 0.069440 -0.435247
0.338606 0.069440 -0.437041
0.339886 0.069440 -0.438835
0.341167 0.069440 -0.440629
0.342447 0.069440 -0.442423
0.343727 0.069440 -0.444217
0.345008 0.069440 -0.446011
0.345121 0.070658 -0.449439
0.346403 0.070658 -0.451235
0.347685 0.070658 -0.453031
0.348967 0.070658 -0.454827
0.350249 0.070658 -0.456623
0.351530 0.070658 -0.458419
0.352812 0.070658 -0.460216
0.354094 0.070658 -0.462012
0.354218 0.071880 -0.465462
0.354343 0.073104 -0.468920
0.353306 0.075561 -0.474055
0.353430 0.076794 -0.477535
0.017227 -0.111938 0.493860
0.019568 -0.112774 0.492826
0.021906 -0.113608 0.491794
0.022966 -0.113608 0.490308
0.024026 -0.113608 0.488822
0.025087 -0.113608 0.487336
0.026147 -0.113608 0.485851
0.027208 -0.113608 0.484365
0.028268 -0.113608 0.482879
0.030595 -0.114441 0.481857
0.031654 -0.114441 0.480373
0.032713 -0.114441 0.478888
0.033773 -0.114441 0.477404
0.034832 -0.114441 0.475919
0.035892 -0.114441 0.474435
0.036951 -0.114441 0.472950
0.038010 -0.114441 0.471466
0.039070 -0.114441 0.469981
0.038872 -0.113608 0.468020
0.039932 -0.113608 0.466534
0.040993 -0.113608 0.465048
0.042053 -0.113608 0.463562
0.043114 -0.113608 0.462076
0.044174 -0.113608 0.460590
0.045234 -0.113608 0.459104
0.046295 -0.113608 0.457618
0.046104 -0.112774 0.455643
0.048416 -0.113608 0.454647
0.049476 -0.113608 0.453161
0.050536 -0.113608 0.451675
0.050349 -0.112774 0.449694
0.051411 -0.112774 0.448207
0.052472 -0.112774 0.446719
0.052287 -0.111938 0.444732
0.053349 -0.111938 0.443243
0.054412 -0.111938 0.441754
0.055474 -0.111938 0.440266
0.056537 -0.111938 0.438777
0.057599 -0.111938 0.437288
0.058661 -0.111938 0.435799
0.059724 -0.111938 0.434311
0.059545 -0.111100 0.432309
0.060609 -0.111100 0.430819
0.061672 -0.111100 0.429329
0.061495 -0.110261 0.427321
0.062560 -0.110261 0.425829
0.063624 -0.110261 0.424338
0.063449 -0.109420 0.422323
0.065753 -0.110261 0.421355
0.065580 -0.109420 0.419337
0.066646 -0.109420 0.417844
0.067711 -0.109420 0.416351
0.067540 -0.108578 0.414327
0.068606 -0.108578 0.412832
0.069673 -0.108578 0.411338
0.069503 -0.107734 0.409307
0.070571 -0.107734 0.407811
0.071638 -0.107734 0.406315
0.071470 -0.106888 0.404277
0.072539 -0.106888 0.402780
0.073607 -0.106888 0.401282
0.073441 -0.106041 0.399238
0.074511 -0.106041 0.397739
0.076813 -0.106888 0.396790
0.076650 -0.106041 0.394741
0.077719 -0.106041 0.393243
0.077557 -0.105192 0.391188
0.078628 -0.105192 0.389688
0.078466 -0.104342 0.387628
0.079538 -0.104342 0.386127
0.080609 -0.104342 0.384625
0.080449 -0.103490 0.382558
0.081522 -0.103490 0.381055
0.081363 -0.102636 0.378983
0.081203 -0.101781 0.376907
0.081043 -0.100923 0.374827
0.080883 -0.100065 0.372743
0.081960 -0.100065 0.371234
0.081801 -0.099204 0.369144
0.081641 -0.098342 0.367050
0.081481 -0.097478 0.364952
0.082561 -0.097478 0.363439
0.082401 -0.096613 0.361336
0.082242 -0.095746 0.359228
0.082082 -0.094877 0.357117
0.083165 -0.094877 0.355599
0.083006 -0.094006 0.353482
0.082846 -0.093134 0.351361
0.082687 -0.092260 0.349235
0.082526 -0.091385 0.347106
0.082366 -0.090507 0.344972
0.082205 -0.089628 0.342834
0.080791 -0.087865 0.340075
0.080628 -0.086981 0.337926
0.080465 -0.086095 0.335773
0.080302 -0.085207 0.333615
0.080138 -0.084317 0.331453
0.079974 -0.083426 0.329287
0.078546 -0.081638 0.326482
0.077112 -0.079844 0.323667
0.075672 -0.078042 0.320840
0.072949 -0.075325 0.317353
0.065043 -0.068923 0.311220
0.346789 -0.257110 0.422324
0.356458 -0.263458 0.425842
0.365959 -0.269697 0.429299
0.369926 -0.271939 0.429767
0.371565 -0.272497 0.428972
0.373968 -0.273611 0.428599
0.376364 -0.274722 0.428228
0.377991 -0.275276 0.427437
0.380375 -0.276381 0.427068
0.382752 -0.277483 0.426700
0.385121 -0.278582 0.426334
0.385981 -0.278582 0.425128
0.386841 -0.278582 0.423923
0.388452 -0.279130 0.423140
0.389311 -0.279130 0.421936
0.390171 -0.279130 0.420731
0.391777 -0.279677 0.419951
0.392636 -0.279677 0.418748
0.393495 -0.279677 0.417544
0.394354 -0.279677 0.416341
0.395956 -0.280223 0.415565
0.396814 -0.280223 0.414362
0.397672 -0.280223 0.413160
0.397789 -0.279677 0.411527
0.398648 -0.279677 0.410324
0.398765 -0.279130 0.408688
0.398141 -0.278033 0.406614
0.398258 -0.277483 0.404972
0.398376 -0.276933 0.403326
0.398494 -0.276381 0.401679
0.397867 -0.275276 0.399586
0.397985 -0.274722 0.397932
0.397355 -0.273611 0.395829
0.396723 -0.272497 0.393719
0.396841 -0.271939 0.392053
0.396207 -0.270820 0.389933
0.394816 -0.269134 0.387350
0.394933 -0.268570 0.385672
0.394293 -0.267441 0.383531
0.393651 -0.266307 0.381384
0.393767 -0.265739 0.379694
0.393123 -0.264600 0.377536
0.392476 -0.263458 0.375370
0.391828 -0.262312 0.373198
0.391943 -0.261738 0.371493
0.391292 -0.260586 0.369309
0.391407 -0.260009 0.367596
0.390754 -0.258852 0.365401
0.390099 -0.257691 0.363200
0.389441 -0.256527 0.360991
0.389556 -0.255944 0.359262
0.388896 -0.254774 0.357041
0.388234 -0.253600 0.354814
0.388347 -0.253012 0.353073
0.387683 -0.251832 0.350833
0.387016 -0.250649 0.348587
0.387130 -0.250056 0.346834
0.386461 -0.248867 0.344575
0.385789 -0.247675 0.342310
0.385116 -0.246478 0.340037
0.385228 -0.245878 0.338267
0.384552 -0.244676 0.335982
0.383874 -0.243470 0.333689
0.383194 -0.242259 0.331389
0.382511 -0.241045 0.329081
0.381826 -0.239827 0.326766
0.381937 -0.239216 0.324970
0.381249 -0.237992 0.322642
0.380560 -0.236764 0.320307
0.380670 -0.236149 0.318498
0.379977 -0.234914 0.316150
0.379283 -0.233676 0.313795
0.379392 -0.233056 0.311973
0.378695 -0.231811 0.309605
0.377995 -0.230563 0.307229
0.377293 -0.229310 0.304845
0.377402 -0.228682 0.303005
0.376697 -0.227423 0.300608
0.376806 -0.226792 0.298760
0.376098 -0.225527 0.296350
0.375388 -0.224258 0.293932
0.374676 -0.222984 0.291507
0.373962 -0.221706 0.289072
0.374068 -0.221066 0.287201
0.373351 -0.219781 0.284753
0.372631 -0.218493 0.282298
0.371909 -0.217200 0.279834
0.371184 -0.215902 0.277362
0.369624 -0.213948 0.274295
0.369728 -0.213295 0.272392
0.368996 -0.211984 0.269895
0.368261 -0.210669 0.267389
0.367524 -0.209350 0.264875
0.366785 -0.208026 0.262352
0.366887 -0.207362 0.260424
0.366145 -0.206031 0.257887
0.363701 -0.203356 0.254120
0.358665 -0.198631 0.248472
0.154425 -0.036504 0.098820
0.158070 -0.038474 0.099008
0.161701 -0.040436 0.099196
0.165316 -0.042390 0.099383
0.167691 -0.043364 0.098674
0.170061 -0.044336 0.097966
0.173644 -0.046274 0.098155
0.176001 -0.047240 0.097450
0.178352 -0.048204 0.096746
0.181904 -0.050126 0.096936
0.184242 -0.051084 0.096235
0.186576 -0.052040 0.095536
0.190096 -0.053947 0.095728
0.192417 -0.054897 0.095031
0.194733 -0.055845 0.094335
0.197044 -0.056792 0.093641
0.199350 -0.057736 0.092948
0.201652 -0.058679 0.092257
0.203949 -0.059620 0.091567
0.205075 -0.059620 0.089989
0.207367 -0.060559 0.089302
0.209653 -0.061495 0.088617
0.211935 -0.062430 0.087932
0.214213 -0.063364 0.087250
0.216486 -0.064295 0.086568
0.218754 -0.065224 0.085888
0.219873 -0.065224 0.084320
0.222136 -0.066152 0.083643
0.223254 -0.066152 0.082076
0.224372 -0.066152 0.080509
0.226628 -0.067077 0.079837
0.227745 -0.067077 0.078272
0.229995 -0.068001 0.077602
0.231111 -0.068001 0.076038
0.232226 -0.068001 0.074475
0.234470 -0.068923 0.073810
0.235584 -0.068923 0.072248
0.237822 -0.069843 0.071586
0.238936 -0.069843 0.070025
0.241168 -0.070761 0.069366
0.242280 -0.070761 0.067807
0.244507 -0.071678 0.067150
0.245618 -0.071678 0.065593
0.247839 -0.072592 0.064939
0.248950 -0.072592 0.063384
0.250060 -0.072592 0.061828
0.252274 -0.073505 0.061179
0.253383 -0.073505 0.059625
0.254493 -0.073505 0.058071
0.256700 -0.074416 0.057426
0.257808 -0.074416 0.055873
0.258916 -0.074416 0.054321
0.261118 -0.075325 0.053680
0.262224 -0.075325 0.052129
0.263331 -0.075325 0.050578
0.264438 -0.075325 0.049027
0.266632 -0.076232 0.048392
0.267737 -0.076232 0.046843
0.268843 -0.076232 0.045293
0.269949 -0.076232 0.043744
0.273213 -0.078042 0.044034
0.275391 -0.078943 0.043406
0.277565 -0.079844 0.042780
0.279735 -0.080742 0.042155
0.281900 -0.081638 0.041531
0.284061 -0.082533 0.040908
0.286218 -0.083426 0.040286
0.288371 -0.084317 0.039666
0.289467 -0.084317 0.038130
0.290563 -0.084317 0.036594
0.292709 -0.085207 0.035978
0.293804 -0.085207 0.034444
0.295945 -0.086095 0.033831
0.297038 -0.086095 0.032298
0.298132 -0.086095 0.030765
0.299226 -0.086095 0.029232
0.299278 -0.085207 0.026773
0.300373 -0.085207 0.025239
0.301468 -0.085207 0.023704
0.302563 -0.085207 0.022170
0.303658 -0.085207 0.020636
0.304752 -0.085207 0.019102
0.305847 -0.085207 0.017568
0.305906 -0.084317 0.015094
0.307002 -0.084317 0.013558
0.308098 -0.084317 0.012023
0.309194 -0.084317 0.010487
0.309256 -0.083426 0.008004
0.309318 -0.082533 0.005516
0.310416 -0.082533 0.003978
0.311514 -0.082533 0.002439
0.312613 -0.082533 0.000900
0.312678 -0.081638 -0.001597
0.313777 -0.081638 -0.003138
0.314877 -0.081638 -0.004678
0.314944 -0.080742 -0.007183
0.316045 -0.080742 -0.008725
0.316114 -0.079844 -0.011237
0.317215 -0.079844 -0.012780
0.318317 -0.079844 -0.014323
0.319418 -0.079844 -0.015867
0.320519 -0.079844 -0.017410
0.321621 -0.079844 -0.018954
0.322722 -0.079844 -0.020497
0.323824 -0.079844 -0.022040
0.324925 -0.079844 -0.023584
0.326026 -0.079844 -0.025127
0.327128 -0.079844 -0.026670
0.329248 -0.080742 -0.027227
0.330349 -0.080742 -0.028769
0.331449 -0.080742 -0.030310
0.332549 -0.080742 -0.031852
0.333649 -0.080742 -0.033394
0.334750 -0.080742 -0.034936
0.335850 -0.080742 -0.036478
0.336950 -0.080742 -0.038019
0.338051 -0.080742 -0.039561
0.339151 -0.080742 -0.041103
0.340251 -0.080742 -0.042645
0.341352 -0.080742 -0.044187
0.342452 -0.080742 -0.045728
0.343552 -0.080742 -0.047270
0.344653 -0.080742 -0.048812
0.345753 -0.080742 -0.050354
0.346853 -0.080742 -0.051896
0.347953 -0.080742 -0.053437
0.349054 -0.080742 -0.054979
0.350154 -0.080742 -0.056521
0.351254 -0.080742 -0.058063
0.352355 -0.080742 -0.059605
0.352460 -0.079844 -0.062167
0.353561 -0.079844 -0.063710
0.355655 -0.080742 -0.064230
0.356756 -0.080742 -0.065772
0.357856 -0.080742 -0.067314
0.358956 -0.080742 -0.068855
0.360057 -0.080742 -0.070397
0.361157 -0.080742 -0.071939
0.361271 -0.079844 -0.074514
0.362372 -0.079844 -0.076057
0.363474 -0.079844 -0.077600
0.364575 -0.079844 -0.079144
0.365676 -0.079844 -0.080687
0.366778 -0.079844 -0.082230
0.367879 -0.079844 -0.083774
0.368981 -0.079844 -0.085317
0.370082 -0.079844 -0.086860
0.371183 -0.079844 -0.088404
0.372285 -0.079844 -0.089947
0.372410 -0.078943 -0.092542
0.373512 -0.078943 -0.094087
0.374615 -0.078943 -0.095631
0.375717 -0.078943 -0.097176
0.375846 -0.078042 -0.099781
0.376949 -0.078042 -0.101327
0.378053 -0.078042 -0.102874
0.379156 -0.078042 -0.104420
0.380260 -0.078042 -0.105967
0.379421 -0.076232 -0.109654
0.380527 -0.076232 -0.111204
0.380660 -0.075325 -0.113830
0.381767 -0.075325 -0.115381
0.381902 -0.074416 -0.118014
0.383010 -0.074416 -0.119567
0.383146 -0.073505 -0.122207
0.384256 -0.073505 -0.123761
0.384393 -0.072592 -0.126408
0.385504 -0.072592 -0.127963
0.385643 -0.071678 -0.130617
0.385782 -0.070761 -0.133276
0.385922 -0.069843 -0.135940
0.386062 -0.068923 -0.138610
0.387177 -0.068923 -0.140172
0.387318 -0.068001 -0.142848
0.388434 -0.068001 -0.144412
0.388577 -0.067077 -0.147095
0.388720 -0.066152 -0.149784
0.388863 -0.065224 -0.152479
0.389982 -0.065224 -0.154047
0.390127 -0.064295 -0.156748
0.390272 -0.063364 -0.159455
0.390418 -0.062430 -0.162167
0.390563 -0.061495 -0.164885
0.390709 -0.060559 -0.167608
0.390856 -0.059620 -0.170337
0.391002 -0.058679 -0.173071
0.391149 -0.057736 -0.175811
0.390313 -0.055845 -0.179723
0.390460 -0.054897 -0.182478
0.389620 -0.052995 -0.186416
0.389766 -0.052040 -0.189187
0.389913 -0.051084 -0.191962
0.389069 -0.049166 -0.195936
0.389215 -0.048204 -0.198727
0.388366 -0.046274 -0.202727
0.388513 -0.045306 -0.205534
0.387660 -0.043364 -0.209560
0.387806 -0.042390 -0.212383
0.386949 -0.040436 -0.216435
0.387095 -0.039456 -0.219274
0.386234 -0.037490 -0.223353
0.384358 -0.034525 -0.228694
0.381451 -0.030543 -0.235325
0.378520 -0.026528 -0.242012
0.375564 -0.022479 -0.248755
0.369446 -0.015311 -0.259453
0.340390 0.014461 -0.298774
0.272763 0.082328 -0.386457
0.275326 0.081080 -0.386693
0.276622 0.081080 -0.388510
0.279177 0.079835 -0.388744
0.280473 0.079835 -0.390558
0.281768 0.079835 -0.392373
0.284314 0.078593 -0.392602
0.285608 0.078593 -0.394415
0.286901 0.078593 -0.396228
0.289439 0.077354 -0.396452
0.290731 0.077354 -0.398262
0.292023 0.077354 -0.400073
0.294551 0.076117 -0.400292
0.295842 0.076117 -0.402101
0.298363 0.074884 -0.402317
0.299652 0.074884 -0.404124
0.300942 0.074884 -0.405930
0.303454 0.073653 -0.406142
0.304741 0.073653 -0.407947
0.307246 0.072425 -0.408156
0.308533 0.072425 -0.409958
0.309819 0.072425 -0.411761
0.312315 0.071201 -0.411965
0.313600 0.071201 -0.413766
0.314884 0.071201 -0.415566
0.317372 0.069978 -0.415766
0.318655 0.069978 -0.417564
0.319938 0.069978 -0.419362
0.322417 0.068759 -0.419558
0.322505 0.069978 -0.422959
0.324980 0.068759 -0.423150
0.326262 0.068759 -0.424946
0.327544 0.068759 -0.426742
0.330011 0.067543 -0.426929
0.332472 0.066329 -0.427115
0.332572 0.067543 -0.430517
0.333852 0.067543 -0.432311
0.335132 0.067543 -0.434105
0.336413 0.067543 -0.435899
0.337693 0.067543 -0.437693
0.338973 0.067543 -0.439487
0.340253 0.067543 -0.441281
0.341534 0.067543 -0.443075
0.342814 0.067543 -0.444869
0.344094 0.067543 -0.446663
0.345375 0.067543 -0.448457
0.346655 0.067543 -0.450251
0.347935 0.067543 -0.452045
0.349216 0.067543 -0.453839
0.350496 0.067543 -0.455633
0.351776 0.067543 -0.457427
0.351898 0.068759 -0.460868
0.353180 0.068759 -0.462664
0.354461 0.068759 -0.464460
0.354586 0.069978 -0.467913
0.354711 0.071201 -0.471374
0.354837 0.072425 -0.474843
0.012835 -0.111838 0.493901
0.019028 -0.115179 0.494226
0.020089 -0.115179 0.492740
0.021149 -0.115179 0.491254
0.022210 -0.115179 0.489769
0.023270 -0.115179 0.488283
0.024330 -0.115179 0.486797
0.025391 -0.115179 0.485311
0.026451 -0.115179 0.483825
0.028780 -0.116011 0.482802
0.029839 -0.116011 0.481318
0.030898 -0.116011 0.479833
0.031958 -0.116011 0.478349
0.033017 -0.116011 0.476864
0.034076 -0.116011 0.475380
0.035136 -0.116011 0.473895
0.036195 -0.116011 0.472411
0.037255 -0.116011 0.470927
0.037055 -0.115179 0.468966
0.038116 -0.115179 0.467480
0.039176 -0.115179 0.465994
0.040236 -0.115179 0.464508
0.041297 -0.115179 0.463022
0.042357 -0.115179 0.461536
0.043418 -0.115179 0.460050
0.043224 -0.114346 0.458078
0.044285 -0.114346 0.456590
0.046599 -0.115179 0.455593
0.047659 -0.115179 0.454107
0.048720 -0.115179 0.452621
0.048531 -0.114346 0.450641
0.049592 -0.114346 0.449154
0.050654 -0.114346 0.447666
0.050467 -0.113512 0.445680
0.051529 -0.113512 0.444191
0.052591 -0.113512 0.442702
0.053654 -0.113512 0.441213
0.054716 -0.113512 0.439725
0.055779 -0.113512 0.438236
0.055596 -0.112676 0.436238
0.057904 -0.113512 0.435259
0.057723 -0.112676 0.433258
0.058787 -0.112676 0.431768
0.058607 -0.111838 0.429762
0.059672 -0.111838 0.428271
0.060736 -0.111838 0.426779
0.060558 -0.110999 0.424767
0.061624 -0.110999 0.423274
0.063929 -0.111838 0.422304
0.063755 -0.110999 0.420288
0.064820 -0.110999 0.418795
0.065886 -0.110999 0.417302
0.065713 -0.110158 0.415278
0.066779 -0.110158 0.413784
0.067846 -0.110158 0.412289
0.068912 -0.110158 0.410795
0.068742 -0.109316 0.408763
0.069809 -0.109316 0.407267
0.069639 -0.108472 0.405230
0.070708 -0.108472 0.403733
0.071776 -0.108472 0.402236
0.071608 -0.107626 0.400192
0.073914 -0.108472 0.399241
0.073748 -0.107626 0.397194
0.074817 -0.107626 0.395696
0.075887 -0.107626 0.394197
0.075723 -0.106779 0.392143
0.076793 -0.106779 0.390643
0.076630 -0.105930 0.388584
0.077701 -0.105930 0.387083
0.077539 -0.105079 0.385018
0.078611 -0.105079 0.383515
0.078449 -0.104227 0.381446
0.079523 -0.104227 0.379941
0.079362 -0.103373 0.377866
0.079200 -0.102518 0.375787
0.079038 -0.101660 0.373703
0.078876 -0.100801 0.371616
0.079954 -0.100801 0.370106
0.079792 -0.099941 0.368013
0.079630 -0.099079 0.365916
0.079468 -0.098215 0.363815
0.080549 -0.098215 0.362300
0.080388 -0.097349 0.360194
0.081470 -0.097349 0.358677
0.081309 -0.096482 0.356565
0.081148 -0.095613 0.354449
0.080987 -0.094742 0.352329
0.079576 -0.092996 0.349599
0.079413 -0.092120 0.347468
0.079249 -0.091243 0.345333
0.079085 -0.090364 0.343193
0.078921 -0.089483 0.341049
0.078756 -0.088600 0.338901
0.078591 -0.087716 0.336749
0.078426 -0.086829 0.334592
0.078260 -0.085941 0.332431
0.076830 -0.084160 0.329635
0.075394 -0.082372 0.326829
0.075225 -0.081476 0.324649
0.073781 -0.079677 0.321824
0.068484 -0.075148 0.317043
0.342843 -0.256675 0.421806
0.353365 -0.263616 0.425767
0.362127 -0.269300 0.428807
0.369211 -0.273783 0.430962
0.370849 -0.274339 0.430166
0.373252 -0.275449 0.429792
0.375647 -0.276556 0.429419
0.377273 -0.277108 0.428628
0.379656 -0.278210 0.428257
0.381276 -0.278760 0.427469
0.383647 -0.279856 0.427101
0.385260 -0.280403 0.426315
0.386870 -0.280949 0.425531
0.387729 -0.280949 0.424328
0.389336 -0.281495 0.423545
0.390195 -0.281495 0.422343
0.391053 -0.281495 0.421140
0.391911 -0.281495 0.419938
0.393514 -0.282039 0.419159
0.394371 -0.282039 0.417958
0.395228 -0.282039 0.416756
0.396086 -0.282039 0.415555
0.396943 -0.282039 0.414353
0.397801 -0.282039 0.413152
0.398658 -0.282039 0.411950
0.398035 -0.280949 0.409887
0.398152 -0.280403 0.408250
0.398270 -0.279856 0.406611
0.398388 -0.279308 0.404970
0.397761 -0.278210 0.402887
0.397879 -0.277660 0.401239
0.397251 -0.276556 0.399146
0.397368 -0.276003 0.397491
0.397486 -0.275449 0.395834
0.396855 -0.274339 0.393726
0.396222 -0.273225 0.391611
0.396339 -0.272667 0.389943
0.394950 -0.270987 0.387362
0.394311 -0.269863 0.385228
0.393670 -0.268735 0.383086
0.393027 -0.267604 0.380938
0.393142 -0.267037 0.379248
0.392497 -0.265900 0.377089
0.391849 -0.264760 0.374923
0.391965 -0.264188 0.373222
0.391315 -0.263042 0.371044
0.390663 -0.261893 0.368860
0.390778 -0.261317 0.367147
0.390123 -0.260162 0.364951
0.389467 -0.259004 0.362749
0.389581 -0.258423 0.361024
0.388922 -0.257259 0.358810
0.388261 -0.256091 0.356589
0.388375 -0.255506 0.354852
0.387712 -0.254332 0.352619
0.387046 -0.253155 0.350379
0.386379 -0.251974 0.348132
0.386491 -0.251382 0.346378
0.385821 -0.250195 0.344119
0.385149 -0.249005 0.341853
0.385261 -0.248408 0.340087
0.384586 -0.247212 0.337809
0.383909 -0.246011 0.335523
0.383230 -0.244807 0.333230
0.382549 -0.243599 0.330929
0.381865 -0.242387 0.328620
0.381976 -0.241780 0.326828
0.381289 -0.240562 0.324508
0.380601 -0.239340 0.322179
0.380711 -0.238727 0.320375
0.380020 -0.237499 0.318034
0.379326 -0.236267 0.315686
0.378630 -0.235031 0.313329
0.378739 -0.234412 0.311507
0.378041 -0.233170 0.309138
0.377340 -0.231923 0.306761
0.377449 -0.231299 0.304926
0.376745 -0.230046 0.302536
0.376039 -0.228790 0.300139
0.376147 -0.228160 0.298290
0.375439 -0.226897 0.295880
0.374728 -0.225630 0.293461
0.374835 -0.224995 0.291599
0.374121 -0.223721 0.289167
0.373405 -0.222444 0.286727
0.372687 -0.221162 0.284279
0.371966 -0.219875 0.281823
0.371242 -0.218585 0.279358
0.371348 -0.217938 0.277467
0.369788 -0.215990 0.274404
0.369058 -0.214687 0.271914
0.368325 -0.213378 0.269416
0.367589 -0.212066 0.266909
0.366851 -0.210749 0.264394
0.366953 -0.210088 0.262471
0.366212 -0.208765 0.259942
0.365469 -0.207436 0.257404
0.363022 -0.204766 0.253636
0.357121 -0.199370 0.247364
0.153602 -0.038214 0.098232
0.156004 -0.039198 0.097520
0.159642 -0.041161 0.097711
0.163265 -0.043115 0.097901
0.165645 -0.044089 0.097193
0.169244 -0.046032 0.097384
0.171610 -0.047000 0.096678
0.173971 -0.047966 0.095973
0.177539 -0.049893 0.096166
0.179887 -0.050853 0.095464
0.182230 -0.051811 0.094764
0.184568 -0.052768 0.094065
0.188096 -0.054675 0.094260
0.190421 -0.055625 0.093564
0.192741 -0.056574 0.092869
0.195057 -0.057521 0.092176
0.198546 -0.059408 0.092374
0.199674 -0.059408 0.090793
0.201975 -0.060349 0.090104
0.204272 -0.061288 0.089416
0.205398 -0.061288 0.087838
0.207689 -0.062225 0.087153
0.209976 -0.063160 0.086470
0.212257 -0.064094 0.085788
0.214534 -0.065025 0.085107
0.216807 -0.065955 0.084428
0.217927 -0.065955 0.082858
0.220194 -0.066883 0.082182
0.221313 -0.066883 0.080614
0.222432 -0.066883 0.079046
0.224692 -0.067808 0.078374
0.225810 -0.067808 0.076807
0.228065 -0.068732 0.076138
0.229182 -0.068732 0.074573
0.231431 -0.069654 0.073907
0.232546 -0.069654 0.072344
0.234789 -0.070575 0.071680
0.235904 -0.070575 0.070119
0.237019 -0.070575 0.068557
0.239255 -0.071493 0.067898
0.240369 -0.071493 0.066338
0.242599 -0.072410 0.065682
0.243712 -0.072410 0.064123
0.245937 -0.073324 0.063470
0.247048 -0.073324 0.061913
0.248160 -0.073324 0.060356
0.250378 -0.074237 0.059707
0.251488 -0.074237 0.058152
0.253701 -0.075148 0.057506
0.254811 -0.075148 0.055952
0.255920 -0.075148 0.054398
0.258126 -0.076058 0.053757
0.259234 -0.076058 0.052204
0.260342 -0.076058 0.050651
0.261450 -0.076058 0.049099
0.263649 -0.076965 0.048464
0.264755 -0.076965 0.046913
0.265862 -0.076965 0.045362
0.266969 -0.076965 0.043811
0.269160 -0.077871 0.043181
0.270266 -0.077871 0.041632
0.273529 -0.079677 0.041926
0.275707 -0.080577 0.041300
0.277881 -0.081476 0.040676
0.280050 -0.082372 0.040053
0.282215 -0.083267 0.039431
0.284376 -0.084160 0.038810
0.286533 -0.085052 0.038190
0.287630 -0.085052 0.036653
0.288727 -0.085052 0.035116
0.290877 -0.085941 0.034501
0.291973 -0.085941 0.032965
0.294118 -0.086829 0.032352
0.295212 -0.086829 0.030818
0.296307 -0.086829 0.029284
0.297402 -0.086829 0.027750
0.297453 -0.085941 0.025286
0.298548 -0.085941 0.023751
0.299644 -0.085941 0.022215
0.300740 -0.085941 0.020679
0.301836 -0.085941 0.019143
0.302932 -0.085941 0.017608
0.304028 -0.085941 0.016072
0.304085 -0.085052 0.013595
0.305182 -0.085052 0.012057
0.306279 -0.085052 0.010520
0.307376 -0.085052 0.008983
0.308473 -0.085052 0.007446
0.308535 -0.084160 0.004957
0.308596 -0.083267 0.002464
0.309696 -0.083267 0.000924
0.311829 -0.084160 0.000341
0.311894 -0.083267 -0.002157
0.311959 -0.082372 -0.004660
0.313059 -0.082372 -0.006202
0.313125 -0.081476 -0.008711
0.314227 -0.081476 -0.010254
0.315328 -0.081476 -0.011797
0.315397 -0.080577 -0.014315
0.316499 -0.080577 -0.015860
0.317602 -0.080577 -0.017405
0.319734 -0.081476 -0.017971
0.320835 -0.081476 -0.019514
0.321937 -0.081476 -0.021057
0.323038 -0.081476 -0.022601
0.324139 -0.081476 -0.024144
0.325241 -0.081476 -0.025687
0.326342 -0.081476 -0.027231
0.327443 -0.081476 -0.028774
0.328545 -0.081476 -0.030317
0.329646 -0.081476 -0.031861
0.330748 -0.081476 -0.033404
0.331849 -0.081476 -0.034947
0.332950 -0.081476 -0.036491
0.334052 -0.081476 -0.038034
0.335153 -0.081476 -0.039577
0.336255 -0.081476 -0.041121
0.337356 -0.081476 -0.042664
0.338457 -0.081476 -0.044207
0.339559 -0.081476 -0.045751
0.340660 -0.081476 -0.047294
0.341762 -0.081476 -0.048837
0.342863 -0.081476 -0.050381
0.344968 -0.082372 -0.050914
0.345066 -0.081476 -0.053467
0.346167 -0.081476 -0.055011
0.347269 -0.081476 -0.056554
0.348370 -0.081476 -0.058097
0.349471 -0.081476 -0.059641
0.350573 -0.081476 -0.061184
0.351674 -0.081476 -0.062727
0.352775 -0.081476 -0.064271
0.353877 -0.081476 -0.065814
0.354978 -0.081476 -0.067357
0.356080 -0.081476 -0.068901
0.357181 -0.081476 -0.070444
0.358282 -0.081476 -0.071987
0.359384 -0.081476 -0.073531
0.360485 -0.081476 -0.075074
0.361587 -0.081476 -0.076618
0.362688 -0.081476 -0.078161
0.363789 -0.081476 -0.079704
0.363906 -0.080577 -0.082289
0.365008 -0.080577 -0.083834
0.366111 -0.080577 -0.085379
0.367213 -0.080577 -0.086923
0.368316 -0.080577 -0.088468
0.369418 -0.080577 -0.090013
0.370521 -0.080577 -0.091558
0.371623 -0.080577 -0.093103
0.372726 -0.080577 -0.094648
0.372851 -0.079677 -0.097250
0.373955 -0.079677 -0.098796
0.375058 -0.079677 -0.100343
0.374209 -0.077871 -0.104019
0.375315 -0.077871 -0.105569
0.376420 -0.077871 -0.107118
0.377526 -0.077871 -0.108668
0.378632 -0.077871 -0.110217
0.378764 -0.076965 -0.112842
0.379871 -0.076965 -0.114393
0.380004 -0.076058 -0.117026
0.381112 -0.076058 -0.118578
0.381246 -0.075148 -0.121217
0.381381 -0.074237 -0.123862
0.382491 -0.074237 -0.125417
0.383601 -0.074237 -0.126973
0.383739 -0.073324 -0.129625
0.384850 -0.073324 -0.131183
0.384989 -0.072410 -0.133842
0.385128 -0.071493 -0.136507
0.385267 -0.070575 -0.139177
0.385406 -0.069654 -0.141853
0.386522 -0.069654 -0.143416
0.386663 -0.068732 -0.146099
0.386804 -0.067808 -0.148787
0.387922 -0.067808 -0.150353
0.388065 -0.066883 -0.153048
0.388208 -0.065955 -0.155749
0.388351 -0.065025 -0.158454
0.388494 -0.064094 -0.161166
0.388638 -0.063160 -0.163882
0.388782 -0.062225 -0.166605
0.389907 -0.062225 -0.168181
0.390052 -0.061288 -0.170910
0.389216 -0.059408 -0.174805
0.389361 -0.058465 -0.177549
0.389507 -0.057521 -0.180299
0.388666 -0.055625 -0.184228
0.388811 -0.054675 -0.186993
0.387966 -0.052768 -0.190949
0.388111 -0.051811 -0.193729
0.387262 -0.049893 -0.197710
0.387407 -0.048931 -0.200506
0.386554 -0.047000 -0.204514
0.386698 -0.046032 -0.207326
0.385841 -0.044089 -0.211359
0.385985 -0.043115 -0.214187
0.385124 -0.041161 -0.218248
0.385268 -0.040180 -0.221091
0.384402 -0.038214 -0.225179
0.381502 -0.034255 -0.231781
0.378577 -0.030264 -0.238439
0.375628 -0.026239 -0.245153
0.371612 -0.021161 -0.253213
0.363327 -0.011882 -0.266609
0.332795 0.019267 -0.307771
0.273104 0.079159 -0.385536
0.274401 0.079159 -0.387353
0.276958 0.077916 -0.387588
0.278254 0.077916 -0.389403
0.280804 0.076676 -0.389635
0.282097 0.076676 -0.391448
0.283391 0.076676 -0.393261
0.285933 0.075439 -0.393488
0.287225 0.075439 -0.395299
0.288517 0.075439 -0.397109
0.291049 0.074205 -0.397332
0.292340 0.074205 -0.399141
0.293631 0.074205 -0.400949
0.296154 0.072974 -0.401167
0.297444 0.072974 -0.402974
0.299960 0.071745 -0.403189
0.301248 0.071745 -0.404993
0.302535 0.071745 -0.406798
0.305043 0.070520 -0.407008
0.306329 0.070520 -0.408811
0.308829 0.069297 -0.409019
0.310114 0.069297 -0.410819
0.311398 0.069297 -0.412619
0.313890 0.068077 -0.412823
0.315173 0.068077 -0.414621
0.316456 0.068077 -0.416419
0.318939 0.066860 -0.416618
0.320221 0.066860 -0.418414
0.321503 0.066860 -0.420210
0.322784 0.066860 -0.422006
0.324066 0.066860 -0.423802
0.326537 0.065646 -0.423992
0.327817 0.065646 -0.425786
0.329098 0.065646 -0.427580
0.331560 0.064434 -0.427766
0.332839 0.064434 -0.429558
0.334118 0.064434 -0.431350
0.335397 0.064434 -0.433142
0.336676 0.064434 -0.434934
0.337954 0.064434 -0.436726
0.339233 0.064434 -0.438518
0.340512 0.064434 -0.440310
0.341791 0.064434 -0.442102
0.343070 0.064434 -0.443894
0.344349 0.064434 -0.445686
0.345627 0.064434 -0.447478
0.345742 0.065646 -0.450903
0.347022 0.065646 -0.452697
0.348302 0.065646 -0.454491
0.349583 0.065646 -0.456285
0.350863 0.065646 -0.458079
0.352143 0.065646 -0.459873
0.353424 0.065646 -0.461667
0.354704 0.065646 -0.463461
0.355984 0.065646 -0.465255
0.354954 0.068077 -0.470364
0.355080 0.069297 -0.473828
0.355206 0.070520 -0.477300
0.013363 -0.114252 0.493814
0.018272 -0.116751 0.493686
0.019332 -0.116751 0.492201
0.020393 -0.116751 0.490715
0.021453 -0.116751 0.489229
0.022514 -0.116751 0.487743
0.023574 -0.116751 0.486257
0.024634 -0.116751 0.484771
0.026964 -0.117580 0.483748
0.028024 -0.117580 0.482263
0.029083 -0.117580 0.480779
0.030143 -0.117580 0.479294
0.031202 -0.117580 0.477810
0.032261 -0.117580 0.476325
0.033321 -0.117580 0.474841
0.034380 -0.117580 0.473356
0.034178 -0.116751 0.471398
0.035238 -0.116751 0.469912
0.036299 -0.116751 0.468426
0.037359 -0.116751 0.466940
0.038420 -0.116751 0.465454
0.039480 -0.116751 0.463968
0.040540 -0.116751 0.462483
0.041601 -0.116751 0.460997
0.041405 -0.115919 0.459025
0.042467 -0.115919 0.457537
0.044782 -0.116751 0.456539
0.045842 -0.116751 0.455053
0.045651 -0.115919 0.453075
0.046712 -0.115919 0.451588
0.047774 -0.115919 0.450101
0.048835 -0.115919 0.448613
0.048646 -0.115086 0.446628
0.049709 -0.115086 0.445139
0.050771 -0.115086 0.443650
0.051834 -0.115086 0.442161
0.052896 -0.115086 0.440673
0.052711 -0.114252 0.438677
0.053774 -0.114252 0.437187
0.054838 -0.114252 0.435697
0.055901 -0.114252 0.434207
0.056965 -0.114252 0.432717
0.056783 -0.113416 0.430712
0.057848 -0.113416 0.429220
0.057667 -0.112578 0.427210
0.058733 -0.112578 0.425717
0.059798 -0.112578 0.424224
0.060864 -0.112578 0.422731
0.061929 -0.112578 0.421238
0.062995 -0.112578 0.419745
0.064060 -0.112578 0.418252
0.063885 -0.111739 0.416230
0.064952 -0.111739 0.414735
0.066018 -0.111739 0.413241
0.065845 -0.110898 0.411212
0.066913 -0.110898 0.409716
0.067980 -0.110898 0.408220
0.067809 -0.110055 0.406184
0.068877 -0.110055 0.404686
0.068706 -0.109211 0.402645
0.069776 -0.109211 0.401146
0.072083 -0.110055 0.400194
0.071915 -0.109211 0.398149
0.072985 -0.109211 0.396650
0.072818 -0.108365 0.394599
0.073888 -0.108365 0.393099
0.074959 -0.108365 0.391598
0.074794 -0.107518 0.389541
0.075865 -0.107518 0.388039
0.075701 -0.106669 0.385976
0.076774 -0.106669 0.384472
0.076610 -0.105818 0.382404
0.077683 -0.105818 0.380899
0.076281 -0.104112 0.378254
0.077357 -0.104112 0.376746
0.077193 -0.103256 0.374664
0.077029 -0.102399 0.372578
0.076865 -0.101540 0.370487
0.077944 -0.101540 0.368976
0.077780 -0.100679 0.366880
0.077616 -0.099817 0.364780
0.077452 -0.098953 0.362676
0.078534 -0.098953 0.361159
0.078370 -0.098087 0.359050
0.078207 -0.097220 0.356936
0.078042 -0.096350 0.354818
0.077878 -0.095480 0.352696
0.077713 -0.094607 0.350570
0.077548 -0.093733 0.348439
0.077382 -0.092857 0.346305
0.077217 -0.091980 0.344166
0.077051 -0.091100 0.342023
0.076884 -0.090219 0.339876
0.076717 -0.089336 0.337724
0.075287 -0.087565 0.334945
0.075118 -0.086677 0.332782
0.074949 -0.085788 0.330615
0.073509 -0.084003 0.327810
0.072064 -0.082211 0.324994
0.071891 -0.081312 0.322809
0.064002 -0.074971 0.316732
0.348662 -0.262625 0.424831
0.358276 -0.268900 0.428313
0.368497 -0.275624 0.432155
0.370134 -0.276178 0.431359
0.372536 -0.277285 0.430983
0.374930 -0.278388 0.430608
0.376556 -0.278938 0.429817
0.378938 -0.280036 0.429445
0.380557 -0.280584 0.428656
0.382928 -0.281677 0.428287
0.385292 -0.282766 0.427918
0.386150 -0.282766 0.426716
0.387757 -0.283310 0.425932
0.388614 -0.283310 0.424731
0.389472 -0.283310 0.423529
0.390329 -0.283310 0.422328
0.391932 -0.283853 0.421548
0.392789 -0.283853 0.420347
0.393646 -0.283853 0.419147
0.395244 -0.284394 0.418370
0.396101 -0.284394 0.417171
0.396957 -0.284394 0.415971
0.397813 -0.284394 0.414771
0.397930 -0.283853 0.413144
0.398047 -0.283310 0.411514
0.398164 -0.282766 0.409881
0.398281 -0.282222 0.408246
0.397656 -0.281131 0.406173
0.397774 -0.280584 0.404532
0.397891 -0.280036 0.402887
0.397263 -0.278938 0.400800
0.396634 -0.277837 0.398706
0.396003 -0.276732 0.396606
0.396119 -0.276178 0.394947
0.396236 -0.275624 0.393285
0.395602 -0.274512 0.391169
0.395719 -0.273955 0.389500
0.394328 -0.272278 0.386919
0.393688 -0.271156 0.384784
0.393804 -0.270593 0.383102
0.393162 -0.269466 0.380956
0.392518 -0.268334 0.378803
0.392633 -0.267768 0.377109
0.391223 -0.266061 0.374476
0.391337 -0.265491 0.372774
0.390687 -0.264347 0.370596
0.390034 -0.263200 0.368411
0.390148 -0.262625 0.366698
0.389493 -0.261472 0.364501
0.389607 -0.260894 0.362781
0.388949 -0.259736 0.360573
0.388289 -0.258574 0.358358
0.387627 -0.257408 0.356136
0.387741 -0.256824 0.354399
0.387076 -0.255653 0.352165
0.386410 -0.254478 0.349925
0.386522 -0.253889 0.348176
0.385853 -0.252708 0.345923
0.385182 -0.251523 0.343663
0.384509 -0.250335 0.341396
0.384620 -0.249739 0.339630
0.383945 -0.248545 0.337351
0.383266 -0.247347 0.335064
0.382586 -0.246145 0.332770
0.381904 -0.244939 0.330468
0.382014 -0.244335 0.328681
0.381329 -0.243123 0.326367
0.380642 -0.241907 0.324046
0.379952 -0.240687 0.321717
0.380062 -0.240076 0.319912
0.379369 -0.238850 0.317570
0.378675 -0.237621 0.315221
0.378784 -0.237004 0.313403
0.378086 -0.235768 0.311041
0.377387 -0.234528 0.308671
0.376685 -0.233284 0.306294
0.376793 -0.232661 0.304458
0.376088 -0.231411 0.302068
0.375382 -0.230156 0.299669
0.375489 -0.229528 0.297821
0.374779 -0.228267 0.295409
0.374886 -0.227635 0.293552
0.374174 -0.226368 0.291128
0.373459 -0.225097 0.288695
0.372742 -0.223822 0.286254
0.372022 -0.222542 0.283805
0.372128 -0.221900 0.281924
0.371405 -0.220614 0.279462
0.370680 -0.219324 0.276991
0.369119 -0.217380 0.273926
0.368388 -0.216078 0.271436
0.367653 -0.214773 0.268937
0.367756 -0.214118 0.267024
0.367019 -0.212806 0.264512
0.366279 -0.211489 0.261990
0.365537 -0.210167 0.259460
0.364792 -0.208841 0.256922
0.362344 -0.206176 0.253152
0.355574 -0.200111 0.246254
0.151526 -0.038939 0.096740
0.155182 -0.040906 0.096933
0.157579 -0.041887 0.096222
0.161210 -0.043842 0.096416
0.163594 -0.044816 0.095708
0.167202 -0.046759 0.095902
0.169573 -0.047728 0.095197
0.171938 -0.048694 0.094494
0.175514 -0.050621 0.094689
0.177866 -0.051582 0.093988
0.180213 -0.052540 0.093289
0.183758 -0.054452 0.093486
0.186092 -0.055404 0.092789
0.188421 -0.056355 0.092094
0.190746 -0.057304 0.091400
0.193066 -0.058251 0.090707
0.196562 -0.060139 0.090909
0.197692 -0.060139 0.089326
0.199997 -0.061080 0.088638
0.202298 -0.062019 0.087951
0.203426 -0.062019 0.086371
0.205721 -0.062957 0.085687
0.208012 -0.063892 0.085005
0.210298 -0.064825 0.084324
0.212579 -0.065757 0.083644
0.214856 -0.066687 0.082965
0.215977 -0.066687 0.081394
0.218248 -0.067615 0.080718
0.219369 -0.067615 0.079148
0.220489 -0.067615 0.077579
0.222753 -0.068541 0.076908
0.223872 -0.068541 0.075339
0.226131 -0.069465 0.074671
0.227249 -0.069465 0.073105
0.229502 -0.070387 0.072439
0.230619 -0.070387 0.070874
0.232866 -0.071308 0.070212
0.233982 -0.071308 0.068649
0.236224 -0.072226 0.067989
0.237338 -0.072226 0.066427
0.239574 -0.073143 0.065771
0.240688 -0.073143 0.064210
0.241801 -0.073143 0.062650
0.244031 -0.074058 0.061998
0.245143 -0.074058 0.060439
0.247367 -0.074971 0.059790
0.248478 -0.074971 0.058233
0.249590 -0.074971 0.056676
0.251807 -0.075882 0.056031
0.252917 -0.075882 0.054475
0.254027 -0.075882 0.052920
0.256238 -0.076792 0.052279
0.257347 -0.076792 0.050725
0.259552 -0.077699 0.050087
0.260660 -0.077699 0.048535
0.261768 -0.077699 0.046982
0.262876 -0.077699 0.045430
0.265073 -0.078605 0.044798
0.266180 -0.078605 0.043247
0.267287 -0.078605 0.041696
0.268393 -0.078605 0.040145
0.269500 -0.078605 0.038594
0.271689 -0.079509 0.037970
0.274949 -0.081312 0.038271
0.277126 -0.082211 0.037649
0.279298 -0.083108 0.037029
0.281466 -0.084003 0.036409
0.283630 -0.084896 0.035791
0.285789 -0.085788 0.035173
0.286887 -0.085788 0.033635
0.287985 -0.085788 0.032096
0.290138 -0.086677 0.031483
0.291235 -0.086677 0.029946
0.293383 -0.087565 0.029336
0.294479 -0.087565 0.027800
0.295575 -0.087565 0.026264
0.295623 -0.086677 0.023797
0.296721 -0.086677 0.022260
0.297818 -0.086677 0.020722
0.298915 -0.086677 0.019185
0.300012 -0.086677 0.017648
0.301109 -0.086677 0.016111
0.302206 -0.086677 0.014573
0.303303 -0.086677 0.013036
0.303359 -0.085788 0.010553
0.304457 -0.085788 0.009015
0.305555 -0.085788 0.007476
0.306653 -0.085788 0.005937
0.306713 -0.084896 0.003445
0.307812 -0.084896 0.001904
0.307873 -0.084003 -0.000594
0.310011 -0.084896 -0.001176
0.310074 -0.084003 -0.003678
0.310137 -0.083108 -0.006185
0.311238 -0.083108 -0.007728
0.312340 -0.083108 -0.009271
0.312405 -0.082211 -0.011786
0.313508 -0.082211 -0.013331
0.314610 -0.082211 -0.014876
0.315713 -0.082211 -0.016421
0.316815 -0.082211 -0.017966
0.317918 -0.082211 -0.019511
0.319020 -0.082211 -0.021055
0.320123 -0.082211 -0.022600
0.321225 -0.082211 -0.024145
0.322328 -0.082211 -0.025690
0.323430 -0.082211 -0.027235
0.324533 -0.082211 -0.028780
0.326658 -0.083108 -0.029335
0.327759 -0.083108 -0.030878
0.328861 -0.083108 -0.032421
0.329962 -0.083108 -0.033965
0.331063 -0.083108 -0.035508
0.332165 -0.083108 -0.037051
0.333266 -0.083108 -0.038595
0.334368 -0.083108 -0.040138
0.335469 -0.083108 -0.041681
0.336570 -0.083108 -0.043225
0.337672 -0.083108 -0.044768
0.338773 -0.083108 -0.046311
0.339875 -0.083108 -0.047855
0.340976 -0.083108 -0.049398
0.342077 -0.083108 -0.050941
0.343179 -0.083108 -0.052485
0.344280 -0.083108 -0.054028
0.345381 -0.083108 -0.055571
0.346483 -0.083108 -0.057115
0.347584 -0.083108 -0.058658
0.347685 -0.082211 -0.061222
0.348787 -0.082211 -0.062767
0.349890 -0.082211 -0.064312
0.350992 -0.082211 -0.065857
0.352095 -0.082211 -0.067401
0.353197 -0.082211 -0.068946
0.354300 -0.082211 -0.070491
0.355402 -0.082211 -0.072036
0.356505 -0.082211 -0.073581
0.357607 -0.082211 -0.075126
0.358710 -0.082211 -0.076671
0.359812 -0.082211 -0.078216
0.360915 -0.082211 -0.079760
0.362017 -0.082211 -0.081305
0.363120 -0.082211 -0.082850
0.364222 -0.082211 -0.084395
0.365324 -0.082211 -0.085940
0.366427 -0.082211 -0.087485
0.367529 -0.082211 -0.089030
0.367650 -0.081312 -0.091626
0.368753 -0.081312 -0.093173
0.369857 -0.081312 -0.094719
0.370961 -0.081312 -0.096265
0.370103 -0.079509 -0.099934
0.371209 -0.079509 -0.101483
0.372314 -0.079509 -0.103033
0.373420 -0.079509 -0.104582
0.373547 -0.078605 -0.107202
0.374654 -0.078605 -0.108753
0.375760 -0.078605 -0.110304
0.376867 -0.078605 -0.111855
0.377974 -0.078605 -0.113406
0.378105 -0.077699 -0.116037
0.379213 -0.077699 -0.117590
0.379346 -0.076792 -0.120228
0.380455 -0.076792 -0.121782
0.380589 -0.075882 -0.124427
0.380723 -0.074971 -0.127077
0.381835 -0.074971 -0.128634
0.381970 -0.074058 -0.131291
0.383083 -0.074058 -0.132850
0.384195 -0.074058 -0.134408
0.383357 -0.072226 -0.138183
0.384472 -0.072226 -0.139745
0.384610 -0.071308 -0.142421
0.384749 -0.070387 -0.145102
0.385866 -0.070387 -0.146667
0.386007 -0.069465 -0.149356
0.386147 -0.068541 -0.152050
0.386288 -0.067615 -0.154749
0.387409 -0.067615 -0.156319
0.387551 -0.066687 -0.159025
0.387694 -0.065757 -0.161737
0.387837 -0.064825 -0.164454
0.387980 -0.063892 -0.167177
0.388123 -0.062957 -0.169905
0.388267 -0.062019 -0.172639
0.388411 -0.061080 -0.175379
0.387570 -0.059196 -0.179290
0.387714 -0.058251 -0.182045
0.386868 -0.056355 -0.185982
0.387012 -0.055404 -0.188752
0.386162 -0.053497 -0.192714
0.386306 -0.052540 -0.195500
0.386449 -0.051582 -0.198291
0.385595 -0.049659 -0.202289
0.385738 -0.048694 -0.205096
0.384880 -0.046759 -0.209121
0.385023 -0.045789 -0.211943
0.384161 -0.043842 -0.215995
0.383295 -0.041887 -0.220064
0.383437 -0.040906 -0.222912
0.380535 -0.036963 -0.229498
0.378634 -0.033985 -0.234880
0.375691 -0.029984 -0.241565
0.372723 -0.025950 -0.248306
0.368683 -0.020858 -0.256401
0.356068 -0.007366 -0.275177
0.270882 0.077237 -0.384379
0.273444 0.075997 -0.384617
0.274739 0.075997 -0.386432
0.276034 0.075997 -0.388247
0.278587 0.074759 -0.388481
0.279881 0.074759 -0.390294
0.282426 0.073524 -0.390524
0.283719 0.073524 -0.392335
0.285011 0.073524 -0.394146
0.287547 0.072292 -0.394372
0.288838 0.072292 -0.396180
0.290129 0.072292 -0.397989
0.292656 0.071063 -0.398210
0.293946 0.071063 -0.400017
0.296466 0.069837 -0.400236
0.297754 0.069837 -0.402040
0.299041 0.069837 -0.403844
0.301553 0.068614 -0.404058
0.302839 0.068614 -0.405861
0.304125 0.068614 -0.407663
0.306628 0.067393 -0.407873
0.307913 0.067393 -0.409673
0.310408 0.066175 -0.409880
0.311691 0.066175 -0.411678
0.312975 0.066175 -0.413476
0.315461 0.064961 -0.413678
0.316743 0.064961 -0.415474
0.318025 0.064961 -0.417270
0.320503 0.063748 -0.417468
0.321783 0.063748 -0.419262
0.323063 0.063748 -0.421056
0.324344 0.063748 -0.422850
0.325624 0.063748 -0.424644
0.328090 0.062539 -0.424833
0.329369 0.062539 -0.426625
0.330648 0.062539 -0.428417
0.333106 0.061333 -0.428601
0.334383 0.061333 -0.430391
0.335661 0.061333 -0.432181
0.336938 0.061333 -0.433971
0.338215 0.061333 -0.435761
0.339493 0.061333 -0.437551
0.340770 0.061333 -0.439341
0.342047 0.061333 -0.441131
0.343325 0.061333 -0.442920
0.344602 0.061333 -0.444710
0.344715 0.062539 -0.448128
0.345994 0.062539 -0.449920
0.347273 0.062539 -0.451712
0.348552 0.062539 -0.453504
0.349831 0.062539 -0.455296
0.351109 0.062539 -0.457088
0.352388 0.062539 -0.458880
0.353667 0.062539 -0.460672
0.354946 0.062539 -0.462464
0.356225 0.062539 -0.464256
0.356351 0.063748 -0.467701
0.355322 0.066175 -0.472816
0.355448 0.067393 -0.476282
0.008960 -0.114157 0.493854
0.013891 -0.116661 0.493727
0.017516 -0.118322 0.493147
0.018576 -0.118322 0.491661
0.019636 -0.118322 0.490175
0.020697 -0.118322 0.488689
0.021757 -0.118322 0.487203
0.022818 -0.118322 0.485717
0.025149 -0.119150 0.484693
0.026209 -0.119150 0.483208
0.027268 -0.119150 0.481724
0.028328 -0.119150 0.480239
0.029387 -0.119150 0.478755
0.030446 -0.119150 0.477270
0.031506 -0.119150 0.475786
0.031301 -0.118322 0.473830
0.032361 -0.118322 0.472344
0.033422 -0.118322 0.470858
0.034482 -0.118322 0.469372
0.035542 -0.118322 0.467886
0.036603 -0.118322 0.466400
0.037663 -0.118322 0.464915
0.038724 -0.118322 0.463429
0.038525 -0.117492 0.461459
0.039587 -0.117492 0.459972
0.040648 -0.117492 0.458484
0.042965 -0.118322 0.457485
0.044026 -0.118322 0.455999
0.043832 -0.117492 0.454022
0.044894 -0.117492 0.452535
0.045955 -0.117492 0.451048
0.045764 -0.116661 0.449064
0.046826 -0.116661 0.447576
0.047889 -0.116661 0.446087
0.048951 -0.116661 0.444598
0.050013 -0.116661 0.443109
0.051076 -0.116661 0.441621
0.050889 -0.115828 0.439626
0.051952 -0.115828 0.438136
0.053016 -0.115828 0.436646
0.052831 -0.114993 0.434645
0.053895 -0.114993 0.433153
0.054960 -0.114993 0.431662
0.056024 -0.114993 0.430170
0.055842 -0.114157 0.428161
0.056907 -0.114157 0.426668
0.057973 -0.114157 0.425175
0.059038 -0.114157 0.423682
0.060104 -0.114157 0.422189
0.061169 -0.114157 0.420696
0.060992 -0.113319 0.418676
0.062058 -0.113319 0.417181
0.063125 -0.113319 0.415687
0.064191 -0.113319 0.414192
0.064016 -0.112480 0.412164
0.065084 -0.112480 0.410668
0.066151 -0.112480 0.409172
0.065978 -0.111639 0.407137
0.067046 -0.111639 0.405640
0.066874 -0.110796 0.403599
0.069184 -0.111639 0.402645
0.070252 -0.111639 0.401148
0.070083 -0.110796 0.399103
0.071152 -0.110796 0.397604
0.070983 -0.109952 0.395554
0.072054 -0.109952 0.394054
0.071886 -0.109106 0.391998
0.072958 -0.109106 0.390497
0.074029 -0.109106 0.388995
0.073863 -0.108258 0.386933
0.074936 -0.108258 0.385429
0.074770 -0.107409 0.383362
0.074604 -0.106558 0.381290
0.074438 -0.105706 0.379214
0.074271 -0.104852 0.377134
0.075348 -0.104852 0.375625
0.075182 -0.103996 0.373540
0.075016 -0.103138 0.371450
0.074850 -0.102279 0.369357
0.075930 -0.102279 0.367843
0.075764 -0.101418 0.365744
0.075598 -0.100556 0.363641
0.075432 -0.099692 0.361534
0.076515 -0.099692 0.360016
0.076349 -0.098826 0.357903
0.076183 -0.097959 0.355786
0.076017 -0.097089 0.353665
0.075850 -0.096218 0.351540
0.075683 -0.095346 0.349410
0.075516 -0.094471 0.347277
0.075348 -0.093595 0.345139
0.073919 -0.091838 0.342382
0.073750 -0.090957 0.340233
0.073579 -0.090074 0.338080
0.073409 -0.089189 0.335922
0.073238 -0.088303 0.333761
0.071797 -0.086525 0.330965
0.070349 -0.084740 0.328158
0.070175 -0.083844 0.325978
0.067438 -0.081148 0.322511
0.059502 -0.074793 0.316419
0.344736 -0.262205 0.424322
0.355198 -0.269066 0.428243
0.364688 -0.275242 0.431672
0.369420 -0.278014 0.432549
0.371821 -0.279117 0.432172
0.374215 -0.280217 0.431796
0.375840 -0.280765 0.431004
0.378222 -0.281859 0.430630
0.379840 -0.282405 0.429841
0.382210 -0.283495 0.429470
0.384573 -0.284580 0.429101
0.386180 -0.285122 0.428316
0.387037 -0.285122 0.427115
0.388641 -0.285663 0.426332
0.389497 -0.285663 0.425133
0.390353 -0.285663 0.423933
0.391209 -0.285663 0.422733
0.392065 -0.285663 0.421534
0.393664 -0.286203 0.420756
0.394520 -0.286203 0.419557
0.395375 -0.286203 0.418358
0.396231 -0.286203 0.417160
0.397086 -0.286203 0.415961
0.397942 -0.286203 0.414762
0.398058 -0.285663 0.413136
0.397435 -0.284580 0.411077
0.397552 -0.284038 0.409444
0.397669 -0.283495 0.407809
0.397043 -0.282405 0.405736
0.397160 -0.281859 0.404094
0.396531 -0.280765 0.402010
0.396648 -0.280217 0.400361
0.396018 -0.279117 0.398267
0.395385 -0.278014 0.396166
0.395502 -0.277462 0.394506
0.394867 -0.276354 0.392394
0.394983 -0.275798 0.390727
0.395099 -0.275242 0.389058
0.393707 -0.273568 0.386476
0.393066 -0.272448 0.384340
0.393181 -0.271887 0.382657
0.392538 -0.270761 0.380510
0.391893 -0.269632 0.378357
0.392008 -0.269066 0.376663
0.391360 -0.267932 0.374498
0.390710 -0.266794 0.372326
0.390825 -0.266223 0.370622
0.390173 -0.265080 0.368438
0.388749 -0.263358 0.365770
0.388862 -0.262782 0.364051
0.388204 -0.261628 0.361847
0.388317 -0.261049 0.360122
0.387656 -0.259889 0.357906
0.387769 -0.259308 0.356173
0.387106 -0.258142 0.353946
0.386440 -0.256973 0.351712
0.386553 -0.256387 0.349967
0.385885 -0.255212 0.347721
0.385215 -0.254034 0.345467
0.384543 -0.252851 0.343207
0.384654 -0.252259 0.341445
0.383980 -0.251070 0.339173
0.383303 -0.249878 0.336893
0.383414 -0.249281 0.335119
0.381942 -0.247483 0.332310
0.381259 -0.246279 0.330008
0.381369 -0.245676 0.328220
0.380682 -0.244466 0.325906
0.379994 -0.243252 0.323583
0.380103 -0.242644 0.321783
0.379412 -0.241425 0.319448
0.378719 -0.240201 0.317106
0.378828 -0.239588 0.315293
0.378132 -0.238358 0.312938
0.377434 -0.237125 0.310575
0.376733 -0.235887 0.308205
0.376841 -0.235267 0.306373
0.376137 -0.234023 0.303990
0.375432 -0.232775 0.301599
0.375539 -0.232149 0.299755
0.374830 -0.230895 0.297351
0.374120 -0.229637 0.294938
0.374226 -0.229006 0.293081
0.373513 -0.227742 0.290656
0.372797 -0.226473 0.288222
0.372902 -0.225837 0.286351
0.372184 -0.224561 0.283905
0.371463 -0.223282 0.281450
0.370739 -0.221998 0.278986
0.370013 -0.220710 0.276515
0.368451 -0.218770 0.273449
0.368554 -0.218121 0.271547
0.367820 -0.216819 0.269050
0.367084 -0.215514 0.266545
0.366346 -0.214204 0.264031
0.365605 -0.212889 0.261509
0.365707 -0.212230 0.259582
0.364963 -0.210909 0.257046
0.360812 -0.206918 0.252054
0.354890 -0.201532 0.245765
0.149447 -0.039666 0.095244
0.153110 -0.041633 0.095440
0.156758 -0.043593 0.095636
0.159151 -0.044570 0.094928
0.161540 -0.045545 0.094221
0.165155 -0.047488 0.094418
0.167530 -0.048457 0.093714
0.171123 -0.050388 0.093912
0.173484 -0.051351 0.093210
0.175841 -0.052312 0.092510
0.178193 -0.053271 0.091811
0.181745 -0.055182 0.092012
0.184083 -0.056135 0.091316
0.186417 -0.057086 0.090621
0.188746 -0.058035 0.089928
0.192259 -0.059928 0.090131
0.193390 -0.059928 0.088545
0.195705 -0.060871 0.087856
0.198015 -0.061812 0.087169
0.200321 -0.062752 0.086483
0.202622 -0.063689 0.085798
0.203749 -0.063689 0.084218
0.206044 -0.064625 0.083537
0.208334 -0.065559 0.082856
0.210620 -0.066490 0.082177
0.212901 -0.067420 0.081499
0.215177 -0.068349 0.080823
0.216299 -0.068349 0.079252
