ply
format ascii 1.0
element vertex 1667
property float x
property float y
property float z
end_header
-0.472566 0.098594 -0.382700
-0.474032 0.098511 -0.381102
-0.476680 0.098347 -0.379471
-0.476955 0.098347 -0.377912
-0.478413 0.098266 -0.376321
-0.478688 0.098266 -0.374764
-0.480143 0.098184 -0.373178
-0.481596 0.098103 -0.371593
-0.481870 0.098103 -0.370039
-0.483321 0.098021 -0.368459
-0.483595 0.098021 -0.366906
-0.485043 0.097940 -0.365329
-0.485316 0.097940 -0.363777
-0.485590 0.097940 -0.362225
-0.487035 0.097859 -0.360654
-0.487308 0.097859 -0.359103
-0.487582 0.097859 -0.357553
-0.487855 0.097859 -0.356002
-0.488128 0.097859 -0.354451
-0.488402 0.097859 -0.352901
-0.489843 0.097778 -0.351339
-0.490117 0.097778 -0.349789
-0.490390 0.097778 -0.348240
-0.490663 0.097778 -0.346690
-0.490936 0.097778 -0.345141
-0.491209 0.097778 -0.343592
-0.492647 0.097697 -0.342038
-0.492920 0.097697 -0.340490
-0.493193 0.097697 -0.338942
-0.493466 0.097697 -0.337394
-0.493739 0.097697 -0.335846
-0.494012 0.097697 -0.334298
-0.494285 0.097697 -0.332750
-0.494558 0.097697 -0.331202
-0.494831 0.097697 -0.329654
-0.495104 0.097697 -0.328105
-0.495377 0.097697 -0.326557
-0.495650 0.097697 -0.325009
-0.495923 0.097697 -0.323461
-0.496196 0.097697 -0.321913
-0.496469 0.097697 -0.320365
-0.496742 0.097697 -0.318817
-0.497015 0.097697 -0.317269
-0.497288 0.097697 -0.315721
-0.497561 0.097697 -0.314173
-0.497834 0.097697 -0.312624
-0.498107 0.097697 -0.311076
-0.498380 0.097697 -0.309528
-0.498653 0.097697 -0.307980
-0.498926 0.097697 -0.306432
-0.498039 0.097778 -0.304857
-0.498313 0.097778 -0.303308
-0.498586 0.097778 -0.301759
-0.498859 0.097778 -0.300209
-0.499132 0.097778 -0.298660
-0.499405 0.097778 -0.297111
-0.499678 0.097778 -0.295561
-0.498792 0.097859 -0.293976
-0.499065 0.097859 -0.292426
-0.498178 0.097940 -0.290837
-0.498451 0.097940 -0.289285
-0.498725 0.097940 -0.287733
-0.497836 0.098021 -0.286139
-0.498110 0.098021 -0.284586
-0.498384 0.098021 -0.283033
-0.497494 0.098103 -0.281433
-0.497768 0.098103 -0.279879
-0.496877 0.098184 -0.278276
-0.497151 0.098184 -0.276720
-0.496259 0.098266 -0.275113
-0.496534 0.098266 -0.273556
-0.495640 0.098347 -0.271945
-0.494745 0.098429 -0.270331
-0.493848 0.098511 -0.268715
-0.492950 0.098594 -0.267096
-0.492051 0.098676 -0.265474
-0.491150 0.098758 -0.263850
-0.490247 0.098841 -0.262223
-0.489343 0.098923 -0.260593
-0.488438 0.099006 -0.258961
-0.488715 0.099006 -0.257392
-0.487808 0.099089 -0.255755
-0.486899 0.099172 -0.254116
-0.484801 0.099339 -0.252403
-0.482695 0.099506 -0.250685
-0.479384 0.099758 -0.248887
-0.477260 0.099927 -0.247155
-0.473921 0.100180 -0.245340
-0.470566 0.100436 -0.243516
-0.467193 0.100692 -0.241683
-0.463803 0.100950 -0.239840
-0.460396 0.101209 -0.237988
-0.456971 0.101470 -0.236127
-0.415192 0.104426 -0.231545
-0.415483 0.104426 -0.229891
-0.415775 0.104426 -0.228237
-0.414755 0.104518 -0.226485
-0.415047 0.104518 -0.224830
-0.415339 0.104518 -0.223174
-0.414317 0.104610 -0.221417
-0.414609 0.104610 -0.219760
-0.413586 0.104703 -0.217998
-0.413879 0.104703 -0.216339
-0.412854 0.104796 -0.214573
-0.414464 0.104703 -0.213023
-0.413439 0.104796 -0.211253
-0.413732 0.104796 -0.209593
-0.412706 0.104888 -0.207819
-0.412999 0.104888 -0.206158
-0.413292 0.104888 -0.204497
-0.412265 0.104981 -0.202717
-0.412559 0.104981 -0.201054
-0.411530 0.105075 -0.199269
-0.411824 0.105075 -0.197605
-0.410793 0.105168 -0.195815
-0.411087 0.105168 -0.194150
-0.411381 0.105168 -0.192484
-0.410350 0.105262 -0.190689
-0.410644 0.105262 -0.189021
-0.409611 0.105355 -0.187221
-0.409905 0.105355 -0.185552
-0.410199 0.105355 -0.183884
-0.409165 0.105449 -0.182078
-0.408129 0.105543 -0.180268
-0.408424 0.105543 -0.178596
-0.408718 0.105543 -0.176925
-0.407681 0.105638 -0.175109
-0.407976 0.105638 -0.173436
-0.406937 0.105732 -0.171616
-0.407232 0.105732 -0.169941
-0.406192 0.105826 -0.168116
-0.406487 0.105826 -0.166440
-0.406783 0.105826 -0.164764
-0.405741 0.105921 -0.162932
-0.406037 0.105921 -0.161255
-0.404993 0.106016 -0.159419
-0.405289 0.106016 -0.157740
-0.405585 0.106016 -0.156060
-0.404540 0.106111 -0.154218
-0.403494 0.106206 -0.152373
-0.403790 0.106206 -0.150690
-0.404087 0.106206 -0.149008
-0.403039 0.106302 -0.147156
-0.403336 0.106302 -0.145473
-0.402286 0.106397 -0.143616
-0.402583 0.106397 -0.141931
-0.401532 0.106493 -0.140069
-0.401829 0.106493 -0.138383
-0.400777 0.106589 -0.136516
-0.401074 0.106589 -0.134828
-0.400020 0.106685 -0.132957
-0.400318 0.106685 -0.131267
-0.400616 0.106685 -0.129578
-0.399560 0.106781 -0.127700
-0.401211 0.106685 -0.126198
-0.400156 0.106781 -0.124318
-0.400454 0.106781 -0.122626
-0.399397 0.106878 -0.120741
-0.399696 0.106878 -0.119048
-0.398637 0.106974 -0.117158
-0.398936 0.106974 -0.115463
-0.399235 0.106974 -0.113769
-0.398175 0.107071 -0.111872
-0.398474 0.107071 -0.110176
-0.397412 0.107168 -0.108274
-0.397711 0.107168 -0.106577
-0.396648 0.107265 -0.104670
-0.396948 0.107265 -0.102971
-0.395883 0.107363 -0.101060
-0.396183 0.107363 -0.099359
-0.395116 0.107460 -0.097443
-0.394048 0.107558 -0.095522
-0.392977 0.107656 -0.093599
-0.393278 0.107656 -0.091894
-0.392206 0.107754 -0.089965
-0.391132 0.107852 -0.088033
-0.391433 0.107852 -0.086325
-0.390357 0.107950 -0.084387
-0.389280 0.108049 -0.082446
-0.389581 0.108049 -0.080735
-0.388502 0.108147 -0.078789
-0.387421 0.108246 -0.076840
-0.387723 0.108246 -0.075126
-0.386640 0.108345 -0.073171
-0.385555 0.108445 -0.071213
-0.385858 0.108445 -0.069495
-0.383379 0.108644 -0.067286
-0.382288 0.108744 -0.065317
-0.382592 0.108744 -0.063595
-0.381499 0.108844 -0.061621
-0.380405 0.108944 -0.059643
-0.379308 0.109044 -0.057662
-0.378209 0.109145 -0.055677
-0.378514 0.109145 -0.053949
-0.377414 0.109245 -0.051958
-0.376311 0.109346 -0.049965
-0.375207 0.109447 -0.047967
-0.374100 0.109549 -0.045966
-0.374406 0.109549 -0.044231
-0.373298 0.109650 -0.042225
-0.372188 0.109752 -0.040214
-0.371076 0.109854 -0.038201
-0.369961 0.109956 -0.036183
-0.368845 0.110058 -0.034162
-0.369152 0.110058 -0.032419
-0.368034 0.110160 -0.030392
-0.366913 0.110263 -0.028362
-0.365791 0.110366 -0.026328
-0.364667 0.110469 -0.024290
-0.363540 0.110572 -0.022248
-0.363849 0.110572 -0.020497
-0.362720 0.110675 -0.018450
-0.360148 0.110883 -0.016100
-0.359013 0.110987 -0.014043
-0.357876 0.111091 -0.011982
-0.356736 0.111195 -0.009917
-0.355595 0.111300 -0.007849
-0.354452 0.111404 -0.005776
-0.353306 0.111509 -0.003700
-0.352158 0.111614 -0.001620
-0.351008 0.111720 0.000465
-0.348389 0.111931 0.002872
-0.347233 0.112037 0.004966
-0.346074 0.112143 0.007065
-0.343435 0.112356 0.009494
-0.342270 0.112463 0.011602
-0.341102 0.112569 0.013715
-0.339932 0.112677 0.015831
-0.338759 0.112784 0.017952
-0.336092 0.112999 0.020415
-0.334913 0.113107 0.022546
-0.333731 0.113215 0.024681
-0.331044 0.113432 0.027167
-0.329855 0.113541 0.029312
-0.328664 0.113650 0.031462
-0.325958 0.113868 0.033970
-0.323241 0.114088 0.036488
-0.322037 0.114198 0.038655
-0.319305 0.114419 0.041190
-0.318094 0.114529 0.043367
-0.315347 0.114751 0.045918
-0.312588 0.114974 0.048478
-0.309819 0.115198 0.051049
-0.307038 0.115422 0.053629
-0.305806 0.115535 0.055838
-0.303010 0.115761 0.058435
-0.300203 0.115987 0.061043
-0.297385 0.116215 0.063661
-0.294556 0.116443 0.066289
-0.291716 0.116673 0.068927
-0.288865 0.116903 0.071575
-0.286002 0.117134 0.074234
-0.283129 0.117366 0.076904
-0.280244 0.117600 0.079584
-0.275730 0.117951 0.082690
-0.272816 0.118186 0.085395
-0.268258 0.118541 0.088534
-0.263672 0.118898 0.091693
-0.257404 0.119377 0.095303
-0.251086 0.119860 0.098942
-0.244716 0.120347 0.102611
-0.238294 0.120838 0.106310
-0.231820 0.121333 0.110039
-0.220108 0.122209 0.115187
-0.206464 0.123226 0.120884
-0.187201 0.124651 0.128133
0.215025 0.153930 0.239383
0.214596 0.153930 0.241818
0.216913 0.154130 0.245004
0.216484 0.154130 0.247441
0.218807 0.154330 0.250639
0.218376 0.154330 0.253079
0.220705 0.154531 0.256289
0.220274 0.154531 0.258732
0.222608 0.154733 0.261953
0.222176 0.154733 0.264400
0.224516 0.154935 0.267632
0.224084 0.154935 0.270082
0.226429 0.155137 0.273326
0.225996 0.155137 0.275779
0.228347 0.155340 0.279035
0.227914 0.155340 0.281491
0.230270 0.155543 0.284758
0.229836 0.155543 0.287218
0.232198 0.155748 0.290497
0.231763 0.155748 0.292960
0.234131 0.155952 0.296250
0.236504 0.156157 0.299550
-0.297014 0.107787 -0.483145
-0.306176 0.107192 -0.480618
-0.316687 0.106506 -0.477990
-0.322763 0.106117 -0.475771
-0.330221 0.105636 -0.473445
-0.336199 0.105254 -0.471261
-0.342134 0.104875 -0.469092
-0.348027 0.104498 -0.466939
-0.352493 0.104218 -0.464915
-0.356935 0.103939 -0.462901
-0.361354 0.103661 -0.460898
-0.365749 0.103385 -0.458906
-0.368764 0.103201 -0.457030
-0.373120 0.102928 -0.455057
-0.377454 0.102655 -0.453094
-0.380427 0.102475 -0.451241
-0.384722 0.102205 -0.449297
-0.388995 0.101936 -0.447363
-0.391927 0.101758 -0.445533
-0.396163 0.101492 -0.443617
-0.400376 0.101227 -0.441711
-0.403269 0.101051 -0.439904
-0.407446 0.100789 -0.438015
-0.410314 0.100614 -0.436222
-0.414455 0.100354 -0.434351
-0.417299 0.100181 -0.432572
-0.421404 0.099923 -0.430719
-0.424224 0.099752 -0.428953
-0.427034 0.099581 -0.427193
-0.428577 0.099496 -0.425515
-0.431372 0.099326 -0.423766
-0.432907 0.099241 -0.422094
-0.435688 0.099072 -0.420355
-0.437216 0.098988 -0.418691
-0.438741 0.098904 -0.417029
-0.441503 0.098736 -0.415305
-0.445488 0.098485 -0.413522
-0.446999 0.098402 -0.411873
-0.448506 0.098319 -0.410227
-0.451236 0.098153 -0.408524
-0.452736 0.098070 -0.406885
-0.454234 0.097988 -0.405248
-0.456945 0.097823 -0.403559
-0.458435 0.097741 -0.401930
-0.459923 0.097659 -0.400303
-0.461409 0.097577 -0.398679
-0.462892 0.097495 -0.397058
-0.464373 0.097413 -0.395439
-0.465851 0.097332 -0.393824
-0.466128 0.097332 -0.392256
-0.467603 0.097250 -0.390644
-0.469076 0.097169 -0.389035
-0.469352 0.097169 -0.387470
-0.470823 0.097088 -0.385865
-0.472291 0.097007 -0.384262
-0.472566 0.097007 -0.382700
-0.474032 0.096926 -0.381102
-0.476680 0.096765 -0.379471
-0.476955 0.096765 -0.377912
-0.478413 0.096685 -0.376321
-0.478688 0.096685 -0.374764
-0.480143 0.096604 -0.373178
-0.481596 0.096524 -0.371593
-0.481870 0.096524 -0.370039
-0.483321 0.096444 -0.368459
-0.483595 0.096444 -0.366906
-0.485043 0.096364 -0.365329
-0.485316 0.096364 -0.363777
-0.485590 0.096364 -0.362225
-0.485864 0.096364 -0.360673
-0.487308 0.096285 -0.359103
-0.487582 0.096285 -0.357553
-0.487855 0.096285 -0.356002
-0.488128 0.096285 -0.354451
-0.488402 0.096285 -0.352901
-0.489843 0.096205 -0.351339
-0.490117 0.096205 -0.349789
-0.490390 0.096205 -0.348240
-0.490663 0.096205 -0.346690
-0.490936 0.096205 -0.345141
-0.492374 0.096125 -0.343586
-0.492647 0.096125 -0.342038
-0.492920 0.096125 -0.340490
-0.493193 0.096125 -0.338942
-0.493466 0.096125 -0.337394
-0.493739 0.096125 -0.335846
-0.494012 0.096125 -0.334298
-0.494285 0.096125 -0.332750
-0.494558 0.096125 -0.331202
-0.494831 0.096125 -0.329654
-0.495104 0.096125 -0.328105
-0.495377 0.096125 -0.326557
-0.495650 0.096125 -0.325009
-0.495923 0.096125 -0.323461
-0.496196 0.096125 -0.321913
-0.496469 0.096125 -0.320365
-0.496742 0.096125 -0.318817
-0.497015 0.096125 -0.317269
-0.497288 0.096125 -0.315721
-0.497561 0.096125 -0.314173
-0.497834 0.096125 -0.312624
-0.498107 0.096125 -0.311076
-0.498380 0.096125 -0.309528
-0.498653 0.096125 -0.307980
-0.498926 0.096125 -0.306432
-0.499199 0.096125 -0.304884
-0.499472 0.096125 -0.303336
-0.498586 0.096205 -0.301759
-0.500018 0.096125 -0.300240
-0.499132 0.096205 -0.298660
-0.499405 0.096205 -0.297111
-0.499678 0.096205 -0.295561
-0.498792 0.096285 -0.293976
-0.499065 0.096285 -0.292426
-0.498178 0.096364 -0.290837
-0.498451 0.096364 -0.289285
-0.498725 0.096364 -0.287733
-0.497836 0.096444 -0.286139
-0.498110 0.096444 -0.284586
-0.498384 0.096444 -0.283033
-0.497494 0.096524 -0.281433
-0.497768 0.096524 -0.279879
-0.496877 0.096604 -0.278276
-0.497151 0.096604 -0.276720
-0.496259 0.096685 -0.275113
-0.496534 0.096685 -0.273556
-0.495640 0.096765 -0.271945
-0.494745 0.096846 -0.270331
-0.493848 0.096926 -0.268715
-0.492950 0.097007 -0.267096
-0.492051 0.097088 -0.265474
-0.491150 0.097169 -0.263850
-0.490247 0.097250 -0.262223
-0.489343 0.097332 -0.260593
-0.488438 0.097413 -0.258961
-0.487531 0.097495 -0.257326
-0.487808 0.097495 -0.255755
-0.485712 0.097659 -0.254047
-0.483610 0.097823 -0.252333
-0.482695 0.097905 -0.250685
-0.480582 0.098070 -0.248961
-0.477260 0.098319 -0.247155
-0.475130 0.098485 -0.245418
-0.470566 0.098820 -0.243516
-0.467193 0.099072 -0.241683
-0.465029 0.099241 -0.239923
-0.461628 0.099496 -0.238073
-0.456971 0.099837 -0.236127
-0.416502 0.102655 -0.231637
-0.415483 0.102746 -0.229891
-0.415775 0.102746 -0.228237
-0.416067 0.102746 -0.226582
-0.415047 0.102837 -0.224830
-0.415339 0.102837 -0.223174
-0.414317 0.102928 -0.221417
-0.414609 0.102928 -0.219760
-0.413586 0.103019 -0.217998
-0.415194 0.102928 -0.216446
-0.414171 0.103019 -0.214681
-0.413147 0.103110 -0.212913
-0.413439 0.103110 -0.211253
-0.413732 0.103110 -0.209593
-0.414025 0.103110 -0.207933
-0.412999 0.103201 -0.206158
-0.413292 0.103201 -0.204497
-0.412265 0.103293 -0.202717
-0.412559 0.103293 -0.201054
-0.411530 0.103385 -0.199269
-0.411824 0.103385 -0.197605
-0.412117 0.103385 -0.195940
-0.411087 0.103477 -0.194150
-0.411381 0.103477 -0.192484
-0.410350 0.103569 -0.190689
-0.410644 0.103569 -0.189021
-0.410937 0.103569 -0.187354
-0.409905 0.103661 -0.185552
-0.410199 0.103661 -0.183884
-0.409165 0.103753 -0.182078
-0.409459 0.103753 -0.180407
-0.408424 0.103846 -0.178596
-0.408718 0.103846 -0.176925
-0.407681 0.103939 -0.175109
-0.407976 0.103939 -0.173436
-0.406937 0.104031 -0.171616
-0.407232 0.104031 -0.169941
-0.407527 0.104031 -0.168266
-0.406487 0.104124 -0.166440
-0.406783 0.104124 -0.164764
-0.405741 0.104218 -0.162932
-0.406037 0.104218 -0.161255
-0.406332 0.104218 -0.159577
-0.405289 0.104311 -0.157740
-0.405585 0.104311 -0.156060
-0.404540 0.104405 -0.154218
-0.403494 0.104498 -0.152373
-0.403790 0.104498 -0.150690
-0.402742 0.104592 -0.148840
-0.403039 0.104592 -0.147156
-0.401989 0.104686 -0.145301
-0.402286 0.104686 -0.143616
-0.402583 0.104686 -0.141931
-0.401532 0.104780 -0.140069
-0.401829 0.104780 -0.138383
-0.400777 0.104875 -0.136516
-0.401074 0.104875 -0.134828
-0.400020 0.104969 -0.132957
-0.400318 0.104969 -0.131267
-0.400616 0.104969 -0.129578
-0.399560 0.105064 -0.127700
-0.401211 0.104969 -0.126198
-0.400156 0.105064 -0.124318
-0.400454 0.105064 -0.122626
-0.399397 0.105159 -0.120741
-0.399696 0.105159 -0.119048
-0.398637 0.105254 -0.117158
-0.398936 0.105254 -0.115463
-0.399235 0.105254 -0.113769
-0.398175 0.105349 -0.111872
-0.398474 0.105349 -0.110176
-0.397412 0.105445 -0.108274
-0.397711 0.105445 -0.106577
-0.396648 0.105540 -0.104670
-0.395583 0.105636 -0.102760
-0.395883 0.105636 -0.101060
-0.396183 0.105636 -0.099359
-0.396483 0.105636 -0.097659
-0.395416 0.105732 -0.095741
-0.392977 0.105924 -0.093599
-0.393278 0.105924 -0.091894
-0.392206 0.106021 -0.089965
-0.391132 0.106117 -0.088033
-0.391433 0.106117 -0.086325
-0.390357 0.106214 -0.084387
-0.389280 0.106311 -0.082446
-0.389581 0.106311 -0.080735
-0.388502 0.106408 -0.078789
-0.387421 0.106506 -0.076840
-0.387723 0.106506 -0.075126
-0.386640 0.106603 -0.073171
-0.385555 0.106701 -0.071213
-0.385858 0.106701 -0.069495
-0.383379 0.106897 -0.067286
-0.383683 0.106897 -0.065565
-0.382592 0.106995 -0.063595
-0.381499 0.107093 -0.061621
-0.380405 0.107192 -0.059643
-0.379308 0.107291 -0.057662
-0.379613 0.107291 -0.055935
-0.378514 0.107390 -0.053949
-0.377414 0.107489 -0.051958
-0.376311 0.107588 -0.049965
-0.375207 0.107687 -0.047967
-0.375513 0.107687 -0.046234
-0.374406 0.107787 -0.044231
-0.373298 0.107887 -0.042225
-0.372188 0.107987 -0.040214
-0.371076 0.108087 -0.038201
-0.369961 0.108188 -0.036183
-0.370268 0.108188 -0.034442
-0.369152 0.108288 -0.032419
-0.368034 0.108389 -0.030392
-0.366913 0.108490 -0.028362
-0.365791 0.108591 -0.026328
-0.364667 0.108692 -0.024290
-0.364975 0.108692 -0.022540
-0.363849 0.108794 -0.020497
-0.362720 0.108896 -0.018450
-0.361590 0.108998 -0.016399
-0.359013 0.109202 -0.014043
-0.357876 0.109304 -0.011982
-0.356736 0.109407 -0.009917
-0.355595 0.109510 -0.007849
-0.354452 0.109613 -0.005776
-0.353306 0.109716 -0.003700
-0.352158 0.109820 -0.001620
-0.351008 0.109923 0.000465
-0.348389 0.110131 0.002872
-0.347233 0.110235 0.004966
-0.346074 0.110340 0.007065
-0.343435 0.110549 0.009494
-0.342270 0.110654 0.011602
-0.341102 0.110760 0.013715
-0.339932 0.110865 0.015831
-0.337269 0.111076 0.018289
-0.336092 0.111182 0.020415
-0.334913 0.111289 0.022546
-0.333731 0.111395 0.024681
-0.331044 0.111608 0.027167
-0.329855 0.111715 0.029312
-0.328664 0.111823 0.031462
-0.325958 0.112038 0.033970
-0.324759 0.112146 0.036131
-0.322037 0.112362 0.038655
-0.319305 0.112579 0.041190
-0.318094 0.112688 0.043367
-0.315347 0.112906 0.045918
-0.312588 0.113126 0.048478
-0.309819 0.113346 0.051049
-0.308591 0.113456 0.053251
-0.305806 0.113677 0.055838
-0.303010 0.113900 0.058435
-0.300203 0.114123 0.061043
-0.297385 0.114347 0.063661
-0.294556 0.114572 0.066289
-0.291716 0.114797 0.068927
-0.288865 0.115024 0.071575
-0.286002 0.115251 0.074234
-0.283129 0.115480 0.076904
-0.280244 0.115709 0.079584
-0.277347 0.115939 0.082275
-0.272816 0.116286 0.085395
-0.268258 0.116635 0.088534
-0.263672 0.116987 0.091693
-0.257404 0.117458 0.095303
-0.251086 0.117934 0.098942
-0.244716 0.118413 0.102611
-0.238294 0.118896 0.106310
-0.231820 0.119383 0.110039
-0.221840 0.120121 0.114723
-0.206464 0.121245 0.120884
-0.189002 0.122519 0.127646
0.212284 0.151262 0.238639
0.214596 0.151458 0.241818
0.214167 0.151458 0.244252
0.216484 0.151655 0.247441
0.216054 0.151655 0.249878
0.218376 0.151852 0.253079
0.217946 0.151852 0.255520
0.220274 0.152050 0.258732
0.219843 0.152050 0.261176
0.222176 0.152248 0.264400
0.221745 0.152248 0.266847
0.224084 0.152447 0.270082
0.223652 0.152447 0.272532
0.225996 0.152646 0.275779
0.225564 0.152646 0.278232
0.227914 0.152846 0.281491
0.227481 0.152846 0.283947
0.229836 0.153046 0.287218
0.229402 0.153046 0.289677
0.231763 0.153247 0.292960
0.231329 0.153247 0.295422
0.233696 0.153448 0.298716
0.236069 0.153650 0.302019
-0.298497 0.105927 -0.483011
-0.307642 0.105343 -0.480486
-0.318135 0.104669 -0.477862
-0.324200 0.104288 -0.475646
-0.330221 0.103909 -0.473445
-0.337612 0.103440 -0.471140
-0.343537 0.103068 -0.468974
-0.348027 0.102790 -0.466939
-0.352493 0.102514 -0.464915
-0.356935 0.102239 -0.462901
-0.361354 0.101966 -0.460898
-0.365749 0.101695 -0.458906
-0.368764 0.101514 -0.457030
-0.373120 0.101245 -0.455057
-0.377454 0.100977 -0.453094
-0.381764 0.100711 -0.451141
-0.384722 0.100534 -0.449297
-0.388995 0.100270 -0.447363
-0.393245 0.100007 -0.445439
-0.396163 0.099832 -0.443617
-0.400376 0.099572 -0.441711
-0.404568 0.099313 -0.439815
-0.407446 0.099141 -0.438015
-0.411601 0.098884 -0.436137
-0.415736 0.098628 -0.434268
-0.418575 0.098458 -0.432490
-0.421404 0.098289 -0.430719
-0.424224 0.098121 -0.428953
-0.427034 0.097953 -0.427193
-0.428577 0.097869 -0.425515
-0.431372 0.097702 -0.423766
-0.432907 0.097619 -0.422094
-0.435688 0.097452 -0.420355
-0.437216 0.097370 -0.418691
-0.438741 0.097287 -0.417029
-0.441503 0.097122 -0.415305
-0.445488 0.096875 -0.413522
-0.446999 0.096793 -0.411873
-0.448506 0.096711 -0.410227
-0.451236 0.096548 -0.408524
-0.452736 0.096467 -0.406885
-0.454234 0.096385 -0.405248
-0.456945 0.096223 -0.403559
-0.458435 0.096142 -0.401930
-0.459923 0.096062 -0.400303
-0.461409 0.095981 -0.398679
-0.462892 0.095901 -0.397058
-0.464373 0.095820 -0.395439
-0.465851 0.095740 -0.393824
-0.466128 0.095740 -0.392256
-0.467603 0.095660 -0.390644
-0.469076 0.095580 -0.389035
-0.469352 0.095580 -0.387470
-0.470823 0.095501 -0.385865
-0.472291 0.095421 -0.384262
-0.473756 0.095341 -0.382662
-0.475220 0.095262 -0.381065
-0.476680 0.095183 -0.379471
-0.476955 0.095183 -0.377912
-0.478413 0.095104 -0.376321
-0.478688 0.095104 -0.374764
-0.480143 0.095025 -0.373178
-0.481596 0.094946 -0.371593
-0.481870 0.094946 -0.370039
-0.483321 0.094867 -0.368459
-0.483595 0.094867 -0.366906
-0.485043 0.094788 -0.365329
-0.485316 0.094788 -0.363777
-0.485590 0.094788 -0.362225
-0.487035 0.094710 -0.360654
-0.487308 0.094710 -0.359103
-0.487582 0.094710 -0.357553
-0.487855 0.094710 -0.356002
-0.488128 0.094710 -0.354451
-0.488402 0.094710 -0.352901
-0.489843 0.094632 -0.351339
-0.490117 0.094632 -0.349789
-0.490390 0.094632 -0.348240
-0.490663 0.094632 -0.346690
-0.490936 0.094632 -0.345141
-0.492374 0.094553 -0.343586
-0.492647 0.094553 -0.342038
-0.492920 0.094553 -0.340490
-0.493193 0.094553 -0.338942
-0.493466 0.094553 -0.337394
-0.493739 0.094553 -0.335846
-0.494012 0.094553 -0.334298
-0.494285 0.094553 -0.332750
-0.495720 0.094475 -0.331207
-0.494831 0.094553 -0.329654
-0.495104 0.094553 -0.328105
-0.495377 0.094553 -0.326557
-0.495650 0.094553 -0.325009
-0.495923 0.094553 -0.323461
-0.496196 0.094553 -0.321913
-0.496469 0.094553 -0.320365
-0.496742 0.094553 -0.318817
-0.497015 0.094553 -0.317269
-0.497288 0.094553 -0.315721
-0.497561 0.094553 -0.314173
-0.497834 0.094553 -0.312624
-0.498107 0.094553 -0.311076
-0.498380 0.094553 -0.309528
-0.498653 0.094553 -0.307980
-0.498926 0.094553 -0.306432
-0.499199 0.094553 -0.304884
-0.499472 0.094553 -0.303336
-0.499745 0.094553 -0.301788
-0.500018 0.094553 -0.300240
-0.499132 0.094632 -0.298660
-0.499405 0.094632 -0.297111
-0.499678 0.094632 -0.295561
-0.498792 0.094710 -0.293976
-0.499065 0.094710 -0.292426
-0.498178 0.094788 -0.290837
-0.498451 0.094788 -0.289285
-0.498725 0.094788 -0.287733
-0.497836 0.094867 -0.286139
-0.498110 0.094867 -0.284586
-0.498384 0.094867 -0.283033
-0.497494 0.094946 -0.281433
-0.497768 0.094946 -0.279879
-0.498042 0.094946 -0.278325
-0.497151 0.095025 -0.276720
-0.497426 0.095025 -0.275164
-0.496534 0.095104 -0.273556
-0.495640 0.095183 -0.271945
-0.494745 0.095262 -0.270331
-0.493848 0.095341 -0.268715
-0.492950 0.095421 -0.267096
-0.492051 0.095501 -0.265474
-0.491150 0.095580 -0.263850
-0.490247 0.095660 -0.262223
-0.489343 0.095740 -0.260593
-0.488438 0.095820 -0.258961
-0.487531 0.095901 -0.257326
-0.487808 0.095901 -0.255755
-0.485712 0.096062 -0.254047
-0.483610 0.096223 -0.252333
-0.482695 0.096304 -0.250685
-0.480582 0.096467 -0.248961
-0.477260 0.096711 -0.247155
-0.475130 0.096875 -0.245418
-0.470566 0.097204 -0.243516
-0.467193 0.097452 -0.241683
-0.465029 0.097619 -0.239923
-0.461628 0.097869 -0.238073
-0.455731 0.098289 -0.236041
-0.416502 0.100977 -0.231637
-0.416794 0.100977 -0.229985
-0.415775 0.101066 -0.228237
-0.416067 0.101066 -0.226582
-0.415047 0.101156 -0.224830
-0.415339 0.101156 -0.223174
-0.414317 0.101245 -0.221417
-0.415923 0.101156 -0.219863
-0.414902 0.101245 -0.218103
-0.413879 0.101335 -0.216339
-0.414171 0.101335 -0.214681
-0.413147 0.101424 -0.212913
-0.413439 0.101424 -0.211253
-0.413732 0.101424 -0.209593
-0.414025 0.101424 -0.207933
-0.412999 0.101514 -0.206158
-0.413292 0.101514 -0.204497
-0.412265 0.101604 -0.202717
-0.412559 0.101604 -0.201054
-0.412852 0.101604 -0.199391
-0.411824 0.101695 -0.197605
-0.412117 0.101695 -0.195940
-0.411087 0.101785 -0.194150
-0.411381 0.101785 -0.192484
-0.411675 0.101785 -0.190818
-0.410644 0.101876 -0.189021
-0.410937 0.101876 -0.187354
-0.409905 0.101966 -0.185552
-0.410199 0.101966 -0.183884
-0.409165 0.102057 -0.182078
-0.409459 0.102057 -0.180407
-0.408424 0.102148 -0.178596
-0.408718 0.102148 -0.176925
-0.407681 0.102239 -0.175109
-0.407976 0.102239 -0.173436
-0.406937 0.102331 -0.171616
-0.407232 0.102331 -0.169941
-0.406192 0.102422 -0.168116
-0.406487 0.102422 -0.166440
-0.405445 0.102514 -0.164610
-0.405741 0.102514 -0.162932
-0.406037 0.102514 -0.161255
-0.404993 0.102606 -0.159419
-0.405289 0.102606 -0.157740
-0.404244 0.102698 -0.155899
-0.404540 0.102698 -0.154218
-0.403494 0.102790 -0.152373
-0.403790 0.102790 -0.150690
-0.402742 0.102883 -0.148840
-0.403039 0.102883 -0.147156
-0.403336 0.102883 -0.145473
-0.402286 0.102975 -0.143616
-0.402583 0.102975 -0.141931
-0.401532 0.103068 -0.140069
-0.401829 0.103068 -0.138383
-0.400777 0.103161 -0.136516
-0.401074 0.103161 -0.134828
-0.401372 0.103161 -0.133140
-0.400318 0.103254 -0.131267
-0.400616 0.103254 -0.129578
-0.399560 0.103347 -0.127700
-0.401211 0.103254 -0.126198
-0.400156 0.103347 -0.124318
-0.400454 0.103347 -0.122626
-0.399397 0.103440 -0.120741
-0.399696 0.103440 -0.119048
-0.399994 0.103440 -0.117355
-0.398936 0.103534 -0.115463
-0.399235 0.103534 -0.113769
-0.398175 0.103627 -0.111872
-0.398474 0.103627 -0.110176
-0.397412 0.103721 -0.108274
-0.397711 0.103721 -0.106577
-0.398011 0.103721 -0.104880
-0.396948 0.103815 -0.102971
-0.395883 0.103909 -0.101060
-0.396183 0.103909 -0.099359
-0.396483 0.103909 -0.097659
-0.395416 0.104004 -0.095741
-0.394348 0.104098 -0.093819
-0.393278 0.104193 -0.091894
-0.392206 0.104288 -0.089965
-0.392507 0.104288 -0.088258
-0.391433 0.104383 -0.086325
-0.390357 0.104478 -0.084387
-0.390659 0.104478 -0.082678
-0.389581 0.104574 -0.080735
-0.388502 0.104669 -0.078789
-0.388804 0.104669 -0.077077
-0.387723 0.104765 -0.075126
-0.386640 0.104861 -0.073171
-0.386943 0.104861 -0.071455
-0.385858 0.104957 -0.069495
-0.386161 0.104957 -0.067778
-0.383683 0.105150 -0.065565
-0.382592 0.105246 -0.063595
-0.381499 0.105343 -0.061621
-0.380405 0.105440 -0.059643
-0.380709 0.105440 -0.057918
-0.379613 0.105537 -0.055935
-0.378514 0.105634 -0.053949
-0.377414 0.105732 -0.051958
-0.376311 0.105830 -0.049965
-0.376617 0.105830 -0.048233
-0.375513 0.105927 -0.046234
-0.374406 0.106026 -0.044231
-0.373298 0.106124 -0.042225
-0.372188 0.106222 -0.040214
-0.372494 0.106222 -0.038476
-0.371382 0.106321 -0.036461
-0.370268 0.106420 -0.034442
-0.369152 0.106518 -0.032419
-0.368034 0.106618 -0.030392
-0.366913 0.106717 -0.028362
-0.365791 0.106816 -0.026328
-0.364667 0.106916 -0.024290
-0.364975 0.106916 -0.022540
-0.363849 0.107016 -0.020497
-0.362720 0.107116 -0.018450
-0.361590 0.107216 -0.016399
-0.360457 0.107317 -0.014344
-0.357876 0.107518 -0.011982
-0.356736 0.107619 -0.009917
-0.355595 0.107720 -0.007849
-0.354452 0.107822 -0.005776
-0.353306 0.107923 -0.003700
-0.352158 0.108025 -0.001620
-0.351008 0.108127 0.000465
-0.348389 0.108332 0.002872
-0.347233 0.108434 0.004966
-0.346074 0.108537 0.007065
-0.343435 0.108743 0.009494
-0.342270 0.108846 0.011602
-0.341102 0.108950 0.013715
-0.339932 0.109053 0.015831
-0.337269 0.109261 0.018289
-0.336092 0.109366 0.020415
-0.334913 0.109470 0.022546
-0.333731 0.109575 0.024681
-0.331044 0.109785 0.027167
-0.329855 0.109890 0.029312
-0.328664 0.109995 0.031462
-0.325958 0.110207 0.033970
-0.324759 0.110313 0.036131
-0.322037 0.110526 0.038655
-0.319305 0.110739 0.041190
-0.318094 0.110847 0.043367
-0.315347 0.111061 0.045918
-0.314129 0.111169 0.048106
-0.311365 0.111385 0.050674
-0.308591 0.111602 0.053251
-0.305806 0.111820 0.055838
-0.303010 0.112039 0.058435
-0.300203 0.112258 0.061043
-0.297385 0.112478 0.063661
-0.294556 0.112700 0.066289
-0.291716 0.112922 0.068927
-0.288865 0.113145 0.071575
-0.286002 0.113368 0.074234
-0.283129 0.113593 0.076904
-0.280244 0.113819 0.079584
-0.277347 0.114045 0.082275
-0.274439 0.114273 0.084976
-0.268258 0.114730 0.088534
-0.263672 0.115076 0.091693
-0.257404 0.115539 0.095303
-0.251086 0.116007 0.098942
-0.244716 0.116478 0.102611
-0.238294 0.116954 0.106310
-0.231820 0.117433 0.110039
-0.221840 0.118159 0.114723
-0.208225 0.119141 0.120410
-0.189002 0.120518 0.127646
0.212284 0.148794 0.238639
0.211856 0.148794 0.241070
0.214167 0.148987 0.244252
0.213737 0.148987 0.246686
0.216054 0.149180 0.249878
0.215624 0.149180 0.252316
0.217946 0.149374 0.255520
0.217516 0.149374 0.257960
0.219843 0.149569 0.261176
0.219412 0.149569 0.263619
0.221745 0.149764 0.266847
0.221314 0.149764 0.269293
0.223652 0.149959 0.272532
0.223220 0.149959 0.274982
0.222788 0.149959 0.277432
0.225131 0.150155 0.280685
0.227481 0.150351 0.283947
0.227047 0.150351 0.286404
0.229402 0.150548 0.289677
0.228969 0.150548 0.292137
0.231329 0.150746 0.295422
0.230895 0.150746 0.297885
0.233261 0.150944 0.301182
0.238448 0.151342 0.305330
-0.298497 0.104167 -0.483011
-0.309106 0.103497 -0.480355
-0.319580 0.102836 -0.477734
-0.325634 0.102462 -0.475520
-0.331645 0.102090 -0.473322
-0.339023 0.101629 -0.471020
-0.344938 0.101264 -0.468856
-0.349420 0.100991 -0.466823
-0.353878 0.100720 -0.464801
-0.358313 0.100451 -0.462790
-0.361354 0.100272 -0.460898
-0.365749 0.100005 -0.458906
-0.370121 0.099739 -0.456924
-0.373120 0.099562 -0.455057
-0.377454 0.099299 -0.453094
-0.381764 0.099037 -0.451141
-0.386052 0.098776 -0.449199
-0.390318 0.098517 -0.447267
-0.393245 0.098345 -0.445439
-0.397474 0.098088 -0.443525
-0.400376 0.097917 -0.441711
-0.404568 0.097662 -0.439815
-0.408738 0.097409 -0.437929
-0.411601 0.097240 -0.436137
-0.415736 0.096989 -0.434268
-0.418575 0.096822 -0.432490
-0.422673 0.096573 -0.430639
-0.424224 0.096490 -0.428953
-0.427034 0.096325 -0.427193
-0.428577 0.096242 -0.425515
-0.431372 0.096078 -0.423766
-0.432907 0.095996 -0.422094
-0.435688 0.095833 -0.420355
-0.437216 0.095751 -0.418691
-0.438741 0.095670 -0.417029
-0.441503 0.095507 -0.415305
-0.444255 0.095345 -0.413586
-0.446999 0.095184 -0.411873
-0.449733 0.095023 -0.410165
-0.451236 0.094943 -0.408524
-0.452736 0.094863 -0.406885
-0.454234 0.094783 -0.405248
-0.455729 0.094703 -0.403615
-0.458435 0.094544 -0.401930
-0.459923 0.094465 -0.400303
-0.461409 0.094386 -0.398679
-0.462892 0.094306 -0.397058
-0.464373 0.094228 -0.395439
-0.465851 0.094149 -0.393824
-0.466128 0.094149 -0.392256
-0.467603 0.094070 -0.390644
-0.469076 0.093991 -0.389035
-0.469352 0.093991 -0.387470
-0.470823 0.093913 -0.385865
-0.472291 0.093835 -0.384262
-0.473756 0.093756 -0.382662
-0.475220 0.093678 -0.381065
-0.476680 0.093600 -0.379471
-0.476955 0.093600 -0.377912
-0.478413 0.093523 -0.376321
-0.478688 0.093523 -0.374764
-0.480143 0.093445 -0.373178
-0.481596 0.093367 -0.371593
-0.481870 0.093367 -0.370039
-0.483321 0.093290 -0.368459
-0.483595 0.093290 -0.366906
-0.485043 0.093213 -0.365329
-0.485316 0.093213 -0.363777
-0.485590 0.093213 -0.362225
-0.487035 0.093135 -0.360654
-0.487308 0.093135 -0.359103
-0.487582 0.093135 -0.357553
-0.487855 0.093135 -0.356002
-0.488128 0.093135 -0.354451
-0.489570 0.093058 -0.352888
-0.489843 0.093058 -0.351339
-0.490117 0.093058 -0.349789
-0.490390 0.093058 -0.348240
-0.490663 0.093058 -0.346690
-0.490936 0.093058 -0.345141
-0.492374 0.092981 -0.343586
-0.492647 0.092981 -0.342038
-0.492920 0.092981 -0.340490
-0.493193 0.092981 -0.338942
-0.493466 0.092981 -0.337394
-0.494901 0.092905 -0.335847
-0.495174 0.092905 -0.334300
-0.495447 0.092905 -0.332753
-0.495720 0.092905 -0.331207
-0.494831 0.092981 -0.329654
-0.495104 0.092981 -0.328105
-0.495377 0.092981 -0.326557
-0.495650 0.092981 -0.325009
-0.495923 0.092981 -0.323461
-0.496196 0.092981 -0.321913
-0.496469 0.092981 -0.320365
-0.496742 0.092981 -0.318817
-0.497015 0.092981 -0.317269
-0.497288 0.092981 -0.315721
-0.498720 0.092905 -0.314191
-0.497834 0.092981 -0.312624
-0.498107 0.092981 -0.311076
-0.498380 0.092981 -0.309528
-0.498653 0.092981 -0.307980
-0.498926 0.092981 -0.306432
-0.499199 0.092981 -0.304884
-0.499472 0.092981 -0.303336
-0.499745 0.092981 -0.301788
-0.500018 0.092981 -0.300240
-0.499132 0.093058 -0.298660
-0.499405 0.093058 -0.297111
-0.499678 0.093058 -0.295561
-0.498792 0.093135 -0.293976
-0.499065 0.093135 -0.292426
-0.499339 0.093135 -0.290875
-0.498451 0.093213 -0.289285
-0.498725 0.093213 -0.287733
-0.497836 0.093290 -0.286139
-0.498110 0.093290 -0.284586
-0.498384 0.093290 -0.283033
-0.497494 0.093367 -0.281433
-0.497768 0.093367 -0.279879
-0.498042 0.093367 -0.278325
-0.497151 0.093445 -0.276720
-0.496259 0.093523 -0.275113
-0.496534 0.093523 -0.273556
-0.495640 0.093600 -0.271945
-0.494745 0.093678 -0.270331
-0.493848 0.093756 -0.268715
-0.492950 0.093835 -0.267096
-0.492051 0.093913 -0.265474
-0.491150 0.093991 -0.263850
-0.490247 0.094070 -0.262223
-0.489343 0.094149 -0.260593
-0.488438 0.094228 -0.258961
-0.487531 0.094306 -0.257326
-0.487808 0.094306 -0.255755
-0.485712 0.094465 -0.254047
-0.483610 0.094624 -0.252333
-0.482695 0.094703 -0.250685
-0.480582 0.094863 -0.248961
-0.477260 0.095104 -0.247155
-0.475130 0.095265 -0.245418
-0.470566 0.095588 -0.243516
-0.467193 0.095833 -0.241683
-0.465029 0.095996 -0.239923
-0.461628 0.096242 -0.238073
-0.454489 0.096739 -0.235954
-0.416502 0.099299 -0.231637
-0.416794 0.099299 -0.229985
-0.417085 0.099299 -0.228332
-0.416067 0.099387 -0.226582
-0.415047 0.099474 -0.224830
-0.416650 0.099387 -0.223274
-0.415631 0.099474 -0.221519
-0.414609 0.099562 -0.219760
-0.414902 0.099562 -0.218103
-0.413879 0.099651 -0.216339
-0.414171 0.099651 -0.214681
-0.413147 0.099739 -0.212913
-0.413439 0.099739 -0.211253
-0.413732 0.099739 -0.209593
-0.414025 0.099739 -0.207933
-0.412999 0.099827 -0.206158
-0.413292 0.099827 -0.204497
-0.413585 0.099827 -0.202835
-0.412559 0.099916 -0.201054
-0.412852 0.099916 -0.199391
-0.411824 0.100005 -0.197605
-0.412117 0.100005 -0.195940
-0.412410 0.100005 -0.194276
-0.411381 0.100094 -0.192484
-0.411675 0.100094 -0.190818
-0.410644 0.100183 -0.189021
-0.409611 0.100272 -0.187221
-0.409905 0.100272 -0.185552
-0.408870 0.100361 -0.183748
-0.409165 0.100361 -0.182078
-0.408129 0.100451 -0.180268
-0.408424 0.100451 -0.178596
-0.407386 0.100540 -0.176782
-0.407681 0.100540 -0.175109
-0.407976 0.100540 -0.173436
-0.406937 0.100630 -0.171616
-0.407232 0.100630 -0.169941
-0.406192 0.100720 -0.168116
-0.406487 0.100720 -0.166440
-0.405445 0.100811 -0.164610
-0.405741 0.100811 -0.162932
-0.406037 0.100811 -0.161255
-0.404993 0.100901 -0.159419
-0.405289 0.100901 -0.157740
-0.404244 0.100991 -0.155899
-0.404540 0.100991 -0.154218
-0.403494 0.101082 -0.152373
-0.403790 0.101082 -0.150690
-0.402742 0.101173 -0.148840
-0.403039 0.101173 -0.147156
-0.403336 0.101173 -0.145473
-0.402286 0.101264 -0.143616
-0.402583 0.101264 -0.141931
-0.401532 0.101355 -0.140069
-0.401829 0.101355 -0.138383
-0.400777 0.101446 -0.136516
-0.401074 0.101446 -0.134828
-0.401372 0.101446 -0.133140
-0.400318 0.101538 -0.131267
-0.400616 0.101538 -0.129578
-0.399560 0.101629 -0.127700
-0.401211 0.101538 -0.126198
-0.400156 0.101629 -0.124318
-0.400454 0.101629 -0.122626
-0.399397 0.101721 -0.120741
-0.399696 0.101721 -0.119048
-0.399994 0.101721 -0.117355
-0.398936 0.101813 -0.115463
-0.399235 0.101813 -0.113769
-0.398175 0.101905 -0.111872
-0.398474 0.101905 -0.110176
-0.397412 0.101998 -0.108274
-0.397711 0.101998 -0.106577
-0.396648 0.102090 -0.104670
-0.396948 0.102090 -0.102971
-0.395883 0.102183 -0.101060
-0.396183 0.102183 -0.099359
-0.396483 0.102183 -0.097659
-0.395416 0.102276 -0.095741
-0.394348 0.102369 -0.093819
-0.394648 0.102369 -0.092115
-0.392206 0.102555 -0.089965
-0.392507 0.102555 -0.088258
-0.391433 0.102648 -0.086325
-0.390357 0.102742 -0.084387
-0.390659 0.102742 -0.082678
-0.389581 0.102836 -0.080735
-0.388502 0.102930 -0.078789
-0.388804 0.102930 -0.077077
-0.387723 0.103024 -0.075126
-0.386640 0.103118 -0.073171
-0.386943 0.103118 -0.071455
-0.385858 0.103213 -0.069495
-0.386161 0.103213 -0.067778
-0.383683 0.103402 -0.065565
-0.382592 0.103497 -0.063595
-0.381499 0.103593 -0.061621
-0.381803 0.103593 -0.059897
-0.380709 0.103688 -0.057918
-0.379613 0.103784 -0.055935
-0.378514 0.103879 -0.053949
-0.377414 0.103975 -0.051958
-0.377719 0.103975 -0.050228
-0.376617 0.104071 -0.048233
-0.375513 0.104167 -0.046234
-0.374406 0.104264 -0.044231
-0.374712 0.104264 -0.042496
-0.373604 0.104361 -0.040488
-0.372494 0.104457 -0.038476
-0.371382 0.104554 -0.036461
-0.370268 0.104651 -0.034442
-0.369152 0.104749 -0.032419
-0.368034 0.104846 -0.030392
-0.368341 0.104846 -0.028648
-0.367221 0.104944 -0.026616
-0.366099 0.105042 -0.024580
-0.364975 0.105140 -0.022540
-0.363849 0.105238 -0.020497
-0.362720 0.105336 -0.018450
-0.361590 0.105435 -0.016399
-0.360457 0.105534 -0.014344
-0.359323 0.105633 -0.012285
-0.356736 0.105831 -0.009917
-0.355595 0.105931 -0.007849
-0.354452 0.106030 -0.005776
-0.353306 0.106130 -0.003700
-0.352158 0.106230 -0.001620
-0.351008 0.106331 0.000465
-0.348389 0.106532 0.002872
-0.347233 0.106633 0.004966
-0.346074 0.106734 0.007065
-0.344912 0.106835 0.009167
-0.342270 0.107038 0.011602
-0.341102 0.107140 0.013715
-0.339932 0.107242 0.015831
-0.337269 0.107446 0.018289
-0.336092 0.107549 0.020415
-0.334913 0.107651 0.022546
-0.333731 0.107754 0.024681
-0.332547 0.107858 0.026820
-0.329855 0.108064 0.029312
-0.328664 0.108168 0.031462
-0.327471 0.108272 0.033616
-0.324759 0.108481 0.036131
-0.322037 0.108690 0.038655
-0.320832 0.108795 0.040826
-0.318094 0.109005 0.043367
-0.316882 0.109111 0.045549
-0.314129 0.109323 0.048106
-0.311365 0.109535 0.050674
-0.308591 0.109748 0.053251
-0.305806 0.109963 0.055838
-0.303010 0.110178 0.058435
-0.300203 0.110393 0.061043
-0.297385 0.110610 0.063661
-0.294556 0.110828 0.066289
-0.291716 0.111046 0.068927
-0.288865 0.111265 0.071575
-0.286002 0.111485 0.074234
-0.283129 0.111706 0.076904
-0.280244 0.111928 0.079584
-0.277347 0.112151 0.082275
-0.274439 0.112375 0.084976
-0.268258 0.112825 0.088534
-0.263672 0.113164 0.091693
-0.259059 0.113506 0.094870
-0.252753 0.113965 0.098504
-0.246397 0.114428 0.102167
-0.238294 0.115011 0.106310
-0.231820 0.115483 0.110039
-0.221840 0.116197 0.114723
-0.208225 0.117163 0.120410
-0.189002 0.118517 0.127646
0.209551 0.146136 0.237897
0.211856 0.146325 0.241070
0.211427 0.146325 0.243501
0.213737 0.146515 0.246686
0.213308 0.146515 0.249120
0.215624 0.146705 0.252316
0.215194 0.146705 0.254753
0.217516 0.146896 0.257960
0.217085 0.146896 0.260401
0.219412 0.147087 0.263619
0.218981 0.147087 0.266063
0.218550 0.147087 0.268507
0.220882 0.147279 0.271740
0.220451 0.147279 0.274187
0.222788 0.147471 0.277432
0.222356 0.147471 0.279882
0.224699 0.147664 0.283139
0.227047 0.147857 0.286404
0.226614 0.147857 0.288860
0.228969 0.148051 0.292137
0.228535 0.148051 0.294596
0.230895 0.148245 0.297885
0.230461 0.148245 0.300348
0.232826 0.148440 0.303648
-0.298497 0.102408 -0.483011
-0.310567 0.101655 -0.480225
-0.321022 0.101006 -0.477606
-0.327066 0.100639 -0.475395
-0.333066 0.100274 -0.473200
-0.340431 0.099822 -0.470900
-0.344938 0.099553 -0.468856
-0.349420 0.099285 -0.466823
-0.353878 0.099018 -0.464801
-0.358313 0.098753 -0.462790
-0.362724 0.098490 -0.460789
-0.365749 0.098315 -0.458906
-0.370121 0.098053 -0.456924
-0.374470 0.097793 -0.454953
-0.377454 0.097621 -0.453094
-0.381764 0.097363 -0.451141
-0.386052 0.097107 -0.449199
-0.390318 0.096852 -0.447267
-0.394561 0.096598 -0.445345
-0.397474 0.096430 -0.443525
-0.401680 0.096178 -0.441621
-0.404568 0.096011 -0.439815
-0.408738 0.095762 -0.437929
-0.411601 0.095597 -0.436137
-0.415736 0.095350 -0.434268
-0.418575 0.095185 -0.432490
-0.422673 0.094940 -0.430639
-0.424224 0.094859 -0.428953
-0.427034 0.094697 -0.427193
-0.428577 0.094616 -0.425515
-0.431372 0.094454 -0.423766
-0.432907 0.094373 -0.422094
-0.435688 0.094213 -0.420355
-0.437216 0.094132 -0.418691
-0.438741 0.094052 -0.417029
-0.441503 0.093893 -0.415305
-0.444255 0.093734 -0.413586
-0.446999 0.093575 -0.411873
-0.449733 0.093417 -0.410165
-0.451236 0.093338 -0.408524
-0.452736 0.093259 -0.406885
-0.454234 0.093181 -0.405248
-0.455729 0.093102 -0.403615
-0.457222 0.093024 -0.401984
-0.459923 0.092868 -0.400303
-0.461409 0.092790 -0.398679
-0.462892 0.092712 -0.397058
-0.464373 0.092635 -0.395439
-0.465851 0.092557 -0.393824
-0.466128 0.092557 -0.392256
-0.467603 0.092480 -0.390644
-0.469076 0.092402 -0.389035
-0.469352 0.092402 -0.387470
-0.470823 0.092325 -0.385865
-0.472291 0.092248 -0.384262
-0.473756 0.092171 -0.382662
-0.475220 0.092095 -0.381065
-0.476680 0.092018 -0.379471
-0.476955 0.092018 -0.377912
-0.478413 0.091941 -0.376321
-0.478688 0.091941 -0.374764
-0.480143 0.091865 -0.373178
-0.481596 0.091789 -0.371593
-0.481870 0.091789 -0.370039
-0.483321 0.091713 -0.368459
-0.483595 0.091713 -0.366906
-0.485043 0.091637 -0.365329
-0.485316 0.091637 -0.363777
-0.485590 0.091637 -0.362225
-0.487035 0.091561 -0.360654
-0.487308 0.091561 -0.359103
-0.487582 0.091561 -0.357553
-0.487855 0.091561 -0.356002
-0.488128 0.091561 -0.354451
-0.489570 0.091485 -0.352888
-0.489843 0.091485 -0.351339
-0.490117 0.091485 -0.349789
-0.490390 0.091485 -0.348240
-0.490663 0.091485 -0.346690
-0.492101 0.091409 -0.345134
-0.492374 0.091409 -0.343586
-0.492647 0.091409 -0.342038
-0.492920 0.091409 -0.340490
-0.493193 0.091409 -0.338942
-0.494629 0.091334 -0.337394
-0.494901 0.091334 -0.335847
-0.495174 0.091334 -0.334300
-0.495447 0.091334 -0.332753
-0.495720 0.091334 -0.331207
-0.494831 0.091409 -0.329654
-0.495104 0.091409 -0.328105
-0.495377 0.091409 -0.326557
-0.495650 0.091409 -0.325009
-0.495923 0.091409 -0.323461
-0.496196 0.091409 -0.321913
-0.496469 0.091409 -0.320365
-0.496742 0.091409 -0.318817
-0.498174 0.091334 -0.317285
-0.498447 0.091334 -0.315738
-0.498720 0.091334 -0.314191
-0.498993 0.091334 -0.312645
-0.498107 0.091409 -0.311076
-0.498380 0.091409 -0.309528
-0.498653 0.091409 -0.307980
-0.498926 0.091409 -0.306432
-0.499199 0.091409 -0.304884
-0.499472 0.091409 -0.303336
-0.499745 0.091409 -0.301788
-0.500018 0.091409 -0.300240
-0.499132 0.091485 -0.298660
-0.499405 0.091485 -0.297111
-0.499678 0.091485 -0.295561
-0.498792 0.091561 -0.293976
-0.499065 0.091561 -0.292426
-0.499339 0.091561 -0.290875
-0.498451 0.091637 -0.289285
-0.498725 0.091637 -0.287733
-0.497836 0.091713 -0.286139
-0.498110 0.091713 -0.284586
-0.498384 0.091713 -0.283033
-0.497494 0.091789 -0.281433
-0.497768 0.091789 -0.279879
-0.496877 0.091865 -0.278276
-0.497151 0.091865 -0.276720
-0.496259 0.091941 -0.275113
-0.495365 0.092018 -0.273503
-0.495640 0.092018 -0.271945
-0.494745 0.092095 -0.270331
-0.493848 0.092171 -0.268715
-0.492950 0.092248 -0.267096
-0.492051 0.092325 -0.265474
-0.491150 0.092402 -0.263850
-0.490247 0.092480 -0.262223
-0.489343 0.092557 -0.260593
-0.488438 0.092635 -0.258961
-0.487531 0.092712 -0.257326
-0.487808 0.092712 -0.255755
-0.484523 0.092946 -0.253977
-0.483610 0.093024 -0.252333
-0.482695 0.093102 -0.250685
-0.480582 0.093259 -0.248961
-0.478463 0.093417 -0.247231
-0.475130 0.093654 -0.245418
-0.470566 0.093973 -0.243516
-0.468413 0.094132 -0.241764
-0.465029 0.094373 -0.239923
-0.461628 0.094616 -0.238073
-0.453245 0.095185 -0.235868
-0.417810 0.097535 -0.231730
-0.416794 0.097621 -0.229985
-0.415775 0.097707 -0.228237
-0.416067 0.097707 -0.226582
-0.416358 0.097707 -0.224928
-0.415339 0.097793 -0.223174
-0.415631 0.097793 -0.221519
-0.414609 0.097880 -0.219760
-0.414902 0.097880 -0.218103
-0.413879 0.097967 -0.216339
-0.414171 0.097967 -0.214681
-0.414464 0.097967 -0.213023
-0.413439 0.098053 -0.211253
-0.413732 0.098053 -0.209593
-0.414025 0.098053 -0.207933
-0.412999 0.098140 -0.206158
-0.411972 0.098227 -0.204379
-0.412265 0.098227 -0.202717
-0.412559 0.098227 -0.201054
-0.411530 0.098315 -0.199269
-0.411824 0.098315 -0.197605
-0.410793 0.098402 -0.195815
-0.411087 0.098402 -0.194150
-0.410056 0.098490 -0.192356
-0.410350 0.098490 -0.190689
-0.410644 0.098490 -0.189021
-0.409611 0.098577 -0.187221
-0.409905 0.098577 -0.185552
-0.408870 0.098665 -0.183748
-0.409165 0.098665 -0.182078
-0.408129 0.098753 -0.180268
-0.408424 0.098753 -0.178596
-0.407386 0.098841 -0.176782
-0.407681 0.098841 -0.175109
-0.407976 0.098841 -0.173436
-0.406937 0.098930 -0.171616
-0.407232 0.098930 -0.169941
-0.406192 0.099018 -0.168116
-0.406487 0.099018 -0.166440
-0.405445 0.099107 -0.164610
-0.405741 0.099107 -0.162932
-0.406037 0.099107 -0.161255
-0.404993 0.099196 -0.159419
-0.405289 0.099196 -0.157740
-0.404244 0.099285 -0.155899
-0.404540 0.099285 -0.154218
-0.403494 0.099374 -0.152373
-0.403790 0.099374 -0.150690
-0.402742 0.099463 -0.148840
-0.403039 0.099463 -0.147156
-0.403336 0.099463 -0.145473
-0.402286 0.099553 -0.143616
-0.402583 0.099553 -0.141931
-0.401532 0.099642 -0.140069
-0.401829 0.099642 -0.138383
-0.400777 0.099732 -0.136516
-0.401074 0.099732 -0.134828
-0.401372 0.099732 -0.133140
-0.400318 0.099822 -0.131267
-0.400616 0.099822 -0.129578
-0.399560 0.099912 -0.127700
-0.401211 0.099822 -0.126198
-0.400156 0.099912 -0.124318
-0.400454 0.099912 -0.122626
-0.399397 0.100002 -0.120741
-0.399696 0.100002 -0.119048
-0.399994 0.100002 -0.117355
-0.398936 0.100093 -0.115463
-0.399235 0.100093 -0.113769
-0.398175 0.100183 -0.111872
-0.398474 0.100183 -0.110176
-0.397412 0.100274 -0.108274
-0.396349 0.100365 -0.106369
-0.396648 0.100365 -0.104670
-0.396948 0.100365 -0.102971
-0.395883 0.100456 -0.101060
-0.396183 0.100456 -0.099359
-0.396483 0.100456 -0.097659
-0.395416 0.100547 -0.095741
-0.394348 0.100639 -0.093819
-0.394648 0.100639 -0.092115
-0.393579 0.100730 -0.090189
-0.392507 0.100822 -0.088258
-0.391433 0.100914 -0.086325
-0.390357 0.101006 -0.084387
-0.390659 0.101006 -0.082678
-0.389581 0.101098 -0.080735
-0.388502 0.101191 -0.078789
-0.388804 0.101191 -0.077077
-0.387723 0.101283 -0.075126
-0.386640 0.101376 -0.073171
-0.386943 0.101376 -0.071455
-0.385858 0.101469 -0.069495
-0.386161 0.101469 -0.067778
-0.383683 0.101655 -0.065565
-0.382592 0.101749 -0.063595
-0.381499 0.101842 -0.061621
-0.381803 0.101842 -0.059897
-0.380709 0.101936 -0.057918
-0.379613 0.102030 -0.055935
-0.378514 0.102124 -0.053949
-0.378819 0.102124 -0.052220
-0.377719 0.102218 -0.050228
-0.376617 0.102313 -0.048233
-0.375513 0.102408 -0.046234
-0.374406 0.102502 -0.044231
-0.374712 0.102502 -0.042496
-0.373604 0.102597 -0.040488
-0.372494 0.102692 -0.038476
-0.371382 0.102788 -0.036461
-0.370268 0.102883 -0.034442
-0.369152 0.102979 -0.032419
-0.369459 0.102979 -0.030676
-0.368341 0.103075 -0.028648
-0.367221 0.103171 -0.026616
-0.367529 0.103171 -0.024870
-0.364975 0.103363 -0.022540
-0.363849 0.103460 -0.020497
-0.362720 0.103557 -0.018450
-0.361590 0.103654 -0.016399
-0.360457 0.103751 -0.014344
-0.359323 0.103848 -0.012285
-0.358186 0.103946 -0.010223
-0.357047 0.104043 -0.008156
-0.355906 0.104141 -0.006086
-0.353306 0.104337 -0.003700
-0.352158 0.104436 -0.001620
-0.351008 0.104534 0.000465
-0.348389 0.104732 0.002872
-0.347233 0.104831 0.004966
-0.346074 0.104931 0.007065
-0.344912 0.105030 0.009167
-0.342270 0.105230 0.011602
-0.341102 0.105330 0.013715
-0.339932 0.105430 0.015831
-0.337269 0.105631 0.018289
-0.336092 0.105732 0.020415
-0.334913 0.105833 0.022546
-0.333731 0.105934 0.024681
-0.332547 0.106036 0.026820
-0.329855 0.106239 0.029312
-0.328664 0.106341 0.031462
-0.327471 0.106443 0.033616
-0.324759 0.106648 0.036131
-0.322037 0.106854 0.038655
-0.320832 0.106957 0.040826
-0.318094 0.107164 0.043367
-0.316882 0.107268 0.045549
-0.314129 0.107476 0.048106
-0.311365 0.107685 0.050674
-0.308591 0.107895 0.053251
-0.305806 0.108105 0.055838
-0.303010 0.108317 0.058435
-0.300203 0.108529 0.061043
-0.297385 0.108742 0.063661
-0.294556 0.108956 0.066289
-0.291716 0.109170 0.068927
-0.290455 0.109278 0.071174
-0.286002 0.109602 0.074234
-0.283129 0.109820 0.076904
-0.280244 0.110038 0.079584
-0.277347 0.110257 0.082275
-0.274439 0.110477 0.084976
-0.268258 0.110919 0.088534
-0.263672 0.111253 0.091693
-0.259059 0.111589 0.094870
-0.252753 0.112040 0.098504
-0.246397 0.112495 0.102167
-0.239989 0.112954 0.105860
-0.231820 0.113533 0.110039
-0.221840 0.114235 0.114723
-0.208225 0.115184 0.120410
-0.190800 0.116394 0.127161
0.209551 0.143671 0.237897
0.209123 0.143671 0.240325
0.211427 0.143857 0.243501
0.210998 0.143857 0.245932
0.213308 0.144043 0.249120
0.212879 0.144043 0.251554
0.215194 0.144230 0.254753
0.214765 0.144230 0.257190
0.214335 0.144230 0.259628
0.216655 0.144418 0.262841
0.216225 0.144418 0.265282
0.218550 0.144606 0.268507
0.218119 0.144606 0.270950
0.220451 0.144794 0.274187
0.220019 0.144794 0.276634
0.222356 0.144983 0.279882
0.224699 0.145173 0.283139
0.224266 0.145173 0.285592
0.226614 0.145363 0.288860
0.226181 0.145363 0.291316
0.228535 0.145553 0.294596
0.228101 0.145553 0.297056
0.230461 0.145744 0.300348
0.230026 0.145744 0.302811
