ply
format ascii 1.0
element vertex 1643
property float x
property float y
property float z
end_header
0.047081 -0.032475 -0.492884
0.045346 -0.032475 -0.492434
0.043208 -0.031336 -0.492915
0.041474 -0.031336 -0.492465
0.039343 -0.030199 -0.492945
0.037611 -0.030199 -0.492495
0.035485 -0.029064 -0.492974
0.033754 -0.029064 -0.492526
0.032023 -0.029064 -0.492077
0.029904 -0.027931 -0.492556
0.028175 -0.027931 -0.492108
0.026062 -0.026800 -0.492586
0.024335 -0.026800 -0.492138
0.022227 -0.025671 -0.492617
0.020501 -0.025671 -0.492169
0.018775 -0.025671 -0.491722
0.016675 -0.024545 -0.492200
0.014951 -0.024545 -0.491752
0.012856 -0.023420 -0.492230
0.011133 -0.023420 -0.491783
0.009043 -0.022298 -0.492261
0.007322 -0.022298 -0.491814
0.005238 -0.021177 -0.492291
0.003519 -0.021177 -0.491845
0.001799 -0.021177 -0.491399
-0.000278 -0.020059 -0.491876
-0.001995 -0.020059 -0.491430
-0.004067 -0.018943 -0.491907
-0.005783 -0.018943 -0.491462
-0.007849 -0.017829 -0.491937
-0.009564 -0.017829 -0.491493
-0.011279 -0.017829 -0.491048
-0.013338 -0.016717 -0.491524
-0.015051 -0.016717 -0.491079
-0.017105 -0.015607 -0.491555
-0.018816 -0.015607 -0.491111
-0.020864 -0.014499 -0.491585
-0.022574 -0.014499 -0.491142
-0.024617 -0.013393 -0.491616
-0.026326 -0.013393 -0.491173
-0.028034 -0.013393 -0.490730
-0.030070 -0.012289 -0.491205
-0.031777 -0.012289 -0.490762
-0.033808 -0.011187 -0.491236
-0.035513 -0.011187 -0.490793
-0.037538 -0.010087 -0.491267
-0.039242 -0.010087 -0.490825
-0.041262 -0.008990 -0.491298
-0.043278 -0.007894 -0.491770
-0.044979 -0.007894 -0.491329
-0.046990 -0.006800 -0.491800
-0.048689 -0.006800 -0.491360
-0.050695 -0.005708 -0.491830
-0.052392 -0.005708 -0.491390
-0.054393 -0.004618 -0.491861
-0.056089 -0.004618 -0.491421
-0.057785 -0.004618 -0.490981
-0.059779 -0.003531 -0.491452
-0.061473 -0.003531 -0.491013
-0.063462 -0.002445 -0.491483
-0.065154 -0.002445 -0.491044
-0.067138 -0.001361 -0.491513
-0.068829 -0.001361 -0.491075
-0.070520 -0.001361 -0.490636
-0.072782 0.000801 -0.492012
-0.074471 0.000801 -0.491574
-0.076440 0.001878 -0.492042
-0.078127 0.001878 -0.491605
-0.080091 0.002954 -0.492072
-0.081776 0.002954 -0.491635
-0.083736 0.004028 -0.492102
-0.085419 0.004028 -0.491665
-0.087103 0.004028 -0.491229
-0.089056 0.005100 -0.491696
-0.090738 0.005100 -0.491260
-0.092685 0.006170 -0.491726
-0.094366 0.006170 -0.491290
-0.096309 0.007239 -0.491756
-0.097987 0.007239 -0.491321
-0.099666 0.007239 -0.490885
-0.101602 0.008305 -0.491351
-0.103280 0.008305 -0.490916
-0.105211 0.009369 -0.491382
-0.106887 0.009369 -0.490947
-0.108813 0.010431 -0.491412
-0.110487 0.010431 -0.490978
-0.112162 0.010431 -0.490544
-0.114081 0.011492 -0.491009
-0.115754 0.011492 -0.490575
-0.117669 0.012550 -0.491039
-0.119340 0.012550 -0.490606
-0.121250 0.013607 -0.491070
-0.122920 0.013607 -0.490637
-0.124824 0.014661 -0.491101
-0.126493 0.014661 -0.490668
-0.128393 0.015714 -0.491131
-0.130289 0.016765 -0.491593
-0.131954 0.016765 -0.491162
-0.133846 0.017814 -0.491623
-0.135510 0.017814 -0.491192
-0.137396 0.018861 -0.491653
-0.139058 0.018861 -0.491222
-0.140721 0.018861 -0.490791
-0.142601 0.019907 -0.491253
-0.144262 0.019907 -0.490822
-0.146137 0.020950 -0.491283
-0.147797 0.020950 -0.490853
-0.149667 0.021991 -0.491313
-0.151325 0.021991 -0.490883
-0.153191 0.023031 -0.491343
-0.154847 0.023031 -0.490914
-0.156504 0.023031 -0.490484
-0.158363 0.024069 -0.490944
-0.160018 0.024069 -0.490515
-0.161872 0.025105 -0.490975
-0.163526 0.025105 -0.490546
-0.165179 0.025105 -0.490117
-0.167028 0.026139 -0.490577
-0.168680 0.026139 -0.490148
-0.170523 0.027171 -0.490607
-0.172174 0.027171 -0.490179
-0.174012 0.028202 -0.490638
-0.175661 0.028202 -0.490210
-0.177311 0.028202 -0.489783
-0.179143 0.029230 -0.490241
-0.180791 0.029230 -0.489814
-0.182619 0.030257 -0.490272
-0.184265 0.030257 -0.489845
-0.186088 0.031282 -0.490303
-0.187732 0.031282 -0.489877
-0.189551 0.032305 -0.490334
-0.191194 0.032305 -0.489908
-0.192837 0.032305 -0.489482
-0.194650 0.033326 -0.489939
-0.196291 0.033326 -0.489513
-0.198099 0.034346 -0.489970
-0.199739 0.034346 -0.489545
-0.201542 0.035363 -0.490001
-0.203181 0.035363 -0.489576
-0.204820 0.035363 -0.489151
-0.206617 0.036379 -0.489607
-0.208254 0.036379 -0.489183
-0.210047 0.037393 -0.489639
-0.211529 0.036379 -0.488334
-0.213318 0.037393 -0.488790
-0.214954 0.037393 -0.488366
-0.216739 0.038405 -0.488822
-0.218374 0.038405 -0.488398
-0.220008 0.038405 -0.487974
-0.221787 0.039416 -0.488431
-0.223420 0.039416 -0.488007
-0.225194 0.040425 -0.488463
-0.226826 0.040425 -0.488040
-0.228595 0.041432 -0.488495
-0.230226 0.041432 -0.488072
-0.231856 0.041432 -0.487650
-0.233619 0.042437 -0.488105
-0.235248 0.042437 -0.487682
-0.237007 0.043440 -0.488137
-0.238635 0.043440 -0.487715
-0.240389 0.044442 -0.488170
-0.242015 0.044442 -0.487748
-0.243765 0.045442 -0.488202
-0.245390 0.045442 -0.487781
-0.247014 0.045442 -0.487359
-0.248758 0.046440 -0.487813
-0.250381 0.046440 -0.487392
-0.252121 0.047436 -0.487846
-0.253743 0.047436 -0.487425
-0.255364 0.047436 -0.487005
-0.257098 0.048431 -0.487458
-0.258718 0.048431 -0.487038
-0.260338 0.048431 -0.486618
-0.261959 0.048431 -0.486198
-0.263685 0.049424 -0.486652
-0.265304 0.049424 -0.486232
-0.266923 0.049424 -0.485812
-0.268541 0.049424 -0.485392
-0.270261 0.050415 -0.485846
-0.271878 0.050415 -0.485427
-0.273495 0.050415 -0.485008
-0.275113 0.050415 -0.484588
-0.276825 0.051404 -0.485043
-0.278441 0.051404 -0.484624
-0.280057 0.051404 -0.484205
-0.281673 0.051404 -0.483786
-0.283377 0.052392 -0.484240
-0.284992 0.052392 -0.483821
-0.286606 0.052392 -0.483403
-0.288221 0.052392 -0.482984
-0.289919 0.053378 -0.483439
-0.291532 0.053378 -0.483021
-0.293145 0.053378 -0.482602
-0.294758 0.053378 -0.482184
-0.296449 0.054362 -0.482639
-0.298060 0.054362 -0.482221
-0.299746 0.055345 -0.482676
-0.301357 0.055345 -0.482259
-0.302967 0.055345 -0.481841
-0.304577 0.055345 -0.481424
-0.306188 0.055345 -0.481006
-0.307730 0.054362 -0.479714
-0.309342 0.054362 -0.479296
-0.310954 0.054362 -0.478878
-0.312566 0.054362 -0.478460
-0.314177 0.054362 -0.478042
-0.315789 0.054362 -0.477624
-0.317342 0.053378 -0.476328
-0.318955 0.053378 -0.475910
-0.320568 0.053378 -0.475492
-0.322181 0.053378 -0.475074
-0.323794 0.053378 -0.474655
-0.325355 0.052392 -0.473355
-0.326970 0.052392 -0.472937
-0.328584 0.052392 -0.472518
-0.330199 0.052392 -0.472100
-0.331813 0.052392 -0.471681
-0.333382 0.051404 -0.470377
-0.334998 0.051404 -0.469958
-0.336614 0.051404 -0.469539
-0.338230 0.051404 -0.469120
-0.339846 0.051404 -0.468701
-0.341462 0.051404 -0.468282
-0.343078 0.051404 -0.467863
-0.344658 0.050415 -0.466555
-0.346276 0.050415 -0.466136
-0.347860 0.049424 -0.464825
-0.349479 0.049424 -0.464406
-0.351098 0.049424 -0.463986
-0.352688 0.048431 -0.462672
-0.354308 0.048431 -0.462252
-0.355928 0.048431 -0.461832
-0.357524 0.047436 -0.460515
-0.359146 0.047436 -0.460095
-0.360746 0.046440 -0.458775
-0.362369 0.046440 -0.458354
-0.363973 0.045442 -0.457032
-0.365598 0.045442 -0.456611
-0.367206 0.044442 -0.455286
-0.368818 0.043440 -0.453959
-0.370445 0.043440 -0.453537
-0.372061 0.042437 -0.452208
-0.373689 0.042437 -0.451785
-0.375309 0.041432 -0.450453
-0.376932 0.040425 -0.449118
-0.378564 0.040425 -0.448695
-0.380191 0.039416 -0.447357
-0.381821 0.038405 -0.446017
-0.383455 0.038405 -0.445593
-0.385089 0.037393 -0.444251
-0.386727 0.036379 -0.442906
-0.388364 0.036379 -0.442481
-0.390006 0.035363 -0.441133
-0.391650 0.034346 -0.439783
-0.393290 0.034346 -0.439358
-0.394948 0.032305 -0.437075
-0.396601 0.031282 -0.435718
-0.398268 0.029230 -0.433423
-0.399929 0.028202 -0.432059
-0.401607 0.026139 -0.429751
-0.403291 0.024069 -0.427435
-0.404964 0.023031 -0.426059
-0.406658 0.020950 -0.423731
-0.408359 0.018861 -0.421394
-0.410043 0.017814 -0.420006
-0.411755 0.015714 -0.417656
-0.413472 0.013607 -0.415298
-0.415196 0.011492 -0.412931
0.242857 -0.093786 -0.490530
0.240421 -0.092531 -0.491035
0.237989 -0.091278 -0.491540
0.235563 -0.090027 -0.492044
0.233141 -0.088779 -0.492546
0.231327 -0.088779 -0.492076
0.228912 -0.087533 -0.492578
0.226501 -0.086290 -0.493079
0.224095 -0.085049 -0.493579
0.222287 -0.085049 -0.493110
0.219887 -0.083811 -0.493610
0.218080 -0.083811 -0.493141
0.215687 -0.082575 -0.493640
0.213883 -0.082575 -0.493172
0.212078 -0.082575 -0.492704
0.209693 -0.081341 -0.493203
0.207313 -0.080110 -0.493701
0.205511 -0.080110 -0.493234
0.203137 -0.078881 -0.493732
0.201338 -0.078881 -0.493265
0.198970 -0.077655 -0.493762
0.197172 -0.077655 -0.493296
0.194811 -0.076431 -0.493792
0.193015 -0.076431 -0.493327
0.190660 -0.075209 -0.493823
0.188866 -0.075209 -0.493357
0.187071 -0.075209 -0.492892
0.184724 -0.073990 -0.493388
0.182932 -0.073990 -0.492923
0.180591 -0.072773 -0.493419
0.178800 -0.072773 -0.492954
0.177009 -0.072773 -0.492490
0.174677 -0.071559 -0.492985
0.172888 -0.071559 -0.492521
0.170561 -0.070346 -0.493016
0.168774 -0.070346 -0.492553
0.166454 -0.069136 -0.493047
0.164668 -0.069136 -0.492584
0.162354 -0.067929 -0.493078
0.160570 -0.067929 -0.492615
0.158262 -0.066724 -0.493108
0.156480 -0.066724 -0.492646
0.154697 -0.066724 -0.492184
0.152398 -0.065521 -0.492677
0.150617 -0.065521 -0.492216
0.148323 -0.064320 -0.492708
0.146544 -0.064320 -0.492247
0.144257 -0.063122 -0.492739
0.141973 -0.061926 -0.493231
0.140198 -0.061926 -0.492770
0.137921 -0.060732 -0.493261
0.136147 -0.060732 -0.492801
0.133876 -0.059541 -0.493292
0.132104 -0.059541 -0.492832
0.130332 -0.059541 -0.492373
0.128560 -0.059541 -0.491913
0.126298 -0.058352 -0.492404
0.124527 -0.058352 -0.491945
0.122272 -0.057165 -0.492435
0.120503 -0.057165 -0.491976
0.118253 -0.055980 -0.492466
0.116486 -0.055980 -0.492008
0.114243 -0.054798 -0.492497
0.112003 -0.053618 -0.492985
0.109768 -0.052440 -0.493473
0.108006 -0.052440 -0.493016
0.105777 -0.051264 -0.493503
0.104017 -0.051264 -0.493046
0.102256 -0.051264 -0.492590
0.100034 -0.050091 -0.493077
0.098276 -0.050091 -0.492621
0.096060 -0.048919 -0.493107
0.094303 -0.048919 -0.492651
0.092093 -0.047751 -0.493137
0.090338 -0.047751 -0.492682
0.088134 -0.046584 -0.493167
0.086380 -0.046584 -0.492713
0.084182 -0.045419 -0.493197
0.082430 -0.045419 -0.492743
0.080678 -0.045419 -0.492289
0.078487 -0.044257 -0.492774
0.076737 -0.044257 -0.492320
0.074552 -0.043097 -0.492804
0.072803 -0.043097 -0.492351
0.071054 -0.043097 -0.491897
0.068877 -0.041939 -0.492381
0.067130 -0.041939 -0.491928
0.064958 -0.040783 -0.492412
0.063213 -0.040783 -0.491960
0.061047 -0.039630 -0.492443
0.059303 -0.039630 -0.491991
0.057142 -0.038478 -0.492473
0.055400 -0.038478 -0.492022
0.053246 -0.037329 -0.492504
0.051505 -0.037329 -0.492053
0.049356 -0.036182 -0.492535
0.047211 -0.035037 -0.493015
0.045474 -0.035037 -0.492565
0.043335 -0.033894 -0.493045
0.041599 -0.033894 -0.492595
0.039864 -0.033894 -0.492145
0.037732 -0.032754 -0.492626
0.035998 -0.032754 -0.492176
0.033871 -0.031615 -0.492656
0.032139 -0.031615 -0.492207
0.030018 -0.030479 -0.492686
0.028287 -0.030479 -0.492237
0.026172 -0.029344 -0.492716
0.024443 -0.029344 -0.492268
0.022333 -0.028212 -0.492747
0.020606 -0.028212 -0.492299
0.018878 -0.028212 -0.491851
0.016776 -0.027082 -0.492329
0.015050 -0.027082 -0.491882
0.012953 -0.025954 -0.492359
0.011229 -0.025954 -0.491912
0.009504 -0.025954 -0.491465
0.007415 -0.024828 -0.491943
0.005692 -0.024828 -0.491497
0.003607 -0.023705 -0.491974
0.001886 -0.023705 -0.491528
-0.000193 -0.022583 -0.492005
-0.001912 -0.022583 -0.491559
-0.003986 -0.021464 -0.492035
-0.005703 -0.021464 -0.491590
-0.007772 -0.020346 -0.492066
-0.009488 -0.020346 -0.491621
-0.011204 -0.020346 -0.491176
-0.013265 -0.019231 -0.491652
-0.014980 -0.019231 -0.491207
-0.017035 -0.018117 -0.491682
-0.018749 -0.018117 -0.491238
-0.020462 -0.018117 -0.490794
-0.022510 -0.017006 -0.491270
-0.024222 -0.017006 -0.490826
-0.026265 -0.015897 -0.491301
-0.027975 -0.015897 -0.490857
-0.030013 -0.014790 -0.491332
-0.031721 -0.014790 -0.490889
-0.033754 -0.013684 -0.491363
-0.035461 -0.013684 -0.490920
-0.037488 -0.012581 -0.491394
-0.039194 -0.012581 -0.490952
-0.041216 -0.011480 -0.491425
-0.043234 -0.010381 -0.491897
-0.044936 -0.010381 -0.491455
-0.046949 -0.009284 -0.491927
-0.048650 -0.009284 -0.491486
-0.050350 -0.009284 -0.491045
-0.052356 -0.008189 -0.491517
-0.054055 -0.008189 -0.491077
-0.056056 -0.007096 -0.491548
-0.057754 -0.007096 -0.491108
-0.059749 -0.006005 -0.491578
-0.061445 -0.006005 -0.491139
-0.063436 -0.004916 -0.491609
-0.065130 -0.004916 -0.491170
-0.067116 -0.003829 -0.491640
-0.068808 -0.003829 -0.491201
-0.070501 -0.003829 -0.490762
-0.072480 -0.002744 -0.491232
-0.074171 -0.002744 -0.490793
-0.076426 -0.000580 -0.492168
-0.078114 -0.000580 -0.491731
-0.079802 -0.000580 -0.491293
-0.081767 0.000500 -0.491761
-0.083454 0.000500 -0.491324
-0.085414 0.001577 -0.491791
-0.087099 0.001577 -0.491354
-0.089053 0.002652 -0.491821
-0.090737 0.002652 -0.491385
-0.092420 0.002652 -0.490948
-0.094368 0.003725 -0.491416
-0.096050 0.003725 -0.490979
-0.097993 0.004797 -0.491446
-0.099674 0.004797 -0.491010
-0.101611 0.005866 -0.491476
-0.103290 0.005866 -0.491041
-0.105223 0.006933 -0.491507
-0.106901 0.006933 -0.491072
-0.108578 0.006933 -0.490637
-0.110504 0.007999 -0.491103
-0.112180 0.007999 -0.490668
-0.114102 0.009062 -0.491133
-0.115776 0.009062 -0.490699
-0.117692 0.010124 -0.491164
-0.119365 0.010124 -0.490730
-0.121038 0.010124 -0.490296
-0.122948 0.011184 -0.490761
-0.124619 0.011184 -0.490328
-0.126524 0.012242 -0.490792
-0.128426 0.013298 -0.491255
-0.130324 0.014352 -0.491718
-0.131990 0.014352 -0.491286
-0.133884 0.015404 -0.491748
-0.135549 0.015404 -0.491316
-0.137214 0.015404 -0.490884
-0.139101 0.016454 -0.491346
-0.140765 0.016454 -0.490915
-0.142647 0.017502 -0.491376
-0.144309 0.017502 -0.490945
-0.146186 0.018549 -0.491407
-0.147847 0.018549 -0.490976
-0.149508 0.018549 -0.490545
-0.151378 0.019593 -0.491006
-0.153038 0.019593 -0.490576
-0.154904 0.020636 -0.491037
-0.156561 0.020636 -0.490607
-0.158422 0.021677 -0.491067
-0.160079 0.021677 -0.490638
-0.161935 0.022716 -0.491098
-0.163590 0.022716 -0.490668
-0.165245 0.022716 -0.490239
-0.167095 0.023753 -0.490699
-0.168748 0.023753 -0.490270
-0.170593 0.024788 -0.490730
-0.172245 0.024788 -0.490301
-0.173897 0.024788 -0.489873
-0.175736 0.025822 -0.490332
-0.177387 0.025822 -0.489904
-0.179221 0.026853 -0.490363
-0.180870 0.026853 -0.489936
-0.182699 0.027883 -0.490394
-0.184347 0.027883 -0.489967
-0.186172 0.028911 -0.490425
-0.187818 0.028911 -0.489998
-0.189464 0.028911 -0.489571
-0.191282 0.029937 -0.490029
-0.192927 0.029937 -0.489603
-0.194741 0.030962 -0.490060
-0.196384 0.030962 -0.489634
-0.198193 0.031984 -0.490091
-0.199835 0.031984 -0.489665
-0.201477 0.031984 -0.489240
-0.203280 0.033005 -0.489697
-0.204920 0.033005 -0.489271
-0.206719 0.034023 -0.489728
-0.208357 0.034023 -0.489303
-0.210151 0.035041 -0.489759
-0.211635 0.034023 -0.488453
-0.213426 0.035041 -0.488910
-0.215063 0.035041 -0.488485
-0.216701 0.035041 -0.488061
-0.218485 0.036056 -0.488518
-0.220121 0.036056 -0.488093
-0.221902 0.037069 -0.488550
-0.223536 0.037069 -0.488126
-0.225312 0.038081 -0.488582
-0.226945 0.038081 -0.488159
-0.228578 0.038081 -0.487735
-0.230348 0.039091 -0.488191
-0.231979 0.039091 -0.487768
-0.233744 0.040099 -0.488223
-0.235374 0.040099 -0.487801
-0.237135 0.041105 -0.488256
-0.238764 0.041105 -0.487834
-0.240520 0.042110 -0.488288
-0.242147 0.042110 -0.487866
-0.243774 0.042110 -0.487444
-0.245524 0.043113 -0.487899
-0.247150 0.043113 -0.487477
-0.248896 0.044114 -0.487931
-0.250520 0.044114 -0.487510
-0.252261 0.045113 -0.487964
-0.253885 0.045113 -0.487543
-0.255508 0.045113 -0.487122
-0.257131 0.045113 -0.486701
-0.258864 0.046111 -0.487155
-0.260486 0.046111 -0.486735
-0.262108 0.046111 -0.486314
-0.263729 0.046111 -0.485894
-0.265351 0.046111 -0.485473
-0.267076 0.047106 -0.485928
-0.268696 0.047106 -0.485508
-0.270316 0.047106 -0.485088
-0.271936 0.047106 -0.484668
-0.273654 0.048100 -0.485123
-0.275273 0.048100 -0.484703
-0.276892 0.048100 -0.484283
-0.278604 0.049093 -0.484738
-0.280221 0.049093 -0.484319
-0.281838 0.049093 -0.483900
-0.283456 0.049093 -0.483480
-0.285161 0.050083 -0.483935
-0.286776 0.050083 -0.483516
-0.288392 0.050083 -0.483097
-0.290008 0.050083 -0.482678
-0.291624 0.050083 -0.482259
-0.293320 0.051072 -0.482715
-0.294935 0.051072 -0.482297
-0.296627 0.052059 -0.482752
-0.298240 0.052059 -0.482334
-0.299853 0.052059 -0.481916
-0.301466 0.052059 -0.481497
-0.303079 0.052059 -0.481079
-0.304692 0.052059 -0.480661
-0.306306 0.052059 -0.480242
-0.307919 0.052059 -0.479824
-0.309466 0.051072 -0.478529
-0.311080 0.051072 -0.478110
-0.312695 0.051072 -0.477692
-0.314309 0.051072 -0.477273
-0.315924 0.051072 -0.476854
-0.317479 0.050083 -0.475555
-0.319095 0.050083 -0.475136
-0.320711 0.050083 -0.474717
-0.322327 0.050083 -0.474298
-0.323943 0.050083 -0.473879
-0.325507 0.049093 -0.472576
-0.327124 0.049093 -0.472157
-0.328741 0.049093 -0.471738
-0.330359 0.049093 -0.471318
-0.331976 0.049093 -0.470899
-0.333593 0.049093 -0.470480
-0.335167 0.048100 -0.469173
-0.336786 0.048100 -0.468753
-0.338404 0.048100 -0.468333
-0.340023 0.048100 -0.467914
-0.341642 0.048100 -0.467494
-0.343224 0.047106 -0.466183
-0.344844 0.047106 -0.465763
-0.346464 0.047106 -0.465343
-0.348084 0.047106 -0.464923
-0.349673 0.046111 -0.463609
-0.351295 0.046111 -0.463188
-0.352917 0.046111 -0.462768
-0.354511 0.045113 -0.461451
-0.356109 0.044114 -0.460131
-0.357733 0.044114 -0.459710
-0.359335 0.043113 -0.458388
-0.360961 0.043113 -0.457967
-0.362566 0.042110 -0.456642
-0.364194 0.042110 -0.456220
-0.365804 0.041105 -0.454892
-0.367433 0.041105 -0.454470
-0.369061 0.041105 -0.454048
-0.370677 0.040099 -0.452717
-0.372296 0.039091 -0.451384
-0.373928 0.039091 -0.450961
-0.375551 0.038081 -0.449626
-0.377176 0.037069 -0.448288
-0.378811 0.037069 -0.447864
-0.380441 0.036056 -0.446523
-0.382074 0.035041 -0.445180
-0.383710 0.034023 -0.443835
-0.385349 0.034023 -0.443410
-0.386989 0.033005 -0.442062
-0.388632 0.031984 -0.440711
-0.390278 0.030962 -0.439358
-0.391933 0.028911 -0.437072
-0.393587 0.027883 -0.435712
-0.395243 0.026853 -0.434349
-0.396913 0.024788 -0.432046
-0.398589 0.022716 -0.429734
-0.400257 0.021677 -0.428361
-0.401943 0.019593 -0.426036
-0.403635 0.017502 -0.423703
-0.405334 0.015404 -0.421362
-0.407038 0.013298 -0.419012
-0.408749 0.011184 -0.416654
-0.410443 0.010124 -0.415255
0.238926 -0.095275 -0.490699
0.236494 -0.094018 -0.491204
0.234066 -0.092764 -0.491709
0.231644 -0.091512 -0.492212
0.229828 -0.091512 -0.491741
0.227412 -0.090262 -0.492244
0.225000 -0.089015 -0.492746
0.222594 -0.087770 -0.493247
0.220191 -0.086528 -0.493747
0.218383 -0.086528 -0.493278
0.215987 -0.085288 -0.493777
0.214181 -0.085288 -0.493309
0.212374 -0.085288 -0.492840
0.209987 -0.084051 -0.493340
0.208182 -0.084051 -0.492872
0.205801 -0.082816 -0.493371
0.203997 -0.082816 -0.492903
0.201623 -0.081583 -0.493401
0.199821 -0.081583 -0.492934
0.197453 -0.080353 -0.493432
0.195653 -0.080353 -0.492965
0.193291 -0.079125 -0.493463
0.191493 -0.079125 -0.492996
0.189138 -0.077899 -0.493493
0.187342 -0.077899 -0.493028
0.184992 -0.076676 -0.493524
0.183198 -0.076676 -0.493059
0.180855 -0.075456 -0.493554
0.179062 -0.075456 -0.493089
0.177269 -0.075456 -0.492625
0.174934 -0.074237 -0.493120
0.173143 -0.074237 -0.492656
0.171353 -0.074237 -0.492192
0.169025 -0.073021 -0.492687
0.167236 -0.073021 -0.492223
0.164915 -0.071808 -0.492718
0.163128 -0.071808 -0.492255
0.160813 -0.070596 -0.492750
0.159027 -0.070596 -0.492286
0.156719 -0.069387 -0.492781
0.154935 -0.069387 -0.492318
0.152633 -0.068181 -0.492812
0.150850 -0.068181 -0.492349
0.148554 -0.066976 -0.492843
0.146773 -0.066976 -0.492381
0.144483 -0.065774 -0.492873
0.142198 -0.064575 -0.493365
0.140421 -0.064575 -0.492904
0.138643 -0.064575 -0.492443
0.136365 -0.063377 -0.492935
0.134590 -0.063377 -0.492475
0.132318 -0.062182 -0.492966
0.130544 -0.062182 -0.492506
0.128771 -0.062182 -0.492046
0.126507 -0.060989 -0.492537
0.124734 -0.060989 -0.492077
0.122476 -0.059799 -0.492568
0.120706 -0.059799 -0.492109
0.118454 -0.058611 -0.492599
0.116685 -0.058611 -0.492140
0.114439 -0.057425 -0.492630
0.112197 -0.056241 -0.493118
0.109960 -0.055059 -0.493606
0.108196 -0.055059 -0.493149
0.106433 -0.055059 -0.492692
0.104203 -0.053880 -0.493179
0.102441 -0.053880 -0.492722
0.100217 -0.052703 -0.493209
0.098457 -0.052703 -0.492753
0.096238 -0.051528 -0.493240
0.094480 -0.051528 -0.492784
0.092268 -0.050356 -0.493270
0.090511 -0.050356 -0.492814
0.088304 -0.049186 -0.493300
0.086549 -0.049186 -0.492845
0.084349 -0.048018 -0.493330
0.082595 -0.048018 -0.492875
0.080841 -0.048018 -0.492420
0.079088 -0.048018 -0.491966
0.076896 -0.046852 -0.492451
0.075144 -0.046852 -0.491997
0.072959 -0.045688 -0.492482
0.071208 -0.045688 -0.492028
0.069029 -0.044527 -0.492513
0.067280 -0.044527 -0.492059
0.065106 -0.043367 -0.492543
0.063359 -0.043367 -0.492090
0.061191 -0.042210 -0.492574
0.059445 -0.042210 -0.492121
0.057283 -0.041055 -0.492604
0.055539 -0.041055 -0.492152
0.053382 -0.039902 -0.492635
0.051640 -0.039902 -0.492183
0.049489 -0.038752 -0.492665
0.047748 -0.038752 -0.492214
0.045603 -0.037603 -0.492696
0.043864 -0.037603 -0.492245
0.041724 -0.036457 -0.492726
0.039987 -0.036457 -0.492276
0.037853 -0.035313 -0.492756
0.036117 -0.035313 -0.492306
0.033989 -0.034171 -0.492787
0.032255 -0.034171 -0.492337
0.030132 -0.033031 -0.492817
0.028400 -0.033031 -0.492367
0.026282 -0.031894 -0.492847
0.024552 -0.031894 -0.492398
0.022440 -0.030758 -0.492877
0.020711 -0.030758 -0.492428
0.018982 -0.030758 -0.491980
0.017253 -0.030758 -0.491532
0.015150 -0.029625 -0.492011
0.013422 -0.029625 -0.491563
0.011325 -0.028493 -0.492042
0.009599 -0.028493 -0.491594
0.007507 -0.027364 -0.492072
0.005783 -0.027364 -0.491625
0.003696 -0.026237 -0.492103
0.001973 -0.026237 -0.491656
-0.000108 -0.025112 -0.492134
-0.001829 -0.025112 -0.491687
-0.003904 -0.023989 -0.492164
-0.005624 -0.023989 -0.491718
-0.007694 -0.022868 -0.492195
-0.009411 -0.022868 -0.491749
-0.011129 -0.022868 -0.491304
-0.012847 -0.022868 -0.490858
-0.014909 -0.021749 -0.491335
-0.016625 -0.021749 -0.490890
-0.018681 -0.020632 -0.491366
-0.020396 -0.020632 -0.490921
-0.022446 -0.019518 -0.491397
-0.024159 -0.019518 -0.490953
-0.026205 -0.018405 -0.491428
-0.027916 -0.018405 -0.490984
-0.029956 -0.017295 -0.491459
-0.031666 -0.017295 -0.491016
-0.033701 -0.016186 -0.491490
-0.035409 -0.016186 -0.491047
-0.037438 -0.015080 -0.491521
-0.039145 -0.015080 -0.491078
-0.041169 -0.013975 -0.491552
-0.042874 -0.013975 -0.491110
-0.044893 -0.012873 -0.491583
-0.046597 -0.012873 -0.491141
-0.048610 -0.011773 -0.491613
-0.050312 -0.011773 -0.491172
-0.052320 -0.010674 -0.491644
-0.054021 -0.010674 -0.491203
-0.056024 -0.009578 -0.491675
-0.057722 -0.009578 -0.491234
-0.059720 -0.008484 -0.491705
-0.061417 -0.008484 -0.491265
-0.063410 -0.007391 -0.491736
-0.065106 -0.007391 -0.491296
-0.067093 -0.006301 -0.491766
-0.068787 -0.006301 -0.491327
-0.070482 -0.006301 -0.490888
-0.072176 -0.006301 -0.490448
-0.074155 -0.005213 -0.490919
-0.075848 -0.005213 -0.490480
-0.077821 -0.004126 -0.490950
-0.079513 -0.004126 -0.490511
-0.081758 -0.001960 -0.491887
-0.083446 -0.001960 -0.491450
-0.085408 -0.000879 -0.491917
-0.087094 -0.000879 -0.491480
-0.088781 -0.000879 -0.491043
-0.090736 0.000199 -0.491511
-0.092421 0.000199 -0.491074
-0.094371 0.001276 -0.491541
-0.096054 0.001276 -0.491105
-0.097999 0.002350 -0.491571
-0.099681 0.002350 -0.491135
-0.101363 0.002350 -0.490699
-0.103301 0.003423 -0.491166
-0.104981 0.003423 -0.490730
-0.106914 0.004493 -0.491197
-0.108593 0.004493 -0.490761
-0.110521 0.005562 -0.491227
-0.112199 0.005562 -0.490792
-0.114122 0.006629 -0.491258
-0.115798 0.006629 -0.490823
-0.117474 0.006629 -0.490389
-0.119390 0.007694 -0.490854
-0.121064 0.007694 -0.490420
-0.122976 0.008756 -0.490885
-0.124649 0.008756 -0.490451
-0.126555 0.009817 -0.490916
-0.128459 0.010876 -0.491380
-0.130128 0.010876 -0.490947
-0.132027 0.011934 -0.491410
-0.133695 0.011934 -0.490977
-0.135588 0.012989 -0.491440
-0.137255 0.012989 -0.491008
-0.139144 0.014042 -0.491470
-0.140809 0.014042 -0.491039
-0.142692 0.015094 -0.491501
-0.144356 0.015094 -0.491069
-0.146020 0.015094 -0.490638
-0.147897 0.016143 -0.491100
-0.149560 0.016143 -0.490669
-0.151432 0.017191 -0.491130
-0.153093 0.017191 -0.490699
-0.154960 0.018237 -0.491160
-0.156620 0.018237 -0.490730
-0.158279 0.018237 -0.490300
-0.160140 0.019281 -0.490761
-0.161798 0.019281 -0.490331
-0.163654 0.020323 -0.490791
-0.165311 0.020323 -0.490362
-0.167162 0.021363 -0.490822
-0.168817 0.021363 -0.490393
-0.170472 0.021363 -0.489964
-0.172317 0.022401 -0.490424
-0.173971 0.022401 -0.489995
-0.175811 0.023438 -0.490455
-0.177463 0.023438 -0.490026
-0.179299 0.024472 -0.490485
-0.180949 0.024472 -0.490057
-0.182600 0.024472 -0.489629
-0.184429 0.025505 -0.490089
-0.186078 0.025505 -0.489661
-0.187903 0.026536 -0.490120
-0.189551 0.026536 -0.489692
-0.191371 0.027565 -0.490151
-0.193017 0.027565 -0.489724
-0.194832 0.028593 -0.490182
-0.196477 0.028593 -0.489755
-0.198122 0.028593 -0.489329
-0.199931 0.029618 -0.489786
-0.201574 0.029618 -0.489360
-0.203379 0.030642 -0.489818
-0.205020 0.030642 -0.489392
-0.206820 0.031664 -0.489849
-0.208461 0.031664 -0.489423
-0.210101 0.031664 -0.488998
-0.211741 0.031664 -0.488573
-0.213381 0.031664 -0.488148
-0.215172 0.032684 -0.488605
-0.216811 0.032684 -0.488180
-0.218598 0.033702 -0.488637
-0.220235 0.033702 -0.488213
-0.222017 0.034718 -0.488669
-0.223653 0.034718 -0.488245
-0.225288 0.034718 -0.487821
-0.227064 0.035733 -0.488278
-0.228699 0.035733 -0.487854
-0.230470 0.036746 -0.488310
-0.232103 0.036746 -0.487887
-0.233869 0.037757 -0.488342
-0.235501 0.037757 -0.487919
-0.237133 0.037757 -0.487496
-0.238893 0.038766 -0.487952
-0.240523 0.038766 -0.487529
-0.242279 0.039774 -0.487985
-0.243908 0.039774 -0.487562
-0.245660 0.040780 -0.488017
-0.247287 0.040780 -0.487595
-0.249034 0.041783 -0.488050
-0.250660 0.041783 -0.487628
-0.252286 0.041783 -0.487206
-0.253911 0.041783 -0.486785
-0.255651 0.042786 -0.487240
-0.257276 0.042786 -0.486818
-0.258900 0.042786 -0.486397
-0.260634 0.043786 -0.486852
-0.262257 0.043786 -0.486431
-0.263880 0.043786 -0.486010
-0.265503 0.043786 -0.485589
-0.267126 0.043786 -0.485168
-0.268851 0.044785 -0.485624
-0.270473 0.044785 -0.485203
-0.272094 0.044785 -0.484783
-0.273716 0.044785 -0.484362
-0.275434 0.045782 -0.484818
-0.277054 0.045782 -0.484398
-0.278674 0.045782 -0.483978
-0.280294 0.045782 -0.483558
-0.282005 0.046777 -0.484014
-0.283623 0.046777 -0.483594
-0.285242 0.046777 -0.483174
-0.286947 0.047771 -0.483630
-0.288564 0.047771 -0.483211
-0.290181 0.047771 -0.482791
-0.291799 0.047771 -0.482372
-0.293416 0.047771 -0.481953
-0.295112 0.048762 -0.482409
-0.296728 0.048762 -0.481990
-0.298344 0.048762 -0.481571
-0.299960 0.048762 -0.481152
-0.301576 0.048762 -0.480733
-0.303192 0.048762 -0.480314
-0.304808 0.048762 -0.479895
-0.306424 0.048762 -0.479476
-0.308040 0.048762 -0.479057
-0.309590 0.047771 -0.477759
-0.311207 0.047771 -0.477340
-0.312824 0.047771 -0.476920
-0.314442 0.047771 -0.476501
-0.316059 0.047771 -0.476081
-0.317617 0.046777 -0.474779
-0.319236 0.046777 -0.474360
-0.320855 0.046777 -0.473940
-0.322473 0.046777 -0.473520
-0.324092 0.046777 -0.473101
-0.325711 0.046777 -0.472681
-0.327279 0.045782 -0.471375
-0.328899 0.045782 -0.470955
-0.330519 0.045782 -0.470534
-0.332140 0.045782 -0.470114
-0.333760 0.045782 -0.469694
-0.335336 0.044785 -0.468384
-0.336958 0.044785 -0.467964
-0.338579 0.044785 -0.467543
-0.340201 0.044785 -0.467123
-0.341823 0.044785 -0.466703
-0.343407 0.043786 -0.465389
-0.345030 0.043786 -0.464968
-0.346653 0.043786 -0.464547
-0.348276 0.043786 -0.464126
-0.349899 0.043786 -0.463706
-0.351493 0.042786 -0.462388
-0.353089 0.041783 -0.461068
-0.354715 0.041783 -0.460647
-0.356315 0.040780 -0.459325
-0.357943 0.040780 -0.458903
-0.359547 0.039774 -0.457577
-0.361176 0.039774 -0.457155
-0.362785 0.038766 -0.455827
-0.364415 0.038766 -0.455405
-0.366028 0.037757 -0.454074
-0.367660 0.037757 -0.453651
-0.369277 0.036746 -0.452318
-0.370910 0.036746 -0.451894
-0.372532 0.035733 -0.450558
-0.374157 0.034718 -0.449220
-0.375793 0.034718 -0.448796
-0.377422 0.033702 -0.447455
-0.379053 0.032684 -0.446111
-0.380692 0.032684 -0.445686
-0.382328 0.031664 -0.444340
-0.383967 0.030642 -0.442992
-0.385609 0.030642 -0.442566
-0.387256 0.027565 -0.439358
-0.388905 0.026536 -0.438001
-0.390562 0.024472 -0.435706
-0.392225 0.022401 -0.433403
-0.393886 0.021363 -0.432033
-0.395550 0.020323 -0.430662
-0.397228 0.018237 -0.428341
-0.398912 0.016143 -0.426012
-0.400602 0.014042 -0.423675
-0.402298 0.011934 -0.421330
-0.404000 0.009817 -0.418976
-0.405708 0.007694 -0.416613
-0.407402 0.006629 -0.415212
0.237429 -0.098025 -0.490361
0.234996 -0.096764 -0.490868
0.232567 -0.095505 -0.491373
0.230144 -0.094249 -0.491877
0.227725 -0.092996 -0.492380
0.225909 -0.092996 -0.491910
0.223497 -0.091745 -0.492412
0.221089 -0.090496 -0.492914
0.218686 -0.089250 -0.493415
0.216876 -0.089250 -0.492945
0.214479 -0.088006 -0.493446
0.212671 -0.088006 -0.492977
0.210281 -0.086765 -0.493476
0.208474 -0.086765 -0.493008
0.206091 -0.085526 -0.493507
0.204286 -0.085526 -0.493039
0.201908 -0.084290 -0.493538
0.200105 -0.084290 -0.493070
0.197734 -0.083056 -0.493568
0.195933 -0.083056 -0.493101
0.193568 -0.081824 -0.493599
0.191769 -0.081824 -0.493132
0.189411 -0.080595 -0.493629
0.187613 -0.080595 -0.493163
0.185261 -0.079368 -0.493660
0.183465 -0.079368 -0.493194
0.181119 -0.078143 -0.493690
0.179325 -0.078143 -0.493225
0.177530 -0.078143 -0.492760
0.175736 -0.078143 -0.492294
0.173400 -0.076921 -0.492791
0.171607 -0.076921 -0.492326
0.169278 -0.075701 -0.492822
0.167487 -0.075701 -0.492358
0.165163 -0.074484 -0.492853
0.163374 -0.074484 -0.492389
0.161057 -0.073269 -0.492884
0.159269 -0.073269 -0.492421
0.156959 -0.072056 -0.492915
0.155173 -0.072056 -0.492452
0.152868 -0.070846 -0.492946
0.151084 -0.070846 -0.492483
0.148785 -0.069638 -0.492977
0.147003 -0.069638 -0.492515
0.144711 -0.068432 -0.493008
0.142930 -0.068432 -0.492546
0.140644 -0.067229 -0.493038
0.138865 -0.067229 -0.492577
0.136584 -0.066028 -0.493069
0.134807 -0.066028 -0.492608
0.132533 -0.064829 -0.493100
0.130758 -0.064829 -0.492639
0.128982 -0.064829 -0.492179
0.126716 -0.063632 -0.492670
0.124942 -0.063632 -0.492210
0.122681 -0.062438 -0.492701
0.120909 -0.062438 -0.492242
0.118655 -0.061246 -0.492732
0.116885 -0.061246 -0.492273
0.114636 -0.060057 -0.492763
0.112392 -0.058869 -0.493252
0.110625 -0.058869 -0.492794
0.108387 -0.057684 -0.493282
0.106622 -0.057684 -0.492824
0.104389 -0.056501 -0.493312
0.102626 -0.056501 -0.492855
0.100399 -0.055321 -0.493343
0.098637 -0.055321 -0.492886
0.096417 -0.054142 -0.493373
0.094657 -0.054142 -0.492916
0.092442 -0.052966 -0.493403
0.090684 -0.052966 -0.492947
0.088925 -0.052966 -0.492491
0.086718 -0.051792 -0.492977
0.084961 -0.051792 -0.492522
0.082760 -0.050621 -0.493007
0.081005 -0.050621 -0.492552
0.079250 -0.050621 -0.492097
0.077056 -0.049451 -0.492583
0.075302 -0.049451 -0.492128
0.073115 -0.048284 -0.492614
0.071363 -0.048284 -0.492159
0.069181 -0.047119 -0.492644
0.067430 -0.047119 -0.492190
0.065254 -0.045956 -0.492675
0.063505 -0.045956 -0.492221
0.061335 -0.044796 -0.492705
0.059588 -0.044796 -0.492252
0.057841 -0.044796 -0.491799
0.055678 -0.043637 -0.492283
0.053932 -0.043637 -0.491831
0.051775 -0.042481 -0.492314
0.049622 -0.041327 -0.492797
0.047880 -0.041327 -0.492345
0.045732 -0.040175 -0.492827
0.043992 -0.040175 -0.492376
0.041850 -0.039025 -0.492857
0.040111 -0.039025 -0.492406
0.037975 -0.037877 -0.492887
0.036237 -0.037877 -0.492437
0.034107 -0.036732 -0.492917
0.032371 -0.036732 -0.492467
0.030246 -0.035589 -0.492947
0.028512 -0.035589 -0.492498
0.026778 -0.035589 -0.492048
0.024660 -0.034448 -0.492528
0.022928 -0.034448 -0.492079
0.020816 -0.033309 -0.492558
0.019085 -0.033309 -0.492110
0.017354 -0.033309 -0.491661
0.015249 -0.032172 -0.492140
0.013520 -0.032172 -0.491692
0.011421 -0.031037 -0.492171
0.009693 -0.031037 -0.491723
0.007599 -0.029904 -0.492202
0.005873 -0.029904 -0.491754
0.003785 -0.028774 -0.492232
0.002061 -0.028774 -0.491785
-0.000022 -0.027645 -0.492263
-0.001745 -0.027645 -0.491816
-0.003468 -0.027645 -0.491369
-0.005543 -0.026519 -0.491847
-0.007265 -0.026519 -0.491401
-0.009335 -0.025395 -0.491878
-0.011054 -0.025395 -0.491432
-0.012774 -0.025395 -0.490986
-0.014837 -0.024272 -0.491463
-0.016555 -0.024272 -0.491018
-0.018613 -0.023152 -0.491494
-0.020330 -0.023152 -0.491049
-0.022382 -0.022034 -0.491525
-0.024097 -0.022034 -0.491080
-0.026144 -0.020918 -0.491556
-0.027857 -0.020918 -0.491112
-0.029899 -0.019804 -0.491587
-0.031611 -0.019804 -0.491143
-0.033322 -0.019804 -0.490699
-0.035357 -0.018693 -0.491174
-0.037067 -0.018693 -0.490731
-0.039097 -0.017583 -0.491206
-0.041122 -0.016475 -0.491679
-0.042829 -0.016475 -0.491237
-0.044850 -0.015369 -0.491710
-0.046555 -0.015369 -0.491268
-0.048570 -0.014266 -0.491741
-0.050274 -0.014266 -0.491299
-0.052284 -0.013164 -0.491771
-0.053986 -0.013164 -0.491330
-0.055991 -0.012064 -0.491802
-0.057691 -0.012064 -0.491361
-0.059691 -0.010967 -0.491832
-0.061390 -0.010967 -0.491392
-0.063089 -0.010967 -0.490951
-0.065081 -0.009871 -0.491422
-0.066779 -0.009871 -0.490982
-0.068766 -0.008778 -0.491453
-0.070462 -0.008778 -0.491014
-0.072158 -0.008778 -0.490574
-0.074139 -0.007686 -0.491045
-0.075833 -0.007686 -0.490605
-0.077809 -0.006597 -0.491076
-0.079501 -0.006597 -0.490637
-0.081472 -0.005509 -0.491107
-0.083163 -0.005509 -0.490668
-0.085402 -0.003340 -0.492044
-0.087090 -0.003340 -0.491606
-0.088778 -0.003340 -0.491168
-0.090735 -0.002258 -0.491637
-0.092421 -0.002258 -0.491199
-0.094373 -0.001178 -0.491667
-0.096058 -0.001178 -0.491230
-0.097743 -0.001178 -0.490793
-0.099688 -0.000101 -0.491261
-0.101371 -0.000101 -0.490824
-0.103311 0.000975 -0.491291
-0.104993 0.000975 -0.490855
-0.106928 0.002049 -0.491322
-0.108609 0.002049 -0.490886
-0.110538 0.003121 -0.491353
-0.112217 0.003121 -0.490917
-0.113896 0.003121 -0.490482
-0.115819 0.004191 -0.490948
-0.117497 0.004191 -0.490513
-0.119415 0.005259 -0.490979
-0.121091 0.005259 -0.490544
-0.123004 0.006325 -0.491010
-0.124679 0.006325 -0.490575
-0.126353 0.006325 -0.490141
-0.128492 0.008451 -0.491504
-0.130163 0.008451 -0.491071
-0.132063 0.009511 -0.491535
-0.133733 0.009511 -0.491102
-0.135628 0.010570 -0.491565
-0.137296 0.010570 -0.491132
-0.139186 0.011626 -0.491595
-0.140853 0.011626 -0.491163
-0.142520 0.011626 -0.490730
-0.144404 0.012681 -0.491193
-0.146069 0.012681 -0.490761
-0.147948 0.013733 -0.491223
-0.149612 0.013733 -0.490792
-0.151485 0.014784 -0.491254
-0.153148 0.014784 -0.490823
-0.154810 0.014784 -0.490392
-0.156678 0.015833 -0.490853
-0.158339 0.015833 -0.490423
-0.160201 0.016880 -0.490884
-0.161861 0.016880 -0.490454
-0.163719 0.017925 -0.490914
-0.165376 0.017925 -0.490485
-0.167034 0.017925 -0.490055
-0.168886 0.018969 -0.490515
-0.170542 0.018969 -0.490086
-0.172389 0.020010 -0.490546
-0.174044 0.020010 -0.490117
-0.175886 0.021050 -0.490577
-0.177540 0.021050 -0.490148
-0.179193 0.021050 -0.489720
-0.181029 0.022087 -0.490179
-0.182681 0.022087 -0.489751
-0.184512 0.023123 -0.490210
-0.186163 0.023123 -0.489782
-0.187989 0.024157 -0.490241
-0.189638 0.024157 -0.489814
-0.191460 0.025189 -0.490272
-0.193107 0.025189 -0.489845
-0.194755 0.025189 -0.489418
-0.196570 0.026220 -0.489876
-0.198216 0.026220 -0.489450
-0.200027 0.027248 -0.489908
-0.201672 0.027248 -0.489481
-0.203478 0.028275 -0.489939
-0.205121 0.028275 -0.489513
-0.206764 0.028275 -0.489087
-0.208564 0.029300 -0.489544
-0.210206 0.029300 -0.489119
-0.211848 0.029300 -0.488693
-0.213489 0.029300 -0.488267
-0.215282 0.030323 -0.488725
-0.216922 0.030323 -0.488300
-0.218710 0.031344 -0.488757
-0.220349 0.031344 -0.488332
-0.221987 0.031344 -0.487907
-0.223769 0.032363 -0.488365
-0.225406 0.032363 -0.487940
-0.227184 0.033381 -0.488397
-0.228820 0.033381 -0.487973
-0.230592 0.034397 -0.488429
-0.232227 0.034397 -0.488005
-0.233861 0.034397 -0.487582
-0.235628 0.035411 -0.488038
-0.237261 0.035411 -0.487615
-0.239023 0.036423 -0.488071
-0.240654 0.036423 -0.487648
-0.242412 0.037433 -0.488103
-0.244042 0.037433 -0.487680
-0.245795 0.038442 -0.488136
-0.247424 0.038442 -0.487713
-0.249052 0.038442 -0.487291
-0.250799 0.039449 -0.487746
-0.252427 0.039449 -0.487324
-0.254054 0.039449 -0.486902
-0.255681 0.039449 -0.486480
-0.257421 0.040454 -0.486936
-0.259047 0.040454 -0.486514
-0.260673 0.040454 -0.486092
-0.262298 0.040454 -0.485671
-0.264031 0.041458 -0.486127
-0.265655 0.041458 -0.485705
-0.267280 0.041458 -0.485284
-0.268904 0.041458 -0.484863
-0.270629 0.042459 -0.485319
-0.272252 0.042459 -0.484898
-0.273875 0.042459 -0.484477
-0.275498 0.042459 -0.484056
-0.277216 0.043459 -0.484513
-0.278838 0.043459 -0.484092
-0.280459 0.043459 -0.483672
-0.282081 0.043459 -0.483251
-0.283791 0.044457 -0.483708
-0.285411 0.044457 -0.483288
-0.287032 0.044457 -0.482868
-0.288652 0.044457 -0.482448
-0.290355 0.045454 -0.482905
-0.291974 0.045454 -0.482485
-0.293673 0.046448 -0.482941
-0.295290 0.046448 -0.482522
-0.296907 0.046448 -0.482103
-0.298525 0.046448 -0.481683
-0.300142 0.046448 -0.481264
-0.301686 0.045454 -0.479966
-0.303305 0.045454 -0.479547
-0.304924 0.045454 -0.479127
-0.306542 0.045454 -0.478707
-0.308161 0.045454 -0.478287
-0.309714 0.044457 -0.476986
-0.311334 0.044457 -0.476566
-0.312954 0.044457 -0.476146
-0.314574 0.044457 -0.475726
-0.316195 0.044457 -0.475306
-0.317756 0.043459 -0.474001
-0.319377 0.043459 -0.473580
-0.320999 0.043459 -0.473160
-0.322620 0.043459 -0.472740
-0.324242 0.043459 -0.472319
-0.325864 0.043459 -0.471899
-0.327435 0.042459 -0.470590
-0.329058 0.042459 -0.470169
-0.330681 0.042459 -0.469748
-0.332304 0.042459 -0.469327
-0.333927 0.042459 -0.468906
-0.335506 0.041458 -0.467593
-0.337130 0.041458 -0.467172
-0.338755 0.041458 -0.466751
-0.340379 0.041458 -0.466330
-0.342004 0.041458 -0.465908
-0.343592 0.040454 -0.464592
-0.345217 0.040454 -0.464170
-0.346843 0.040454 -0.463749
-0.348469 0.040454 -0.463327
-0.350064 0.039449 -0.462007
-0.351691 0.039449 -0.461585
-0.353291 0.038442 -0.460262
-0.354919 0.038442 -0.459840
-0.356523 0.037433 -0.458515
-0.358153 0.037433 -0.458092
-0.359760 0.036423 -0.456764
-0.361392 0.036423 -0.456341
-0.363004 0.035411 -0.455010
-0.364637 0.035411 -0.454586
-0.366270 0.035411 -0.454163
-0.367888 0.034397 -0.452829
-0.369508 0.033381 -0.451493
-0.371132 0.032363 -0.450154
-0.372769 0.032363 -0.449729
-0.374397 0.031344 -0.448388
-0.376027 0.030323 -0.447044
-0.377668 0.030323 -0.446619
-0.379303 0.029300 -0.445272
-0.380940 0.028275 -0.443923
-0.382579 0.026220 -0.441645
-0.384224 0.025189 -0.440289
-0.385872 0.023123 -0.437999
-0.387527 0.021050 -0.435699
-0.389184 0.020010 -0.434332
-0.390849 0.017925 -0.432021
-0.392513 0.016880 -0.430646
-0.394188 0.014784 -0.428322
-0.395870 0.012681 -0.425989
-0.397557 0.010570 -0.423647
-0.399250 0.008451 -0.421298
-0.400950 0.006325 -0.418939
-0.402656 0.004191 -0.416573
0.233495 -0.099515 -0.490530
0.231065 -0.098252 -0.491036
0.228641 -0.096993 -0.491541
0.226221 -0.095735 -0.492046
0.224404 -0.095735 -0.491574
0.221990 -0.094480 -0.492078
0.219582 -0.093228 -0.492580
0.217178 -0.091978 -0.493082
0.214779 -0.090730 -0.493583
0.212969 -0.090730 -0.493113
0.210576 -0.089485 -0.493613
0.208767 -0.089485 -0.493144
0.206381 -0.088242 -0.493644
0.204574 -0.088242 -0.493175
0.202195 -0.087002 -0.493674
0.200390 -0.087002 -0.493206
0.198585 -0.087002 -0.492738
0.196780 -0.087002 -0.492270
0.194410 -0.085764 -0.492770
0.192607 -0.085764 -0.492302
0.190243 -0.084528 -0.492801
0.188442 -0.084528 -0.492334
0.186084 -0.083295 -0.492832
0.184285 -0.083295 -0.492366
0.181934 -0.082065 -0.492864
0.180136 -0.082065 -0.492398
0.177791 -0.080836 -0.492895
0.175451 -0.079610 -0.493391
0.173657 -0.079610 -0.492926
0.171323 -0.078387 -0.493422
0.169530 -0.078387 -0.492957
0.167203 -0.077166 -0.493452
0.165412 -0.077166 -0.492988
0.163621 -0.077166 -0.492524
0.161301 -0.075947 -0.493019
0.159512 -0.075947 -0.492555
0.157199 -0.074730 -0.493050
0.155411 -0.074730 -0.492586
0.153104 -0.073516 -0.493081
0.151318 -0.073516 -0.492618
0.149017 -0.072305 -0.493111
0.147233 -0.072305 -0.492649
0.145449 -0.072305 -0.492186
0.143156 -0.071095 -0.492680
0.141374 -0.071095 -0.492218
0.139086 -0.069888 -0.492711
0.137306 -0.069888 -0.492249
0.135025 -0.068683 -0.492742
0.133246 -0.068683 -0.492281
0.131467 -0.068683 -0.491820
0.129194 -0.067481 -0.492312
0.126925 -0.066280 -0.492804
0.124661 -0.065083 -0.493295
0.122887 -0.065083 -0.492835
0.120628 -0.063887 -0.493325
0.118856 -0.063887 -0.492866
0.116604 -0.062694 -0.493355
0.114833 -0.062694 -0.492896
0.112587 -0.061503 -0.493386
0.110818 -0.061503 -0.492927
0.108578 -0.060314 -0.493416
0.106811 -0.060314 -0.492958
0.104576 -0.059127 -0.493446
0.102811 -0.059127 -0.492988
0.100582 -0.057943 -0.493476
0.098819 -0.057943 -0.493019
0.096596 -0.056761 -0.493506
0.094834 -0.056761 -0.493049
0.092617 -0.055582 -0.493536
0.090857 -0.055582 -0.493079
0.089097 -0.055582 -0.492623
0.086888 -0.054404 -0.493110
0.085129 -0.054404 -0.492654
0.082926 -0.053229 -0.493140
0.081169 -0.053229 -0.492684
0.079412 -0.053229 -0.492229
0.077216 -0.052056 -0.492715
0.075461 -0.052056 -0.492260
0.073271 -0.050885 -0.492746
0.071517 -0.050885 -0.492291
0.069333 -0.049716 -0.492776
0.067581 -0.049716 -0.492322
0.065402 -0.048550 -0.492807
0.063652 -0.048550 -0.492353
0.061902 -0.048550 -0.491899
0.059731 -0.047386 -0.492384
0.057982 -0.047386 -0.491930
0.055817 -0.046224 -0.492414
0.054070 -0.046224 -0.491961
0.051910 -0.045064 -0.492445
0.049755 -0.043906 -0.492928
0.048011 -0.043906 -0.492476
0.045861 -0.042751 -0.492958
0.044119 -0.042751 -0.492506
0.041975 -0.041598 -0.492988
0.040235 -0.041598 -0.492537
0.038096 -0.040447 -0.493018
0.036358 -0.040447 -0.492567
0.034225 -0.039298 -0.493048
0.032488 -0.039298 -0.492598
0.030750 -0.039298 -0.492147
0.028625 -0.038151 -0.492628
0.026889 -0.038151 -0.492178
0.024769 -0.037006 -0.492659
0.023035 -0.037006 -0.492209
0.020921 -0.035864 -0.492689
0.019189 -0.035864 -0.492240
0.017457 -0.035864 -0.491790
0.015349 -0.034724 -0.492270
0.013619 -0.034724 -0.491821
0.011517 -0.033585 -0.492301
0.009788 -0.033585 -0.491852
0.007692 -0.032449 -0.492331
0.005965 -0.032449 -0.491883
0.003874 -0.031315 -0.492362
0.002148 -0.031315 -0.491914
0.000422 -0.031315 -0.491467
-0.001661 -0.030183 -0.491945
-0.003385 -0.030183 -0.491498
-0.005463 -0.029054 -0.491976
-0.007186 -0.029054 -0.491529
-0.009258 -0.027926 -0.492006
-0.010979 -0.027926 -0.491560
-0.012701 -0.027926 -0.491114
-0.014766 -0.026800 -0.491591
-0.016485 -0.026800 -0.491145
-0.018545 -0.025677 -0.491622
-0.020263 -0.025677 -0.491177
-0.022318 -0.024555 -0.491653
-0.024034 -0.024555 -0.491208
-0.026083 -0.023436 -0.491684
-0.027798 -0.023436 -0.491239
-0.029513 -0.023436 -0.490795
-0.031555 -0.022319 -0.491271
-0.033268 -0.022319 -0.490826
-0.035305 -0.021204 -0.491302
-0.037016 -0.021204 -0.490858
-0.039048 -0.020091 -0.491333
-0.041076 -0.018980 -0.491807
-0.042784 -0.018980 -0.491364
-0.044806 -0.017870 -0.491838
-0.046513 -0.017870 -0.491395
-0.048530 -0.016763 -0.491868
-0.050236 -0.016763 -0.491426
-0.052248 -0.015659 -0.491899
-0.053951 -0.015659 -0.491457
-0.055958 -0.014556 -0.491929
-0.057660 -0.014556 -0.491488
-0.059362 -0.014556 -0.491046
-0.061362 -0.013455 -0.491518
-0.063062 -0.013455 -0.491078
-0.065057 -0.012356 -0.491549
-0.066756 -0.012356 -0.491109
-0.068745 -0.011259 -0.491580
-0.070443 -0.011259 -0.491140
-0.072140 -0.011259 -0.490700
-0.074123 -0.010164 -0.491171
-0.075818 -0.010164 -0.490731
-0.077796 -0.009071 -0.491202
-0.079490 -0.009071 -0.490762
-0.081462 -0.007980 -0.491233
-0.083155 -0.007980 -0.490794
-0.085122 -0.006892 -0.491263
-0.086813 -0.006892 -0.490825
-0.089046 -0.004720 -0.492200
-0.090734 -0.004720 -0.491763
-0.092689 -0.003637 -0.492230
-0.094375 -0.003637 -0.491793
-0.096062 -0.003637 -0.491356
-0.098010 -0.002556 -0.491823
-0.099695 -0.002556 -0.491386
-0.101638 -0.001477 -0.491853
-0.103322 -0.001477 -0.491417
-0.105260 -0.000400 -0.491883
-0.106942 -0.000400 -0.491447
-0.108624 -0.000400 -0.491011
-0.110555 0.000675 -0.491478
-0.112236 0.000675 -0.491042
-0.114162 0.001748 -0.491508
-0.115841 0.001748 -0.491073
-0.117763 0.002819 -0.491539
-0.119440 0.002819 -0.491104
-0.121357 0.003889 -0.491569
-0.123033 0.003889 -0.491134
-0.124708 0.003889 -0.490700
-0.126618 0.004956 -0.491165
-0.128293 0.004956 -0.490731
-0.130198 0.006021 -0.491195
-0.131871 0.006021 -0.490762
-0.133771 0.007085 -0.491226
-0.135442 0.007085 -0.490793
-0.137113 0.007085 -0.490359
-0.139007 0.008146 -0.490823
-0.140677 0.008146 -0.490390
-0.142566 0.009206 -0.490854
-0.144234 0.009206 -0.490422
-0.146118 0.010263 -0.490885
-0.147785 0.010263 -0.490453
-0.149664 0.011319 -0.490916
-0.151329 0.011319 -0.490484
-0.152994 0.011319 -0.490052
-0.154867 0.012373 -0.490515
-0.156531 0.012373 -0.490083
-0.158398 0.013425 -0.490546
-0.160061 0.013425 -0.490115
-0.161924 0.014475 -0.490577
-0.163584 0.014475 -0.490146
-0.165245 0.014475 -0.489715
-0.167102 0.015523 -0.490177
-0.168761 0.015523 -0.489747
-0.170613 0.016570 -0.490208
-0.172271 0.016570 -0.489779
-0.173929 0.016570 -0.489349
-0.175774 0.017614 -0.489810
-0.177431 0.017614 -0.489381
-0.179271 0.018657 -0.489842
-0.180926 0.018657 -0.489412
-0.182762 0.019698 -0.489873
-0.184416 0.019698 -0.489444
-0.186247 0.020737 -0.489904
-0.187899 0.020737 -0.489476
-0.189551 0.020737 -0.489048
-0.191376 0.021774 -0.489508
-0.193026 0.021774 -0.489080
-0.194846 0.022809 -0.489539
-0.196495 0.022809 -0.489112
-0.198311 0.023842 -0.489571
-0.199958 0.023842 -0.489144
-0.201606 0.023842 -0.488716
-0.203415 0.024874 -0.489175
-0.205062 0.024874 -0.488749
-0.206866 0.025904 -0.489207
-0.208511 0.025904 -0.488781
-0.210311 0.026931 -0.489239
-0.211954 0.026931 -0.488813
-0.213749 0.027957 -0.489271
-0.215391 0.027957 -0.488845
-0.217033 0.027957 -0.488419
-0.218822 0.028982 -0.488877
-0.220462 0.028982 -0.488452
-0.222247 0.030004 -0.488909
-0.223886 0.030004 -0.488484
-0.225666 0.031025 -0.488941
-0.227303 0.031025 -0.488516
-0.228941 0.031025 -0.488092
-0.230715 0.032043 -0.488549
-0.232351 0.032043 -0.488124
-0.234120 0.033060 -0.488581
-0.235755 0.033060 -0.488157
-0.237520 0.034076 -0.488613
-0.239153 0.034076 -0.488189
-0.240913 0.035089 -0.488645
-0.242545 0.035089 -0.488222
-0.244176 0.035089 -0.487799
-0.245931 0.036101 -0.488254
-0.247561 0.036101 -0.487832
-0.249191 0.036101 -0.487409
-0.250821 0.036101 -0.486986
-0.252568 0.037111 -0.487442
-0.254197 0.037111 -0.487020
-0.255825 0.037111 -0.486597
-0.257454 0.037111 -0.486175
-0.259194 0.038119 -0.486631
-0.260821 0.038119 -0.486209
-0.262448 0.038119 -0.485787
-0.264076 0.038119 -0.485365
-0.265808 0.039125 -0.485822
-0.267434 0.039125 -0.485400
-0.269060 0.039125 -0.484978
-0.270686 0.039125 -0.484557
-0.272411 0.040130 -0.485014
-0.274035 0.040130 -0.484592
-0.275659 0.040130 -0.484171
-0.277284 0.040130 -0.483750
-0.279002 0.041132 -0.484207
-0.280625 0.041132 -0.483786
-0.282248 0.041132 -0.483365
-0.283871 0.041132 -0.482944
-0.285581 0.042133 -0.483402
-0.287203 0.042133 -0.482981
-0.288824 0.042133 -0.482561
-0.290446 0.042133 -0.482140
-0.292149 0.043133 -0.482598
-0.293769 0.043133 -0.482178
-0.295389 0.043133 -0.481758
-0.297009 0.043133 -0.481338
-0.298630 0.043133 -0.480917
-0.300250 0.043133 -0.480497
-0.301797 0.042133 -0.479197
-0.303418 0.042133 -0.478777
-0.305040 0.042133 -0.478356
-0.306662 0.042133 -0.477936
-0.308283 0.042133 -0.477515
-0.309905 0.042133 -0.477095
-0.311462 0.041132 -0.475790
-0.313085 0.041132 -0.475369
-0.314708 0.041132 -0.474948
-0.316331 0.041132 -0.474528
-0.317954 0.041132 -0.474107
-0.319519 0.040130 -0.472798
-0.321144 0.040130 -0.472377
-0.322768 0.040130 -0.471956
-0.324392 0.040130 -0.471535
-0.326017 0.040130 -0.471114
