ply
format ascii 1.0
element vertex 1731
property float x
property float y
property float z
end_header
0.271698 0.304283 -0.471033
0.271698 0.304589 -0.469383
0.271698 0.304895 -0.467733
0.271698 0.305201 -0.466083
0.271698 0.305507 -0.464433
0.271698 0.305813 -0.462783
0.271698 0.306119 -0.461133
0.271419 0.305100 -0.459591
0.271419 0.305407 -0.457939
0.271419 0.305713 -0.456288
0.271140 0.304693 -0.454739
0.270860 0.303672 -0.453188
0.270860 0.303979 -0.451534
0.270579 0.302956 -0.449979
0.270298 0.301931 -0.448421
0.270298 0.302238 -0.446763
0.270017 0.301212 -0.445201
0.269735 0.300184 -0.443636
0.269735 0.300492 -0.441976
0.269452 0.299462 -0.440407
0.269169 0.298431 -0.438835
0.268886 0.297397 -0.437260
0.268886 0.297706 -0.435596
0.268602 0.296671 -0.434017
0.268317 0.295635 -0.432435
0.268032 0.294596 -0.430851
0.267747 0.293556 -0.429263
0.267461 0.292514 -0.427673
0.267174 0.291469 -0.426080
0.266887 0.290424 -0.424484
0.266887 0.290734 -0.422809
0.266600 0.289687 -0.421209
0.266311 0.288637 -0.419606
0.266023 0.287586 -0.418000
0.265444 0.285166 -0.416462
0.265154 0.284109 -0.414849
0.264572 0.281676 -0.413301
0.263988 0.279234 -0.411748
0.263402 0.276784 -0.410189
0.263109 0.275713 -0.408560
0.262519 0.273250 -0.406991
0.261928 0.270777 -0.405417
0.261335 0.268296 -0.403836
0.261037 0.267210 -0.402192
0.260141 0.263307 -0.400659
0.259541 0.260798 -0.399061
0.258335 0.255435 -0.397568
0.256814 0.248596 -0.396118
0.255588 0.243144 -0.394601
0.254352 0.237651 -0.393074
0.252795 0.230646 -0.391585
0.251223 0.223576 -0.390083
0.249954 0.217938 -0.388518
0.248356 0.210749 -0.386989
0.247066 0.205014 -0.385399
0.245440 0.197701 -0.383842
0.244128 0.191868 -0.382226
0.242474 0.184429 -0.380640
0.241139 0.178494 -0.378999
0.239456 0.170926 -0.377383
0.238098 0.164887 -0.375715
0.236385 0.157187 -0.374069
0.237072 0.160751 -0.372167
0.238438 0.167500 -0.370209
0.239794 0.174196 -0.368266
0.241474 0.182411 -0.366310
0.242806 0.188993 -0.364398
0.243798 0.193980 -0.362526
0.245113 0.200474 -0.360641
0.245766 0.203868 -0.358812
0.246417 0.207249 -0.356990
0.247066 0.210618 -0.355174
0.247389 0.212462 -0.353381
0.248356 0.217316 -0.351564
0.248677 0.219147 -0.349781
0.249317 0.222471 -0.347991
0.249636 0.224292 -0.346217
0.250272 0.227597 -0.344438
0.250590 0.229408 -0.342672
0.250906 0.231215 -0.340909
0.251223 0.233020 -0.339149
0.251223 0.233345 -0.337393
0.251538 0.235146 -0.335638
0.252168 0.238412 -0.333889
0.252481 0.240203 -0.332143
0.252481 0.240527 -0.330393
0.252795 0.242314 -0.328651
0.253107 0.244098 -0.326912
0.253107 0.244422 -0.325166
0.253419 0.246202 -0.323432
0.253419 0.246526 -0.321687
0.253731 0.248302 -0.319958
0.253731 0.248626 -0.318215
0.254042 0.250399 -0.316491
0.254042 0.250722 -0.314749
0.254042 0.251045 -0.313007
0.254352 0.252814 -0.311289
0.254352 0.253136 -0.309549
0.254662 0.254902 -0.307836
0.254662 0.255224 -0.306098
0.254662 0.255547 -0.304359
0.254971 0.257308 -0.302653
0.254971 0.257630 -0.300916
0.254971 0.257952 -0.299179
0.255280 0.259710 -0.297479
0.255280 0.260032 -0.295744
0.255588 0.261786 -0.294048
0.255588 0.262108 -0.292314
0.255588 0.262429 -0.290581
0.255895 0.264180 -0.288892
0.255895 0.264501 -0.287160
0.255895 0.264822 -0.285427
0.256202 0.266569 -0.283745
0.256202 0.266890 -0.282014
0.256202 0.267210 -0.280284
0.256202 0.267531 -0.278553
0.256202 0.267852 -0.276823
0.256508 0.269594 -0.275149
0.256508 0.269915 -0.273420
0.256814 0.271654 -0.271752
0.256814 0.271974 -0.270024
0.256814 0.272294 -0.268297
0.257119 0.274029 -0.266634
0.256814 0.272935 -0.264842
0.257119 0.274669 -0.263183
0.257119 0.274989 -0.261457
0.257119 0.275309 -0.259732
0.257119 0.275629 -0.258006
0.257119 0.275949 -0.256280
0.257119 0.276269 -0.254554
0.257424 0.277999 -0.252906
0.257424 0.278318 -0.251182
0.257424 0.278638 -0.249458
0.257424 0.278958 -0.247734
0.257424 0.279277 -0.246009
0.257728 0.281003 -0.244370
0.257728 0.281322 -0.242648
0.257728 0.281642 -0.240925
0.257728 0.281961 -0.239203
0.257728 0.282280 -0.237480
0.257728 0.282600 -0.235757
0.257728 0.282919 -0.234035
0.257728 0.283239 -0.232312
0.257728 0.283558 -0.230590
0.257728 0.283877 -0.228867
0.257728 0.284197 -0.227145
0.257728 0.284516 -0.225422
0.257728 0.284835 -0.223700
0.258032 0.286554 -0.222082
0.258032 0.286873 -0.220361
0.258032 0.287192 -0.218640
0.258032 0.287511 -0.216919
0.258032 0.287830 -0.215198
0.258032 0.288150 -0.213477
0.258032 0.288469 -0.211756
0.258032 0.288788 -0.210035
0.258032 0.289107 -0.208314
0.258032 0.289426 -0.206593
0.258032 0.289745 -0.204872
0.258032 0.290064 -0.203151
0.258032 0.290383 -0.201430
0.258032 0.290702 -0.199709
0.258032 0.291021 -0.197988
0.258032 0.291340 -0.196268
0.258335 0.293052 -0.194677
0.258335 0.293370 -0.192957
0.258335 0.293689 -0.191238
0.258335 0.294008 -0.189519
0.258335 0.294327 -0.187799
0.258335 0.294645 -0.186080
0.258032 0.293574 -0.184221
0.258032 0.293893 -0.182500
0.258032 0.294212 -0.180779
0.258335 0.295921 -0.179202
0.258335 0.296239 -0.177483
0.258335 0.296558 -0.175763
0.258335 0.296877 -0.174044
0.258335 0.297196 -0.172324
0.258335 0.297515 -0.170605
0.258335 0.297833 -0.168886
0.258335 0.298152 -0.167166
0.258335 0.298471 -0.165447
0.258032 0.297403 -0.163569
0.258032 0.297722 -0.161848
0.258032 0.298041 -0.160127
0.258032 0.298360 -0.158406
0.258032 0.298679 -0.156685
0.258032 0.298998 -0.154964
0.258032 0.299317 -0.153243
0.258032 0.299636 -0.151522
0.258032 0.299955 -0.149801
0.258032 0.300274 -0.148080
0.258032 0.300593 -0.146359
0.258032 0.300912 -0.144638
0.257424 0.298457 -0.142561
0.257728 0.300165 -0.141016
0.257728 0.300484 -0.139294
0.257424 0.299416 -0.137388
0.257424 0.299736 -0.135664
0.257424 0.300055 -0.133940
0.257424 0.300375 -0.132216
0.257119 0.299306 -0.130302
0.257119 0.299625 -0.128576
0.257119 0.299945 -0.126851
0.257119 0.300265 -0.125125
0.257119 0.300585 -0.123399
0.256814 0.299515 -0.121476
0.256814 0.299835 -0.119748
0.256814 0.300156 -0.118021
0.256814 0.300476 -0.116294
0.256814 0.300796 -0.114566
0.256508 0.299725 -0.112633
0.256508 0.300046 -0.110904
0.256202 0.298973 -0.108965
0.256202 0.299294 -0.107235
0.255895 0.298220 -0.105291
0.255588 0.297143 -0.103343
0.255280 0.296065 -0.101392
0.255280 0.296387 -0.099657
0.254971 0.295307 -0.097701
0.254662 0.294225 -0.095741
0.254662 0.294547 -0.094003
0.254352 0.293463 -0.092038
0.254042 0.292378 -0.090069
0.254042 0.292700 -0.088327
0.253731 0.291613 -0.086353
0.253419 0.290524 -0.084376
0.253419 0.290847 -0.082631
0.253419 0.291171 -0.080886
0.253107 0.290080 -0.078901
0.252795 0.288987 -0.076913
0.252795 0.289311 -0.075165
0.252481 0.288216 -0.073171
0.252168 0.287120 -0.071174
0.252168 0.287444 -0.069423
0.251853 0.286346 -0.067420
0.251538 0.285246 -0.065414
0.251538 0.285571 -0.063659
0.251223 0.284469 -0.061647
0.250906 0.283365 -0.059632
0.250906 0.283690 -0.057874
0.250590 0.282584 -0.055853
0.250590 0.282911 -0.054093
0.250272 0.281803 -0.052067
0.249954 0.280693 -0.050037
0.249636 0.279581 -0.048003
0.249317 0.278467 -0.045965
0.248997 0.277351 -0.043923
0.248677 0.276233 -0.041878
0.248356 0.275112 -0.039829
0.248034 0.273990 -0.037775
0.247712 0.272865 -0.035718
0.247389 0.271739 -0.033657
0.247389 0.272068 -0.031881
0.247066 0.270940 -0.029815
0.246742 0.269809 -0.027744
0.246417 0.268676 -0.025670
0.246092 0.267541 -0.023592
0.246092 0.267872 -0.021809
0.245440 0.265265 -0.019423
0.245113 0.264124 -0.017333
0.245113 0.264455 -0.015545
0.245113 0.264787 -0.013757
0.244785 0.263644 -0.011660
0.244785 0.263975 -0.009870
0.244785 0.264307 -0.008080
0.244785 0.264639 -0.006290
0.244785 0.264971 -0.004501
0.244785 0.265303 -0.002711
0.244785 0.265635 -0.000921
0.244785 0.265966 0.000869
0.244785 0.266298 0.002659
0.244457 0.265156 0.004774
0.244457 0.265488 0.006565
0.244457 0.265820 0.008357
0.244457 0.266152 0.010148
0.244457 0.266484 0.011940
0.244457 0.266816 0.013731
0.244457 0.267148 0.015522
0.244128 0.266006 0.017652
0.244128 0.266338 0.019445
0.244128 0.266671 0.021238
0.244128 0.267003 0.023031
0.244128 0.267335 0.024825
0.244128 0.267668 0.026618
0.244128 0.268000 0.028411
0.244128 0.268333 0.030204
0.244128 0.268665 0.031997
0.243798 0.267523 0.034144
0.243798 0.267856 0.035939
0.243798 0.268188 0.037734
0.243798 0.268521 0.039529
0.243798 0.268854 0.041324
0.243798 0.269187 0.043119
0.243798 0.269519 0.044914
0.243468 0.268377 0.047075
0.243468 0.268710 0.048872
0.243468 0.269043 0.050669
0.243468 0.269376 0.052465
0.243468 0.269709 0.054262
0.243468 0.270042 0.056058
0.243137 0.268899 0.058233
0.243137 0.269232 0.060031
0.243137 0.269566 0.061829
0.243137 0.269899 0.063628
0.242806 0.268754 0.065811
0.242806 0.269088 0.067611
0.242474 0.267942 0.069801
0.242474 0.268276 0.071602
0.242141 0.267127 0.073798
0.242141 0.267462 0.075601
0.241808 0.266311 0.077803
0.241808 0.266646 0.079608
0.241474 0.265494 0.081815
0.241139 0.264340 0.084027
0.240804 0.263183 0.086243
0.240468 0.262024 0.088463
0.240131 0.260863 0.090687
0.239456 0.258197 0.093331
0.239456 0.258534 0.095149
0.238778 0.255859 0.097807
0.238438 0.254686 0.100051
0.238098 0.253511 0.102300
0.237415 0.250816 0.104982
0.237072 0.249634 0.107242
0.236729 0.248449 0.109506
0.236385 0.247263 0.111775
0.235696 0.244542 0.114489
0.235003 0.241810 0.117213
0.234308 0.239068 0.119948
0.233610 0.236315 0.122694
0.232910 0.233551 0.125451
0.232558 0.232336 0.127760
0.231854 0.229557 0.130535
0.230791 0.225193 0.133787
0.229006 0.217632 0.138001
0.229006 0.217979 0.139873
0.228647 0.216736 0.142222
0.228288 0.215490 0.144575
0.227927 0.214242 0.146933
0.227566 0.212992 0.149296
0.227204 0.211739 0.151664
0.227204 0.212088 0.153545
0.226841 0.210832 0.155919
0.226478 0.209575 0.158298
0.226114 0.208314 0.160682
0.225383 0.205436 0.163573
0.225017 0.204168 0.165969
0.224282 0.201272 0.168880
0.223914 0.199996 0.171288
0.223174 0.197083 0.174219
0.222432 0.194158 0.177161
0.221687 0.191222 0.180115
0.221313 0.189926 0.182552
0.220563 0.186972 0.185526
0.219810 0.184006 0.188512
0.219054 0.181028 0.191511
0.218675 0.179713 0.193977
0.217914 0.176716 0.196996
0.217150 0.173708 0.200027
0.216383 0.170687 0.203071
0.215998 0.169351 0.205567
0.215227 0.166312 0.208632
0.214452 0.163260 0.211709
0.213674 0.160196 0.214799
0.213283 0.158839 0.217326
0.212500 0.155756 0.220437
0.211714 0.152660 0.223562
0.210925 0.149551 0.226699
0.210529 0.148174 0.229257
0.209734 0.145045 0.232416
0.208936 0.141904 0.235588
0.208135 0.138749 0.238774
0.207733 0.137351 0.241363
0.206927 0.134176 0.244571
0.206117 0.130988 0.247793
0.205304 0.127787 0.251029
0.204896 0.126367 0.253650
0.204078 0.123145 0.256908
0.203256 0.119910 0.260180
0.202431 0.116661 0.263466
0.202017 0.115218 0.266121
0.201186 0.111949 0.269430
0.200352 0.108665 0.272754
0.199514 0.105368 0.276092
0.199094 0.103902 0.278779
0.198250 0.100583 0.282141
0.197404 0.097250 0.285517
0.196553 0.093903 0.288908
0.196126 0.092413 0.291631
0.195270 0.089044 0.295046
0.194410 0.085661 0.298476
0.193114 0.080367 0.302621
0.192679 0.078849 0.305382
0.191808 0.075421 0.308857
0.190933 0.071978 0.312348
0.190054 0.068519 0.315854
0.189613 0.066977 0.318651
0.188729 0.063496 0.322183
0.187840 0.059999 0.325730
0.186947 0.056487 0.329294
0.186051 0.052960 0.332873
0.185601 0.051384 0.335717
0.184245 0.045857 0.340079
0.183792 0.044267 0.342944
0.183337 0.042673 0.345815
0.182881 0.041075 0.348693
0.182424 0.039474 0.351577
0.182424 0.039866 0.353690
0.181507 0.036261 0.357365
0.180586 0.032640 0.361056
0.180124 0.031021 0.363970
0.179197 0.027375 0.367689
0.178265 0.023714 0.371424
0.177330 0.020035 0.375176
0.175445 0.012229 0.380582
0.172586 0.000185 0.387703
0.266988 0.287602 -0.485760
0.268126 0.293302 -0.483576
0.269257 0.298961 -0.481406
0.269819 0.301929 -0.479502
0.269819 0.302235 -0.477850
0.269819 0.302541 -0.476199
0.269819 0.302847 -0.474547
0.270100 0.304480 -0.472777
0.270100 0.304785 -0.471127
0.270100 0.305091 -0.469476
0.270100 0.305397 -0.467826
0.270100 0.305703 -0.466176
0.270380 0.307331 -0.464415
0.270380 0.307637 -0.462766
0.270100 0.306621 -0.461226
0.270100 0.306927 -0.459576
0.270100 0.307233 -0.457926
0.269819 0.306215 -0.456381
0.269538 0.305196 -0.454833
0.269538 0.305503 -0.453180
0.269257 0.304482 -0.451627
0.268975 0.303460 -0.450072
0.268975 0.303767 -0.448416
0.268692 0.302743 -0.446857
0.268410 0.301717 -0.445295
0.268410 0.302024 -0.443636
0.268126 0.300997 -0.442070
0.268126 0.301305 -0.440410
0.267842 0.300276 -0.438839
0.267558 0.299245 -0.437266
0.267273 0.298213 -0.435690
0.266988 0.297178 -0.434111
0.266702 0.296142 -0.432529
0.266415 0.295104 -0.430945
0.266128 0.294064 -0.429357
0.266128 0.294374 -0.427687
0.265841 0.293332 -0.426095
0.265553 0.292289 -0.424501
0.265264 0.291244 -0.422904
0.264975 0.290197 -0.421303
0.264686 0.289148 -0.419701
0.264396 0.288097 -0.418095
0.263814 0.285678 -0.416557
0.263523 0.284621 -0.414944
0.262938 0.282189 -0.413396
0.262351 0.279749 -0.411843
0.262057 0.278682 -0.410219
0.261467 0.276228 -0.408656
0.260875 0.273766 -0.407087
0.260280 0.271295 -0.405513
0.259982 0.270214 -0.403872
0.259385 0.267729 -0.402288
0.258785 0.265236 -0.400698
0.257882 0.261320 -0.399158
0.256973 0.257382 -0.397610
0.256059 0.253423 -0.396053
0.254526 0.246562 -0.394594
0.253288 0.241092 -0.393069
0.252042 0.235581 -0.391532
0.250471 0.228554 -0.390034
0.248885 0.221461 -0.388522
0.247284 0.214302 -0.386995
0.245993 0.208591 -0.385408
0.244692 0.202837 -0.383810
0.243051 0.195501 -0.382242
0.241728 0.189647 -0.380617
0.240059 0.182184 -0.379020
0.238712 0.176229 -0.377369
0.237014 0.168636 -0.375743
0.235300 0.160968 -0.374101
0.235987 0.164518 -0.372203
0.237355 0.171239 -0.370248
0.239050 0.179484 -0.368278
0.240394 0.186090 -0.366356
0.241728 0.192645 -0.364448
0.242721 0.197612 -0.362578
0.244037 0.204080 -0.360697
0.244365 0.205937 -0.358892
0.245018 0.209312 -0.357071
0.245668 0.212673 -0.355258
0.246317 0.216022 -0.353451
0.246962 0.219358 -0.351651
0.247284 0.221185 -0.349869
0.247926 0.224502 -0.348081
0.248247 0.226319 -0.346308
0.248885 0.229617 -0.344531
0.249203 0.231424 -0.342766
0.249521 0.233228 -0.341004
0.249838 0.235029 -0.339246
0.249838 0.235354 -0.337492
0.250155 0.237151 -0.335738
0.250786 0.240411 -0.333991
0.250786 0.240735 -0.332241
0.251101 0.242522 -0.330498
0.251101 0.242846 -0.328750
0.251415 0.244630 -0.327011
0.251729 0.246410 -0.325275
0.251729 0.246733 -0.323530
0.252042 0.248510 -0.321800
0.252042 0.248833 -0.320056
0.252354 0.250606 -0.318331
0.252354 0.250929 -0.316589
0.252354 0.251252 -0.314847
0.252666 0.253021 -0.313128
0.252666 0.253343 -0.311388
0.252666 0.253666 -0.309648
0.252978 0.255431 -0.307934
0.252978 0.255753 -0.306196
0.253288 0.257515 -0.304488
0.253288 0.257837 -0.302751
0.253288 0.258159 -0.301014
0.253598 0.259917 -0.299312
0.253598 0.260238 -0.297577
0.253598 0.260560 -0.295842
0.253908 0.262314 -0.294146
0.253908 0.262635 -0.292412
0.254217 0.264386 -0.290721
0.254217 0.264707 -0.288989
0.254217 0.265028 -0.287257
0.254217 0.265349 -0.285525
0.254526 0.267095 -0.283842
0.254526 0.267416 -0.282112
0.254217 0.266312 -0.280329
0.254526 0.268058 -0.278651
0.254833 0.269800 -0.276976
0.254833 0.270120 -0.275247
0.254833 0.270441 -0.273518
0.255141 0.272179 -0.271849
0.255141 0.272500 -0.270122
0.255141 0.272820 -0.268394
0.255141 0.273140 -0.266667
0.255141 0.273460 -0.264940
0.255141 0.273781 -0.263212
0.255448 0.275514 -0.261555
0.255448 0.275834 -0.259829
0.255448 0.276154 -0.258103
0.255448 0.276474 -0.256377
0.255448 0.276794 -0.254652
0.255754 0.278523 -0.253003
0.255754 0.278843 -0.251279
0.255754 0.279163 -0.249555
0.255754 0.279482 -0.247831
0.255754 0.279802 -0.246107
0.255754 0.280122 -0.244382
0.256059 0.281847 -0.242745
0.256059 0.282166 -0.241022
0.256059 0.282485 -0.239300
0.256059 0.282805 -0.237577
0.256059 0.283124 -0.235855
0.256059 0.283443 -0.234132
0.256059 0.283763 -0.232410
0.256059 0.284082 -0.230687
0.256059 0.284401 -0.228964
0.256059 0.284721 -0.227242
0.256059 0.285040 -0.225519
0.256059 0.285360 -0.223797
0.256059 0.285679 -0.222074
0.256059 0.285998 -0.220352
0.256059 0.286318 -0.218629
0.256059 0.286637 -0.216906
0.256364 0.288354 -0.215295
0.256364 0.288673 -0.213574
0.256364 0.288992 -0.211854
0.256364 0.289311 -0.210133
0.256364 0.289631 -0.208412
0.256364 0.289950 -0.206691
0.256364 0.290269 -0.204970
0.256364 0.290588 -0.203249
0.256364 0.290907 -0.201528
0.256364 0.291226 -0.199807
0.256364 0.291545 -0.198086
0.256364 0.291864 -0.196365
0.256364 0.292183 -0.194644
0.256364 0.292502 -0.192923
0.256364 0.292821 -0.191202
0.256364 0.293140 -0.189481
0.256669 0.294850 -0.187896
0.256669 0.295169 -0.186177
0.256364 0.294098 -0.184318
0.256364 0.294417 -0.182597
0.256364 0.294736 -0.180876
0.256669 0.296444 -0.179299
0.256669 0.296763 -0.177580
0.256669 0.297081 -0.175860
0.256364 0.296012 -0.173992
0.256364 0.296331 -0.172271
0.256364 0.296650 -0.170550
0.256364 0.296969 -0.168829
0.256364 0.297288 -0.167108
0.256364 0.297607 -0.165387
0.256364 0.297926 -0.163666
0.256364 0.298245 -0.161945
0.256364 0.298565 -0.160224
0.256364 0.298884 -0.158503
0.256364 0.299203 -0.156782
0.256364 0.299522 -0.155061
0.256364 0.299841 -0.153340
0.256364 0.300160 -0.151619
0.256364 0.300479 -0.149898
0.256364 0.300798 -0.148177
0.256364 0.301117 -0.146456
0.256059 0.300050 -0.144559
0.255754 0.298982 -0.142658
0.255754 0.299301 -0.140934
0.255754 0.299621 -0.139210
0.255754 0.299941 -0.137486
0.255754 0.300260 -0.135761
0.255754 0.300580 -0.134037
0.255448 0.299511 -0.132125
0.255448 0.299831 -0.130399
0.255448 0.300151 -0.128674
0.255448 0.300471 -0.126948
0.255141 0.299400 -0.125028
0.255141 0.299721 -0.123300
0.255141 0.300041 -0.121573
0.255141 0.300361 -0.119846
0.255141 0.300681 -0.118118
0.254833 0.299610 -0.116188
0.254833 0.299931 -0.114459
0.254833 0.300251 -0.112730
0.254526 0.299179 -0.110793
0.254526 0.299500 -0.109063
0.254217 0.298425 -0.107121
0.253908 0.297349 -0.105175
0.253908 0.297671 -0.103441
0.253598 0.296593 -0.101490
0.253288 0.295513 -0.099536
0.253288 0.295835 -0.097799
0.252978 0.294754 -0.095839
0.252666 0.293670 -0.093876
0.252666 0.293993 -0.092136
0.252354 0.292908 -0.090167
0.252042 0.291820 -0.088195
0.252042 0.292144 -0.086452
0.251729 0.291055 -0.084474
0.251729 0.291378 -0.082729
0.251415 0.290288 -0.080746
0.251415 0.290611 -0.079000
0.251101 0.289519 -0.077012
0.250786 0.288425 -0.075020
0.250786 0.288749 -0.073270
0.250471 0.287653 -0.071273
0.250155 0.286555 -0.069272
0.250155 0.286880 -0.067519
0.249838 0.285780 -0.065513
0.249521 0.284678 -0.063503
0.249521 0.285003 -0.061746
0.249203 0.283900 -0.059731
0.248885 0.282794 -0.057712
0.248885 0.283120 -0.055952
0.248566 0.282012 -0.053927
0.248247 0.280903 -0.051899
0.247926 0.279791 -0.049867
0.247606 0.278677 -0.047831
0.247284 0.277561 -0.045791
0.246962 0.276443 -0.043747
0.246962 0.276771 -0.041978
0.246640 0.275651 -0.039928
0.246317 0.274530 -0.037875
0.245993 0.273405 -0.035818
0.245668 0.272279 -0.033758
0.245343 0.271151 -0.031693
0.245018 0.270021 -0.029624
0.245018 0.270351 -0.027845
0.244692 0.269218 -0.025770
0.244365 0.268084 -0.023692
0.244037 0.266947 -0.021610
0.243709 0.265809 -0.019524
0.243051 0.263193 -0.017130
0.243051 0.263525 -0.015340
0.243051 0.263856 -0.013550
0.243051 0.264188 -0.011761
0.243051 0.264520 -0.009971
0.243051 0.264852 -0.008181
0.243051 0.265184 -0.006391
0.243051 0.265516 -0.004602
0.242721 0.264372 -0.002493
0.242721 0.264704 -0.000702
0.242721 0.265037 0.001090
0.242721 0.265369 0.002881
0.242721 0.265701 0.004673
0.242721 0.266033 0.006464
0.242721 0.266365 0.008256
0.242721 0.266697 0.010047
0.242391 0.265554 0.012171
0.242391 0.265886 0.013964
0.242391 0.266219 0.015758
0.242391 0.266551 0.017551
0.242391 0.266884 0.019344
0.242391 0.267216 0.021137
0.242391 0.267549 0.022930
0.242391 0.267881 0.024723
0.242059 0.266738 0.026864
0.242059 0.267071 0.028659
0.242059 0.267404 0.030453
0.242059 0.267736 0.032248
0.242059 0.268069 0.034043
0.242059 0.268402 0.035838
0.242059 0.268735 0.037633
0.242059 0.269067 0.039428
0.241728 0.267924 0.041584
0.241728 0.268257 0.043381
0.241728 0.268590 0.045177
0.241728 0.268923 0.046974
0.241728 0.269256 0.048771
0.241728 0.269590 0.050567
0.241728 0.269923 0.052364
0.241728 0.270256 0.054160
0.241395 0.269113 0.056333
0.241395 0.269446 0.058131
0.241395 0.269779 0.059929
0.241062 0.268635 0.062110
0.241062 0.268968 0.063910
0.240728 0.267822 0.066096
0.240728 0.268156 0.067897
0.240394 0.267007 0.070089
0.240394 0.267342 0.071893
0.240059 0.266191 0.074090
0.240059 0.266526 0.075896
0.239723 0.265374 0.078099
0.239723 0.265709 0.079906
0.239387 0.264555 0.082116
0.239050 0.263398 0.084330
0.238712 0.262240 0.086548
0.238035 0.259579 0.089182
0.237695 0.258414 0.091412
0.237355 0.257246 0.093645
0.237014 0.256076 0.095883
0.236673 0.254903 0.098126
0.236330 0.253728 0.100372
0.235987 0.252551 0.102623
0.235300 0.249851 0.105309
0.234955 0.248667 0.107571
0.234609 0.247481 0.109838
0.233916 0.244760 0.112548
0.233220 0.242029 0.115269
0.232521 0.239287 0.118000
0.231820 0.236534 0.120742
0.231116 0.233771 0.123495
0.230763 0.232557 0.125802
0.230055 0.229777 0.128573
0.228987 0.225415 0.131819
0.227193 0.217855 0.136024
0.226471 0.215018 0.138843
0.226108 0.213770 0.141196
0.225745 0.212518 0.143553
0.225745 0.212867 0.145432
0.225382 0.211614 0.147795
0.225017 0.210358 0.150164
0.224652 0.209100 0.152537
0.224286 0.207839 0.154915
0.223919 0.206576 0.157298
0.223184 0.203691 0.160185
0.222815 0.202420 0.162580
0.222075 0.199518 0.165487
0.221332 0.196604 0.168405
0.220586 0.193678 0.171336
0.220211 0.192388 0.173759
0.219461 0.189445 0.176709
0.218707 0.186490 0.179672
0.217950 0.183523 0.182646
0.217571 0.182213 0.185098
0.216809 0.179228 0.188093
0.216045 0.176230 0.191099
0.215277 0.173221 0.194119
0.214892 0.171891 0.196600
0.214120 0.168863 0.199640
0.213344 0.165823 0.202693
0.212565 0.162770 0.205758
0.212175 0.161419 0.208270
0.211391 0.158347 0.211356
0.210604 0.155263 0.214455
0.209814 0.152166 0.217567
0.209418 0.150794 0.220109
0.208622 0.147678 0.223243
0.207824 0.144549 0.226389
0.207022 0.141406 0.229549
0.206620 0.140013 0.232123
0.205813 0.136851 0.235305
0.205002 0.133676 0.238500
0.204189 0.130487 0.241709
0.203781 0.129072 0.244315
0.202962 0.125864 0.247547
0.202139 0.122641 0.250792
0.201313 0.119405 0.254051
0.200899 0.117968 0.256690
0.200068 0.114712 0.259972
0.199233 0.111441 0.263268
0.198394 0.108156 0.266578
0.197974 0.106696 0.269250
0.197130 0.103391 0.272584
0.196282 0.100071 0.275932
0.195431 0.096737 0.279295
0.195004 0.095254 0.282001
0.194148 0.091899 0.285388
0.193287 0.088529 0.288790
0.192423 0.085144 0.292206
0.191555 0.081744 0.295638
0.190683 0.078330 0.299085
0.189808 0.074901 0.302546
0.188928 0.071456 0.306023
0.188045 0.067997 0.309515
0.187158 0.064522 0.313023
0.186713 0.062971 0.315823
0.185820 0.059474 0.319356
0.184922 0.055961 0.322906
0.184021 0.052432 0.326470
0.183569 0.050856 0.329307
0.183116 0.049277 0.332151
0.182662 0.047694 0.335000
0.182207 0.046107 0.337856
0.181751 0.044517 0.340718
0.181751 0.044908 0.342825
0.181294 0.043314 0.345696
0.180836 0.041718 0.348574
0.180376 0.040117 0.351458
0.179916 0.038513 0.354348
0.179916 0.038906 0.356464
0.178993 0.035295 0.360149
0.178065 0.031667 0.363850
0.177600 0.030045 0.366771
0.176665 0.026393 0.370500
0.175256 0.020686 0.375055
0.174312 0.016993 0.378825
0.171452 0.005009 0.385917
0.265086 0.286756 -0.485986
0.266518 0.293807 -0.483669
0.267654 0.299465 -0.481500
0.267937 0.301103 -0.479720
0.268219 0.302738 -0.477943
0.268219 0.303044 -0.476292
0.268219 0.303350 -0.474640
0.268501 0.304982 -0.472870
0.268501 0.305288 -0.471220
0.268501 0.305594 -0.469570
0.268782 0.307222 -0.467805
0.268782 0.307528 -0.466156
0.268782 0.307833 -0.464508
0.268782 0.308139 -0.462859
0.268782 0.308444 -0.461211
0.268782 0.308750 -0.459562
0.268501 0.307735 -0.458019
0.268219 0.306718 -0.456474
0.268219 0.307024 -0.454822
0.267937 0.306006 -0.453273
0.267654 0.304986 -0.451721
0.267654 0.305292 -0.450066
0.267371 0.304270 -0.448510
0.267087 0.303247 -0.446950
0.267087 0.303554 -0.445293
0.266803 0.302529 -0.443730
0.266803 0.302837 -0.442071
0.266518 0.301810 -0.440503
0.266232 0.300782 -0.438933
0.265947 0.299751 -0.437360
0.265660 0.298719 -0.435784
0.265660 0.299028 -0.434119
0.265373 0.297994 -0.432539
0.265086 0.296959 -0.430956
0.264798 0.295921 -0.429370
0.264510 0.294882 -0.427781
0.264221 0.293841 -0.426190
0.263931 0.292798 -0.424595
0.263642 0.291754 -0.422998
0.263351 0.290707 -0.421398
0.263060 0.289659 -0.419795
0.262769 0.288608 -0.418189
0.262184 0.286190 -0.416652
0.261891 0.285134 -0.415039
0.261303 0.282703 -0.413492
0.260714 0.280263 -0.411939
0.260418 0.279197 -0.410314
0.259825 0.276744 -0.408751
0.259230 0.274283 -0.407183
0.258932 0.273206 -0.405547
0.258333 0.270732 -0.403968
0.257733 0.268248 -0.402384
0.257130 0.265756 -0.400794
0.256828 0.264664 -0.399142
0.255918 0.260743 -0.397596
0.254697 0.255375 -0.396096
0.253776 0.251403 -0.394533
0.252228 0.244520 -0.393063
0.250980 0.239033 -0.391530
0.249407 0.232034 -0.390034
0.248138 0.226454 -0.388477
0.246539 0.219338 -0.386954
0.244924 0.212155 -0.385417
0.243621 0.206426 -0.383822
0.242308 0.200653 -0.382214
0.240653 0.193292 -0.380636
0.239318 0.187419 -0.379002
0.237634 0.179930 -0.377394
0.235935 0.172370 -0.375771
0.234563 0.166336 -0.374096
0.234907 0.168271 -0.372238
0.236616 0.176546 -0.370255
0.237972 0.183176 -0.368321
0.239318 0.189755 -0.366401
0.240653 0.196284 -0.364497
0.241979 0.202763 -0.362607
0.242637 0.206149 -0.360776
0.243294 0.209523 -0.358951
0.243621 0.211370 -0.357153
0.244599 0.216232 -0.355324
0.244924 0.218066 -0.353535
0.245572 0.221395 -0.351737
0.245895 0.223219 -0.349957
0.246539 0.226529 -0.348170
0.246860 0.228342 -0.346398
0.247500 0.231634 -0.344623
0.247820 0.233437 -0.342860
0.247820 0.233763 -0.341104
0.248138 0.235563 -0.339345
0.248456 0.237360 -0.337590
0.248774 0.239153 -0.335838
0.249091 0.240943 -0.334090
0.249407 0.242730 -0.332345
0.249407 0.243054 -0.330596
0.249723 0.244838 -0.328856
0.249723 0.245161 -0.327109
0.250038 0.246941 -0.325374
0.250353 0.248717 -0.323641
0.250353 0.249040 -0.321898
0.250353 0.249364 -0.320155
0.250667 0.251136 -0.318429
0.250667 0.251459 -0.316687
0.250980 0.253228 -0.314966
0.250980 0.253550 -0.313226
0.250980 0.253873 -0.311486
0.251293 0.255638 -0.309771
0.251293 0.255960 -0.308033
0.251293 0.256282 -0.306294
0.251606 0.258043 -0.304586
0.251606 0.258365 -0.302849
0.251606 0.258687 -0.301112
0.251917 0.260445 -0.299410
0.251917 0.260766 -0.297675
0.252228 0.262520 -0.295977
0.252228 0.262842 -0.294244
0.252228 0.263163 -0.292510
0.252539 0.264913 -0.290819
0.252539 0.265234 -0.289087
0.252539 0.265555 -0.287355
0.252539 0.265876 -0.285623
0.252849 0.267622 -0.283940
0.252539 0.266518 -0.282159
0.252849 0.268264 -0.280479
0.252849 0.268584 -0.278748
0.253159 0.270326 -0.277073
0.253159 0.270647 -0.275344
0.253159 0.270967 -0.273615
0.253467 0.272705 -0.271946
0.253467 0.273025 -0.270219
0.253467 0.273346 -0.268492
0.253467 0.273666 -0.266765
0.253467 0.273986 -0.265037
0.253467 0.274306 -0.263310
0.253776 0.276040 -0.261652
0.253776 0.276360 -0.259926
0.253776 0.276679 -0.258201
0.253776 0.276999 -0.256475
0.253776 0.277319 -0.254749
0.254083 0.279048 -0.253100
0.254083 0.279368 -0.251376
0.254083 0.279687 -0.249652
0.254083 0.280007 -0.247928
0.254083 0.280327 -0.246204
0.254083 0.280646 -0.244480
0.254083 0.280966 -0.242756
0.254083 0.281286 -0.241031
0.254083 0.281605 -0.239307
0.254083 0.281925 -0.237583
0.254391 0.283648 -0.235952
0.254391 0.283968 -0.234229
0.254391 0.284287 -0.232507
0.254391 0.284606 -0.230784
0.254391 0.284926 -0.229062
0.254391 0.285245 -0.227339
0.254391 0.285564 -0.225616
0.254391 0.285884 -0.223894
0.254391 0.286203 -0.222171
0.254391 0.286522 -0.220449
0.254391 0.286842 -0.218726
0.254391 0.287161 -0.217004
0.254391 0.287481 -0.215281
0.254391 0.287800 -0.213558
0.254391 0.288119 -0.211836
0.254391 0.288439 -0.210113
0.254697 0.290154 -0.208509
0.254697 0.290473 -0.206788
0.254697 0.290792 -0.205067
0.254697 0.291111 -0.203346
0.254697 0.291431 -0.201625
0.254697 0.291750 -0.199904
0.254697 0.292069 -0.198183
0.254697 0.292388 -0.196462
0.254697 0.292707 -0.194741
0.254697 0.293026 -0.193020
0.254697 0.293345 -0.191299
0.254697 0.293664 -0.189578
0.254697 0.293983 -0.187857
0.254697 0.294302 -0.186136
0.254697 0.294621 -0.184415
0.254697 0.294940 -0.182694
0.255003 0.296648 -0.181116
0.255003 0.296967 -0.179396
0.254697 0.295898 -0.177531
0.254697 0.296217 -0.175810
0.254697 0.296536 -0.174089
0.254697 0.296855 -0.172368
0.254697 0.297174 -0.170647
0.254697 0.297493 -0.168926
0.254697 0.297812 -0.167205
0.254697 0.298131 -0.165484
0.254697 0.298450 -0.163763
0.254697 0.298769 -0.162042
0.254697 0.299088 -0.160321
0.254697 0.299407 -0.158600
0.254697 0.299726 -0.156879
0.254697 0.300046 -0.155158
0.254391 0.298978 -0.153269
0.254391 0.299297 -0.151546
0.254391 0.299616 -0.149824
0.254391 0.299936 -0.148101
0.254391 0.300255 -0.146378
0.254391 0.300575 -0.144656
0.254083 0.299506 -0.142755
0.254083 0.299826 -0.141031
0.254083 0.300146 -0.139307
0.254083 0.300465 -0.137583
0.253776 0.299396 -0.135674
0.253776 0.299716 -0.133948
0.253776 0.300036 -0.132223
0.253776 0.300356 -0.130497
0.253776 0.300676 -0.128771
0.253467 0.299606 -0.126852
0.253467 0.299926 -0.125125
0.253467 0.300246 -0.123398
0.253467 0.300566 -0.121670
0.253159 0.299495 -0.119743
0.253159 0.299816 -0.118015
0.253159 0.300136 -0.116286
0.253159 0.300457 -0.114557
0.252849 0.299385 -0.112621
0.252849 0.299705 -0.110891
0.252539 0.298631 -0.108950
0.252539 0.298953 -0.107218
0.252228 0.297877 -0.105273
0.251917 0.296799 -0.103324
0.251917 0.297121 -0.101588
0.251606 0.296042 -0.099634
0.251293 0.294960 -0.097676
0.251293 0.295283 -0.095937
0.250980 0.294200 -0.093974
0.250667 0.293115 -0.092007
0.250667 0.293438 -0.090265
0.250353 0.292351 -0.088293
0.250038 0.291262 -0.086317
0.250038 0.291586 -0.084573
0.250038 0.291909 -0.082828
0.249723 0.290819 -0.080845
0.249407 0.289727 -0.078858
0.249407 0.290051 -0.077110
0.249091 0.288957 -0.075119
0.248774 0.287861 -0.073123
0.248774 0.288186 -0.071372
0.248456 0.287088 -0.069371
0.248138 0.285988 -0.067366
0.248138 0.286314 -0.065612
0.247820 0.285212 -0.063602
0.247500 0.284109 -0.061588
0.247500 0.284434 -0.059830
0.247180 0.283329 -0.057811
0.247180 0.283655 -0.056051
0.246860 0.282548 -0.054027
0.246539 0.281439 -0.051998
0.246217 0.280328 -0.049966
0.245895 0.279215 -0.047930
0.245572 0.278099 -0.045891
0.245248 0.276982 -0.043847
0.244924 0.275862 -0.041800
0.244599 0.274740 -0.039748
0.244599 0.275069 -0.037975
0.244274 0.273946 -0.035919
0.243948 0.272820 -0.033858
0.243621 0.271692 -0.031793
0.243294 0.270562 -0.029725
0.242966 0.269430 -0.027652
0.242637 0.268296 -0.025576
0.242308 0.267160 -0.023496
0.242308 0.267491 -0.021711
0.241648 0.264880 -0.019323
0.241317 0.263737 -0.017231
0.241317 0.264069 -0.015441
0.241317 0.264401 -0.013651
0.241317 0.264733 -0.011862
0.241317 0.265065 -0.010072
0.240986 0.263921 -0.007969
0.240986 0.264253 -0.006177
0.240986 0.264585 -0.004386
0.240986 0.264917 -0.002594
0.240986 0.265250 -0.000803
0.240986 0.265582 0.000989
0.240986 0.265914 0.002780
0.240986 0.266246 0.004571
0.240986 0.266578 0.006363
0.240653 0.265435 0.008484
0.240653 0.265767 0.010277
0.240653 0.266100 0.012070
0.240653 0.266432 0.013863
0.240653 0.266765 0.015656
0.240653 0.267097 0.017450
0.240653 0.267429 0.019243
0.240321 0.266286 0.021378
0.240321 0.266619 0.023173
0.240321 0.266951 0.024967
0.240321 0.267284 0.026762
0.240321 0.267617 0.028557
0.240321 0.267950 0.030352
0.240321 0.268283 0.032147
0.240321 0.268615 0.033942
0.240321 0.268948 0.035737
0.239987 0.267805 0.037890
0.239987 0.268138 0.039686
0.239987 0.268471 0.041483
0.239987 0.268804 0.043279
0.239987 0.269137 0.045076
0.239987 0.269470 0.046873
0.239653 0.268326 0.049038
0.239653 0.268660 0.050836
0.239653 0.268993 0.052635
0.239653 0.269326 0.054433
0.239653 0.269660 0.056231
0.239653 0.269993 0.058030
0.239318 0.268849 0.060208
0.239318 0.269182 0.062008
0.238983 0.268036 0.064192
0.238983 0.268370 0.065994
0.238647 0.267222 0.068184
0.238647 0.267556 0.069987
0.238310 0.266406 0.072183
0.238310 0.266741 0.073989
0.237972 0.265589 0.076191
0.237972 0.265924 0.077998
0.237296 0.263278 0.080607
0.236956 0.262119 0.082822
0.236956 0.262455 0.084634
0.236276 0.259795 0.087264
0.235935 0.258630 0.089492
0.235593 0.257462 0.091723
0.235250 0.256292 0.093960
0.234907 0.255120 0.096200
0.234563 0.253945 0.098445
0.233873 0.251251 0.101120
0.233527 0.250069 0.103376
0.233180 0.248885 0.105636
0.232485 0.246170 0.108336
0.232136 0.244979 0.110608
0.231437 0.242248 0.113325
0.230735 0.239506 0.116052
0.230030 0.236754 0.118790
0.229322 0.233991 0.121539
0.228967 0.232777 0.123844
0.228256 0.229998 0.126612
0.227541 0.227208 0.129390
0.225380 0.218077 0.134047
0.224290 0.213645 0.137335
0.223925 0.212394 0.139688
0.223559 0.211140 0.142046
0.223193 0.209884 0.144409
0.222826 0.208625 0.146776
0.222458 0.207364 0.149148
0.222090 0.206100 0.151525
0.221720 0.204834 0.153907
0.220979 0.201943 0.156790
0.220236 0.199040 0.159685
0.219863 0.197760 0.162087
0.219114 0.194840 0.165002
0.218363 0.191907 0.167928
0.217609 0.188963 0.170867
0.217230 0.187664 0.173297
0.216471 0.184703 0.176255
0.215709 0.181729 0.179226
0.214944 0.178743 0.182208
0.214560 0.177424 0.184668
0.213790 0.174420 0.187670
0.213017 0.171403 0.190686
0.212241 0.168374 0.193713
0.211852 0.167035 0.196202
0.211071 0.163988 0.199251
0.210286 0.160928 0.202312
0.209499 0.157855 0.205386
0.209104 0.156496 0.207905
0.208311 0.153404 0.211000
0.207515 0.150300 0.214108
0.206716 0.147183 0.217229
0.206315 0.145802 0.219779
0.205511 0.142665 0.222922
0.204704 0.139515 0.226078
0.203893 0.136352 0.229247
0.203486 0.134950 0.231829
0.202670 0.131767 0.235020
0.201850 0.128571 0.238225
0.201027 0.125361 0.241443
0.200614 0.123936 0.244057
0.199786 0.120706 0.247299
0.198954 0.117462 0.250554
0.198119 0.114205 0.253823
0.197699 0.112757 0.256469
0.196859 0.109479 0.259762
0.195591 0.104348 0.263714
0.195166 0.102880 0.266389
0.194314 0.099560 0.269724
0.193459 0.096225 0.273073
0.192600 0.092875 0.276437
0.191737 0.089511 0.279816
0.190870 0.086132 0.283209
0.190436 0.084627 0.285937
0.189126 0.079330 0.290040
0.188248 0.075907 0.293478
0.187366 0.072468 0.296931
0.186480 0.069015 0.300400
0.185590 0.065546 0.303883
0.183349 0.056226 0.309529
0.183349 0.056613 0.311616
0.182898 0.055047 0.314427
0.182898 0.055434 0.316517
0.182445 0.053865 0.319337
0.181992 0.052293 0.322163
0.181992 0.052681 0.324257
0.181538 0.051105 0.327092
0.181538 0.051494 0.329189
0.180626 0.047944 0.332780
0.180626 0.048333 0.334882
0.180169 0.046747 0.337737
0.179710 0.045158 0.340600
0.179251 0.043565 0.343468
0.178790 0.041969 0.346343
0.178329 0.040369 0.349225
0.177866 0.038765 0.352113
0.177403 0.037158 0.355007
0.177403 0.037551 0.357126
0.176938 0.035940 0.360029
0.176006 0.032314 0.363730
0.175538 0.030692 0.366651
0.174599 0.027042 0.370380
0.173183 0.021338 0.374935
0.172234 0.017645 0.378704
0.170322 0.009811 0.384138
0.167421 -0.002278 0.391300
0.263470 0.287264 -0.486080
0.264623 0.292969 -0.483892
0.265767 0.298634 -0.481720
0.266336 0.301606 -0.479813
0.266619 0.303240 -0.478036
0.266619 0.303546 -0.476385
0.266619 0.303853 -0.474733
0.266903 0.305484 -0.472963
0.266903 0.305790 -0.471313
0.266903 0.306096 -0.469663
0.266903 0.306402 -0.468013
0.267185 0.308029 -0.466249
0.267185 0.308335 -0.464601
0.267185 0.308641 -0.462952
0.267185 0.308946 -0.461304
0.267185 0.309252 -0.459655
0.266903 0.308237 -0.458112
0.266903 0.308543 -0.456462
0.266619 0.307527 -0.454916
0.266336 0.306509 -0.453366
0.266336 0.306815 -0.451713
0.266051 0.305796 -0.450160
0.265767 0.304774 -0.448603
0.265767 0.305081 -0.446947
0.265481 0.304059 -0.445387
0.265481 0.304366 -0.443729
0.265196 0.303341 -0.442165
0.264909 0.302315 -0.440597
0.264909 0.302623 -0.438937
0.264623 0.301595 -0.437365
0.264335 0.300566 -0.435790
0.264048 0.299534 -0.434213
0.263759 0.298501 -0.432633
0.263470 0.297466 -0.431050
0.263181 0.296429 -0.429464
0.262891 0.295391 -0.427875
0.262601 0.294350 -0.426284
0.262310 0.293308 -0.424690
0.262019 0.292263 -0.423093
0.261727 0.291217 -0.421493
0.261434 0.290169 -0.419890
0.261142 0.289119 -0.418284
0.260848 0.288068 -0.416676
0.260260 0.285646 -0.415134
0.259669 0.283216 -0.413587
0.259373 0.282154 -0.411967
0.258779 0.279712 -0.410410
0.258183 0.277260 -0.408847
0.257585 0.274799 -0.407279
0.257285 0.273723 -0.405643
0.256684 0.271250 -0.404064
0.256081 0.268767 -0.402480
0.255778 0.267681 -0.400833
0.255171 0.265185 -0.399238
0.254257 0.261265 -0.397693
0.253337 0.257324 -0.396140
0.252413 0.253361 -0.394578
0.251484 0.249376 -0.393007
0.249923 0.242471 -0.391528
0.248348 0.235502 -0.390035
0.247077 0.229945 -0.388480
0.245476 0.222858 -0.386961
0.244183 0.217207 -0.385381
0.242554 0.210000 -0.383834
0.241240 0.204252 -0.382229
0.239916 0.198460 -0.380613
0.238246 0.191074 -0.379023
0.236561 0.183618 -0.377419
0.235201 0.177668 -0.375762
0.233486 0.170081 -0.374127
0.234174 0.173597 -0.372239
0.235542 0.180250 -0.370293
0.236899 0.186853 -0.368363
0.238246 0.193406 -0.366447
0.239583 0.199908 -0.364546
0.240910 0.206362 -0.362659
0.241240 0.208215 -0.360854
0.241899 0.211581 -0.359031
0.242554 0.214935 -0.357215
0.243208 0.218277 -0.355406
0.243534 0.220107 -0.353620
0.244183 0.223429 -0.351823
0.244507 0.225249 -0.350044
0.245153 0.228552 -0.348259
0.245476 0.230362 -0.346489
0.245797 0.232169 -0.344722
0.246118 0.233972 -0.342959
0.246438 0.235772 -0.341199
0.246758 0.237568 -0.339442
0.247077 0.239362 -0.337689
0.247077 0.239686 -0.335937
0.247714 0.242938 -0.334191
0.247714 0.243262 -0.332443
0.248031 0.245045 -0.330701
0.248031 0.245369 -0.328954
0.248348 0.247148 -0.327217
0.248348 0.247472 -0.325472
0.248664 0.249248 -0.323740
0.248664 0.249571 -0.321996
0.248980 0.251343 -0.320269
0.248980 0.251666 -0.318527
0.248980 0.251989 -0.316785
0.249295 0.253757 -0.315064
0.249295 0.254080 -0.313324
0.249295 0.254402 -0.311584
0.249609 0.256167 -0.309869
0.249609 0.256489 -0.308131
0.249923 0.258250 -0.306421
0.249923 0.258572 -0.304684
0.249923 0.258894 -0.302947
0.250236 0.260651 -0.301243
0.250236 0.260973 -0.299508
0.250236 0.261294 -0.297773
0.250549 0.263048 -0.296075
0.250549 0.263369 -0.294342
0.250861 0.265119 -0.292649
0.250861 0.265440 -0.290917
0.250861 0.265761 -0.289185
0.250861 0.266082 -0.287453
0.250861 0.266403 -0.285721
0.250861 0.266724 -0.283989
0.250861 0.267046 -0.282256
0.251173 0.268790 -0.280577
0.251484 0.270532 -0.278900
0.251484 0.270852 -0.277171
0.251484 0.271173 -0.275442
0.251794 0.272910 -0.273771
0.251794 0.273231 -0.272044
0.251794 0.273551 -0.270317
0.251794 0.273871 -0.268589
0.251794 0.274191 -0.266862
0.251794 0.274512 -0.265135
0.251794 0.274832 -0.263407
0.252104 0.276565 -0.261749
0.252104 0.276885 -0.260024
0.252104 0.277205 -0.258298
0.252104 0.277525 -0.256572
0.252104 0.277845 -0.254846
0.252413 0.279573 -0.253198
0.252413 0.279893 -0.251474
0.252413 0.280212 -0.249749
0.252413 0.280532 -0.248025
0.252413 0.280851 -0.246301
0.252413 0.281171 -0.244577
0.252413 0.281491 -0.242853
0.252413 0.281810 -0.241129
0.252413 0.282130 -0.239405
0.252413 0.282450 -0.237680
0.252413 0.282769 -0.235956
0.252413 0.283089 -0.234232
0.252413 0.283409 -0.232508
0.252413 0.283728 -0.230784
0.252722 0.285450 -0.229159
0.252722 0.285769 -0.227436
0.252722 0.286089 -0.225714
0.252722 0.286408 -0.223991
0.252722 0.286727 -0.222269
0.252722 0.287047 -0.220546
0.252722 0.287366 -0.218823
0.252722 0.287685 -0.217101
0.252722 0.288005 -0.215378
0.252722 0.288324 -0.213656
0.252722 0.288644 -0.211933
0.252722 0.288963 -0.210211
0.252722 0.289282 -0.208488
0.252722 0.289602 -0.206765
0.252722 0.289921 -0.205043
0.252722 0.290240 -0.203320
0.253030 0.291954 -0.201722
0.253030 0.292273 -0.200001
0.253030 0.292592 -0.198280
0.253030 0.292911 -0.196559
0.253030 0.293231 -0.194838
0.253030 0.293550 -0.193117
0.253030 0.293869 -0.191396
0.253030 0.294188 -0.189675
0.253030 0.294507 -0.187954
0.253030 0.294826 -0.186233
0.253030 0.295145 -0.184512
0.253030 0.295464 -0.182791
0.253030 0.295783 -0.181070
0.253030 0.296102 -0.179349
0.253030 0.296421 -0.177628
0.253030 0.296740 -0.175907
0.253030 0.297059 -0.174186
0.253030 0.297379 -0.172465
0.253030 0.297698 -0.170744
0.253030 0.298017 -0.169023
0.253030 0.298336 -0.167302
0.253030 0.298655 -0.165581
0.253030 0.298974 -0.163860
0.252722 0.297905 -0.161979
0.252722 0.298225 -0.160256
0.252722 0.298544 -0.158534
0.252722 0.298863 -0.156811
0.252722 0.299183 -0.155088
0.252722 0.299502 -0.153366
0.252722 0.299821 -0.151643
0.252722 0.300141 -0.149921
0.252722 0.300460 -0.148198
0.252722 0.300779 -0.146476
0.252722 0.301099 -0.144753
0.252104 0.298641 -0.142674
0.252413 0.300351 -0.141128
0.252104 0.299281 -0.139223
0.252104 0.299601 -0.137497
0.252104 0.299921 -0.135771
0.252104 0.300241 -0.134046
0.252104 0.300561 -0.132320
0.251794 0.299491 -0.130404
0.251794 0.299811 -0.128677
0.251794 0.300131 -0.126950
0.251794 0.300452 -0.125223
0.251794 0.300772 -0.123495
0.251484 0.299701 -0.121570
0.251484 0.300021 -0.119841
0.251484 0.300342 -0.118112
0.251484 0.300662 -0.116383
0.251173 0.299590 -0.114450
0.251173 0.299911 -0.112719
0.250861 0.298837 -0.110780
0.250861 0.299159 -0.109048
0.250549 0.298083 -0.107104
0.250549 0.298405 -0.105371
0.250236 0.297327 -0.103421
0.249923 0.296248 -0.101469
0.249923 0.296570 -0.099732
0.249609 0.295490 -0.097774
0.249295 0.294407 -0.095812
0.249295 0.294729 -0.094072
0.248980 0.293645 -0.092105
0.248664 0.292558 -0.090135
0.248664 0.292881 -0.088392
0.248348 0.291793 -0.086416
0.248031 0.290703 -0.084437
0.248031 0.291027 -0.082690
0.248031 0.291351 -0.080943
0.247714 0.290259 -0.078957
0.247396 0.289165 -0.076967
0.247396 0.289490 -0.075217
0.247077 0.288394 -0.073222
0.246758 0.287297 -0.071223
0.246758 0.287622 -0.069470
0.246438 0.286522 -0.067465
0.246118 0.285421 -0.065457
0.246118 0.285747 -0.063701
0.245797 0.284644 -0.061687
0.245476 0.283538 -0.059670
0.245476 0.283865 -0.057910
0.245153 0.282758 -0.055887
0.244831 0.281649 -0.053861
0.244507 0.280538 -0.051831
0.244507 0.280865 -0.050066
0.244183 0.279752 -0.048030
0.243859 0.278637 -0.045990
0.243534 0.277520 -0.043947
0.243208 0.276401 -0.041900
0.242881 0.275280 -0.039848
0.242554 0.274157 -0.037793
0.242227 0.273031 -0.035734
0.241899 0.271904 -0.033671
0.241899 0.272233 -0.031894
0.241570 0.271104 -0.029825
0.241240 0.269972 -0.027753
0.240910 0.268838 -0.025676
0.240579 0.267703 -0.023596
0.240579 0.268034 -0.021812
0.239916 0.265424 -0.019424
0.239583 0.264282 -0.017332
0.239583 0.264614 -0.015542
0.239250 0.263470 -0.013444
0.239250 0.263802 -0.011653
0.239250 0.264134 -0.009861
0.239250 0.264466 -0.008070
0.239250 0.264798 -0.006278
0.239250 0.265131 -0.004487
0.239250 0.265463 -0.002695
0.239250 0.265795 -0.000904
0.239250 0.266127 0.000887
0.238916 0.264983 0.003003
0.238916 0.265316 0.004796
0.238916 0.265648 0.006589
0.238916 0.265980 0.008382
0.238916 0.266313 0.010176
0.238916 0.266645 0.011969
0.238916 0.266978 0.013762
0.238582 0.265834 0.015892
0.238582 0.266167 0.017687
0.238582 0.266499 0.019482
0.238582 0.266832 0.021276
0.238582 0.267165 0.023071
0.238582 0.267498 0.024866
0.238582 0.267830 0.026661
0.238582 0.268163 0.028456
0.238582 0.268496 0.030251
0.238246 0.267352 0.032398
0.238246 0.267685 0.034195
0.238246 0.268018 0.035992
0.238246 0.268351 0.037788
0.238246 0.268684 0.039585
0.238246 0.269018 0.041381
0.238246 0.269351 0.043178
0.237911 0.268207 0.045340
0.237911 0.268540 0.047138
0.237911 0.268873 0.048937
0.237911 0.269207 0.050735
0.237911 0.269540 0.052533
0.237911 0.269874 0.054332
0.237574 0.268729 0.056506
0.237574 0.269063 0.058306
0.237237 0.267916 0.060487
0.237237 0.268250 0.062289
0.236899 0.267102 0.064475
0.236899 0.267436 0.066279
0.236561 0.266286 0.068471
0.236561 0.266621 0.070276
0.236222 0.265469 0.072475
0.236222 0.265804 0.074282
0.235882 0.264650 0.076486
0.235542 0.263493 0.078695
0.235201 0.262335 0.080907
0.234859 0.261174 0.083124
0.234517 0.260011 0.085346
0.234174 0.258846 0.087572
0.233830 0.257678 0.089802
0.233486 0.256509 0.092036
0.233141 0.255337 0.094274
0.232795 0.254162 0.096517
0.232102 0.251468 0.099188
0.231754 0.250287 0.101443
0.231406 0.249103 0.103701
0.230707 0.246388 0.106397
0.230357 0.245197 0.108667
0.229654 0.242467 0.111380
0.228948 0.239726 0.114104
0.228240 0.236974 0.116838
0.227529 0.234211 0.119583
0.226815 0.231438 0.122339
0.226457 0.230219 0.124650
0.225378 0.225858 0.127884
0.224293 0.221470 0.131138
0.222471 0.213868 0.135352
0.221369 0.209410 0.138654
0.221000 0.208150 0.141015
0.220630 0.206889 0.143382
0.220260 0.205625 0.145753
0.219517 0.202738 0.148617
0.219144 0.201466 0.151001
0.218771 0.200191 0.153389
0.218022 0.197281 0.156280
0.217270 0.194360 0.159183
0.216515 0.191427 0.162097
0.216136 0.190133 0.164514
0.215377 0.187182 0.167448
0.214614 0.184220 0.170395
0.213848 0.181245 0.173353
0.213464 0.179931 0.175798
0.212693 0.176938 0.178777
0.211919 0.173933 0.181768
0.211142 0.170916 0.184771
0.210753 0.169582 0.187245
0.209971 0.166546 0.190269
0.209186 0.163498 0.193305
0.208398 0.160437 0.196354
0.208002 0.159083 0.198859
0.207209 0.156003 0.201929
0.206413 0.152911 0.205011
0.205613 0.149805 0.208107
0.205212 0.148430 0.210642
0.204407 0.145305 0.213759
0.203599 0.142168 0.216889
0.202787 0.139017 0.220032
0.202380 0.137620 0.222599
0.201563 0.134450 0.225764
0.200743 0.131266 0.228943
0.199920 0.128069 0.232135
0.199506 0.126650 0.234733
0.198678 0.123432 0.237948
0.197845 0.120201 0.241176
0.196590 0.115143 0.245039
0.196169 0.113698 0.247674
0.195326 0.110425 0.250944
0.194479 0.107139 0.254228
0.193629 0.103838 0.257526
0.192775 0.100523 0.260838
0.191917 0.097193 0.264164
0.191056 0.093849 0.267505
0.190190 0.090491 0.270861
0.189321 0.087118 0.274231
0.187572 0.079947 0.278960
0.186691 0.076528 0.282370
0.183130 0.061548 0.289925
0.182681 0.059994 0.292700
0.182681 0.060380 0.294780
0.182230 0.058823 0.297563
0.182230 0.059210 0.299646
0.181779 0.057650 0.302438
0.181779 0.058037 0.304523
0.181326 0.056474 0.307323
0.181326 0.056861 0.309411
0.180873 0.055295 0.312219
0.180418 0.053726 0.315034
0.180418 0.054114 0.317127
0.179963 0.052542 0.319950
0.179963 0.052930 0.322045
0.179506 0.051355 0.324877
0.179048 0.049776 0.327715
0.179048 0.050165 0.329814
0.178590 0.048583 0.332661
0.178130 0.046998 0.335515
0.177670 0.045409 0.338374
0.177208 0.043816 0.341240
0.177208 0.044207 0.343349
0.176745 0.042611 0.346224
0.176281 0.041012 0.349106
0.175816 0.039409 0.351994
0.174884 0.035799 0.355668
0.174884 0.036192 0.357789
0.174416 0.034579 0.360696
0.173947 0.032961 0.363610
0.173477 0.031340 0.366531
0.172060 0.025663 0.371062
0.171110 0.021989 0.374814
0.170156 0.018298 0.378582
0.169197 0.014590 0.382368
0.166295 0.002562 0.389501
0.261855 0.287771 -0.486174
0.263013 0.293475 -0.483986
0.264162 0.299138 -0.481813
0.264734 0.302109 -0.479906
0.264734 0.302415 -0.478253
0.265019 0.304049 -0.476478
0.265019 0.304355 -0.474827
0.265019 0.304661 -0.473175
0.265304 0.306292 -0.471406
0.265304 0.306598 -0.469756
0.265304 0.306904 -0.468106
0.265588 0.308531 -0.466342
0.265588 0.308837 -0.464694
0.265588 0.309142 -0.463045
0.265872 0.310766 -0.461288
0.265588 0.309754 -0.459748
0.265304 0.308739 -0.458206
0.265019 0.307723 -0.456660
0.265019 0.308029 -0.455009
0.264734 0.307012 -0.453459
0.264734 0.307318 -0.451806
0.264448 0.306299 -0.450253
0.264162 0.305278 -0.448697
0.264162 0.305585 -0.447041
0.263876 0.304563 -0.445480
0.263876 0.304870 -0.443823
0.263589 0.303846 -0.442258
0.263301 0.302820 -0.440691
0.263301 0.303128 -0.439030
0.263013 0.302101 -0.437459
0.262724 0.301072 -0.435884
0.262435 0.300041 -0.434307
0.262145 0.299008 -0.432727
0.261855 0.297974 -0.431144
0.261564 0.296937 -0.429558
0.261273 0.295899 -0.427970
0.260981 0.294859 -0.426378
