ply
format ascii 1.0
element vertex 1692
property float x
property float y
property float z
end_header
0.322036 0.029485 -0.492220
0.320313 0.029509 -0.491675
0.318864 0.029509 -0.492203
0.317416 0.029509 -0.492730
0.315687 0.029534 -0.492186
0.314238 0.029534 -0.492713
0.312788 0.029534 -0.493241
0.311055 0.029558 -0.492697
0.309319 0.029582 -0.492152
0.307866 0.029582 -0.492680
0.306126 0.029607 -0.492134
0.304673 0.029607 -0.492663
0.302929 0.029631 -0.492117
0.301475 0.029631 -0.492647
0.299727 0.029656 -0.492100
0.298271 0.029656 -0.492630
0.296519 0.029680 -0.492083
0.295062 0.029680 -0.492613
0.293306 0.029705 -0.492066
0.291848 0.029705 -0.492597
0.290088 0.029729 -0.492049
0.288629 0.029729 -0.492580
0.287169 0.029729 -0.493111
0.285404 0.029754 -0.492563
0.283944 0.029754 -0.493094
0.282483 0.029754 -0.493626
0.280713 0.029778 -0.493078
0.279251 0.029778 -0.493610
0.277477 0.029803 -0.493062
0.276014 0.029803 -0.493594
0.274235 0.029828 -0.493045
0.272771 0.029828 -0.493578
0.270988 0.029852 -0.493029
0.269523 0.029852 -0.493562
0.267736 0.029877 -0.493012
0.266270 0.029877 -0.493546
0.264479 0.029902 -0.492995
0.263011 0.029902 -0.493530
0.261216 0.029927 -0.492979
0.259747 0.029927 -0.493514
0.257948 0.029952 -0.492962
0.256478 0.029952 -0.493497
0.254675 0.029977 -0.492946
0.253204 0.029977 -0.493481
0.251396 0.030002 -0.492929
0.249924 0.030002 -0.493465
0.248112 0.030027 -0.492912
0.246638 0.030027 -0.493449
0.244822 0.030052 -0.492896
0.243348 0.030052 -0.493432
0.241527 0.030077 -0.492879
0.240052 0.030077 -0.493416
0.238227 0.030102 -0.492862
0.236750 0.030102 -0.493400
0.234921 0.030128 -0.492845
0.233443 0.030128 -0.493383
0.231610 0.030153 -0.492828
0.230131 0.030153 -0.493367
0.228294 0.030178 -0.492812
0.226813 0.030178 -0.493351
0.224971 0.030203 -0.492795
0.223489 0.030203 -0.493334
0.221644 0.030229 -0.492778
0.220161 0.030229 -0.493318
0.218311 0.030254 -0.492761
0.216826 0.030254 -0.493301
0.214972 0.030280 -0.492744
0.213486 0.030280 -0.493285
0.211628 0.030305 -0.492727
0.210141 0.030305 -0.493268
0.208278 0.030331 -0.492710
0.206790 0.030331 -0.493252
0.204923 0.030356 -0.492693
0.203434 0.030356 -0.493235
0.201562 0.030382 -0.492676
0.200072 0.030382 -0.493218
0.198196 0.030408 -0.492659
0.196704 0.030408 -0.493202
0.194824 0.030433 -0.492642
0.193331 0.030433 -0.493185
0.191446 0.030459 -0.492624
0.189952 0.030459 -0.493168
0.188063 0.030485 -0.492607
0.186568 0.030485 -0.493152
0.184674 0.030511 -0.492590
0.183178 0.030511 -0.493135
0.181280 0.030537 -0.492573
0.179782 0.030537 -0.493118
0.178284 0.030537 -0.493663
0.176786 0.030537 -0.494209
0.174881 0.030562 -0.493647
0.173382 0.030562 -0.494193
0.171473 0.030588 -0.493631
0.169972 0.030588 -0.494177
0.168059 0.030614 -0.493614
0.166557 0.030614 -0.494161
0.164639 0.030641 -0.493598
0.162718 0.030667 -0.493034
0.161214 0.030667 -0.493581
0.159288 0.030693 -0.493017
0.157783 0.030693 -0.493565
0.155853 0.030719 -0.493000
0.154346 0.030719 -0.493548
0.152411 0.030745 -0.492983
0.150903 0.030745 -0.493532
0.149395 0.030745 -0.494080
0.147455 0.030771 -0.493515
0.145945 0.030771 -0.494064
0.144000 0.030798 -0.493498
0.142490 0.030798 -0.494048
0.140540 0.030824 -0.493482
0.139028 0.030824 -0.494032
0.137074 0.030851 -0.493465
0.135561 0.030851 -0.494016
0.133602 0.030877 -0.493448
0.132088 0.030877 -0.494000
0.129676 0.030930 -0.492311
0.128159 0.030930 -0.492863
0.126189 0.030957 -0.492293
0.124670 0.030957 -0.492845
0.122696 0.030983 -0.492275
0.121176 0.030983 -0.492828
0.119198 0.031010 -0.492257
0.117677 0.031010 -0.492811
0.115693 0.031037 -0.492240
0.114171 0.031037 -0.492794
0.112183 0.031063 -0.492222
0.110659 0.031063 -0.492776
0.108666 0.031090 -0.492204
0.107141 0.031090 -0.492759
0.105144 0.031117 -0.492186
0.103618 0.031117 -0.492741
0.101615 0.031144 -0.492168
0.100088 0.031144 -0.492724
0.098081 0.031171 -0.492150
0.096552 0.031171 -0.492706
0.094541 0.031198 -0.492132
0.093011 0.031198 -0.492689
0.090994 0.031225 -0.492114
0.089463 0.031225 -0.492671
0.087442 0.031252 -0.492096
0.085909 0.031252 -0.492654
0.083883 0.031279 -0.492078
0.082349 0.031279 -0.492636
0.080319 0.031306 -0.492060
0.078784 0.031306 -0.492619
0.076748 0.031334 -0.492042
0.075212 0.031334 -0.492601
0.073171 0.031361 -0.492023
0.071633 0.031361 -0.492583
0.069588 0.031388 -0.492005
0.068049 0.031388 -0.492565
0.065999 0.031416 -0.491987
0.064459 0.031416 -0.492548
0.062404 0.031443 -0.491969
0.060862 0.031443 -0.492530
0.058803 0.031471 -0.491950
0.057260 0.031471 -0.492512
0.055195 0.031498 -0.491932
0.053651 0.031498 -0.492494
0.051581 0.031526 -0.491914
0.050035 0.031526 -0.492476
0.047961 0.031553 -0.491895
0.046414 0.031553 -0.492458
0.044335 0.031581 -0.491877
0.042787 0.031581 -0.492441
0.040703 0.031609 -0.491859
0.039153 0.031609 -0.492423
0.037064 0.031636 -0.491840
0.035513 0.031636 -0.492405
0.033419 0.031664 -0.491821
0.031866 0.031664 -0.492386
0.029767 0.031692 -0.491803
0.028214 0.031692 -0.492368
0.026110 0.031720 -0.491784
0.024555 0.031720 -0.492350
0.022446 0.031748 -0.491766
0.020889 0.031748 -0.492332
0.018775 0.031776 -0.491747
0.017218 0.031776 -0.492314
0.015099 0.031804 -0.491728
0.013539 0.031804 -0.492296
0.011416 0.031832 -0.491710
0.009855 0.031832 -0.492278
0.007726 0.031860 -0.491691
0.006164 0.031860 -0.492259
0.004030 0.031888 -0.491672
0.002467 0.031888 -0.492241
0.000328 0.031916 -0.491653
-0.001237 0.031916 -0.492223
-0.003381 0.031945 -0.491634
-0.004947 0.031945 -0.492204
-0.007096 0.031973 -0.491616
-0.008664 0.031973 -0.492186
-0.010818 0.032001 -0.491597
-0.012387 0.032001 -0.492168
-0.014546 0.032030 -0.491578
-0.016116 0.032030 -0.492149
-0.018281 0.032058 -0.491559
-0.019852 0.032058 -0.492131
-0.022022 0.032087 -0.491540
-0.023595 0.032087 -0.492112
-0.025770 0.032115 -0.491521
-0.027344 0.032115 -0.492094
-0.029525 0.032144 -0.491502
-0.031100 0.032144 -0.492075
-0.033286 0.032173 -0.491483
-0.034863 0.032173 -0.492057
-0.037053 0.032201 -0.491463
-0.038632 0.032201 -0.492038
-0.040827 0.032230 -0.491444
-0.042407 0.032230 -0.492019
-0.044608 0.032259 -0.491425
-0.046189 0.032259 -0.492001
-0.048396 0.032288 -0.491406
-0.049978 0.032288 -0.491982
-0.052190 0.032317 -0.491386
-0.053774 0.032317 -0.491963
-0.055991 0.032346 -0.491367
-0.057576 0.032346 -0.491944
-0.059799 0.032375 -0.491348
-0.061385 0.032375 -0.491925
-0.063613 0.032404 -0.491328
-0.065201 0.032404 -0.491906
-0.067434 0.032433 -0.491309
-0.069023 0.032433 -0.491888
-0.071262 0.032462 -0.491290
-0.072853 0.032462 -0.491869
-0.075096 0.032492 -0.491270
-0.076689 0.032492 -0.491850
-0.078938 0.032521 -0.491251
-0.080532 0.032521 -0.491831
-0.082786 0.032550 -0.491231
-0.084381 0.032550 -0.491812
-0.086641 0.032580 -0.491211
-0.088238 0.032580 -0.491793
-0.090503 0.032609 -0.491192
-0.092101 0.032609 -0.491773
-0.094372 0.032639 -0.491172
-0.095971 0.032639 -0.491754
-0.098248 0.032668 -0.491152
-0.099848 0.032668 -0.491735
-0.102130 0.032698 -0.491133
-0.103732 0.032698 -0.491716
-0.106020 0.032727 -0.491113
-0.107623 0.032727 -0.491697
-0.109916 0.032757 -0.491093
-0.111521 0.032757 -0.491677
-0.113820 0.032787 -0.491073
-0.115426 0.032787 -0.491658
-0.117730 0.032817 -0.491053
-0.119338 0.032817 -0.491639
-0.121647 0.032847 -0.491034
-0.123257 0.032847 -0.491619
-0.125572 0.032877 -0.491014
-0.127183 0.032877 -0.491600
-0.129503 0.032906 -0.490994
-0.131828 0.032937 -0.490386
-0.133442 0.032937 -0.490974
-0.135772 0.032967 -0.490366
-0.137388 0.032967 -0.490954
-0.139724 0.032997 -0.490345
-0.141340 0.032997 -0.490933
-0.143682 0.033027 -0.490324
-0.146028 0.033057 -0.489714
-0.147647 0.033057 -0.490304
-0.149999 0.033088 -0.489693
-0.151620 0.033088 -0.490283
-0.153977 0.033118 -0.489672
-0.155600 0.033118 -0.490262
-0.157963 0.033148 -0.489650
-0.159587 0.033148 -0.490241
-0.161956 0.033179 -0.489629
-0.164329 0.033209 -0.489015
-0.165956 0.033209 -0.489608
-0.168335 0.033240 -0.488993
-0.169963 0.033240 -0.489586
-0.172348 0.033270 -0.488971
-0.173977 0.033270 -0.489565
-0.176368 0.033301 -0.488949
-0.178763 0.033332 -0.488333
-0.180396 0.033332 -0.488927
-0.182796 0.033363 -0.488310
-0.184430 0.033363 -0.488905
-0.186837 0.033394 -0.488288
-0.188473 0.033394 -0.488883
-0.190885 0.033425 -0.488265
-0.193302 0.033455 -0.487645
-0.194941 0.033455 -0.488242
-0.198149 0.033518 -0.486404
-0.199790 0.033518 -0.487001
-0.202222 0.033549 -0.486379
-0.203865 0.033549 -0.486977
-0.206303 0.033580 -0.486354
-0.207947 0.033580 -0.486953
-0.210391 0.033611 -0.486330
-0.212037 0.033611 -0.486929
-0.213683 0.033611 -0.487528
-0.216134 0.033643 -0.486905
-0.217782 0.033643 -0.487504
-0.220239 0.033674 -0.486881
-0.221888 0.033674 -0.487481
-0.224351 0.033705 -0.486856
-0.226819 0.033737 -0.486231
-0.228471 0.033737 -0.486832
-0.230945 0.033768 -0.486206
-0.232599 0.033768 -0.486808
-0.235078 0.033800 -0.486181
-0.236734 0.033800 -0.486783
-0.239219 0.033832 -0.486156
-0.240876 0.033832 -0.486759
-0.243368 0.033863 -0.486131
-0.245865 0.033895 -0.485502
-0.247524 0.033895 -0.486106
-0.250027 0.033927 -0.485476
-0.252534 0.033959 -0.484845
-0.254197 0.033959 -0.485450
-0.256711 0.033991 -0.484818
-0.259229 0.034023 -0.484186
-0.261752 0.034055 -0.483552
-0.263419 0.034055 -0.484159
-0.265948 0.034087 -0.483524
-0.268482 0.034119 -0.482888
-0.270153 0.034119 -0.483496
-0.272693 0.034151 -0.482860
-0.275237 0.034184 -0.482222
-0.276911 0.034184 -0.482832
-0.279462 0.034216 -0.482194
-0.282018 0.034249 -0.481554
-0.283695 0.034249 -0.482165
-0.286257 0.034281 -0.481524
-0.288824 0.034314 -0.480883
-0.291396 0.034346 -0.480241
-0.293077 0.034346 -0.480853
-0.295655 0.034379 -0.480210
-0.299140 0.034444 -0.478307
-0.301731 0.034477 -0.477659
-0.304326 0.034510 -0.477011
-0.306927 0.034543 -0.476361
-0.310449 0.034609 -0.474441
-0.313063 0.034643 -0.473788
-0.315682 0.034676 -0.473132
-0.318306 0.034709 -0.472476
-0.320935 0.034742 -0.471818
-0.323568 0.034776 -0.471159
-0.326207 0.034809 -0.470499
-0.329792 0.034876 -0.468554
-0.332444 0.034910 -0.467889
-0.335102 0.034944 -0.467224
-0.337764 0.034978 -0.466557
-0.340431 0.035012 -0.465888
-0.344064 0.035079 -0.463923
-0.346745 0.035114 -0.463250
-0.350401 0.035182 -0.461274
-0.353096 0.035216 -0.460597
-0.356774 0.035285 -0.458610
-0.360466 0.035354 -0.456615
-0.363184 0.035388 -0.455931
-0.367894 0.035493 -0.452603
-0.371629 0.035562 -0.450586
-0.375379 0.035632 -0.448560
-0.379144 0.035703 -0.446527
-0.382923 0.035773 -0.444485
-0.386717 0.035844 -0.442436
-0.390526 0.035915 -0.440379
-0.394349 0.035987 -0.438313
-0.398188 0.036059 -0.436240
-0.403089 0.036167 -0.432792
-0.406964 0.036239 -0.430697
-0.411916 0.036348 -0.427216
-0.415828 0.036421 -0.425100
-0.421909 0.036569 -0.420192
-0.425864 0.036643 -0.418049
-0.430927 0.036754 -0.414492
-0.437123 0.036904 -0.409496
-0.447847 0.037207 -0.398722
0.470415 0.038341 0.092129
0.470967 0.037835 0.066508
0.469853 0.037669 0.057644
0.468540 0.037546 0.050870
0.467236 0.037423 0.044140
0.465730 0.037342 0.039443
0.464229 0.037261 0.034767
0.462523 0.037221 0.032087
0.461034 0.037140 0.027441
0.459552 0.037060 0.022815
0.457859 0.037020 0.020162
0.456170 0.036980 0.017515
0.454484 0.036941 0.014873
0.453024 0.036861 0.010298
0.451347 0.036822 0.007673
0.449673 0.036782 0.005052
0.448003 0.036743 0.002438
0.446564 0.036665 -0.002087
0.444903 0.036626 -0.004686
0.454386 0.034700 -0.099457
0.455076 0.034284 -0.120446
0.455144 0.033978 -0.136024
0.455010 0.033710 -0.149713
0.453674 0.033644 -0.153577
0.452141 0.033611 -0.155819
0.450814 0.033545 -0.159659
0.449493 0.033480 -0.163485
0.447971 0.033447 -0.165707
0.446659 0.033382 -0.169510
0.445143 0.033349 -0.171720
0.443840 0.033285 -0.175500
0.442332 0.033252 -0.177698
0.441039 0.033188 -0.181456
0.439750 0.033124 -0.185201
0.438253 0.033092 -0.187379
0.436758 0.033060 -0.189552
0.435482 0.032996 -0.193267
0.434211 0.032932 -0.196968
0.432945 0.032869 -0.200654
0.431466 0.032838 -0.202801
0.430208 0.032775 -0.206466
0.428736 0.032743 -0.208602
0.427266 0.032712 -0.210733
0.426021 0.032650 -0.214370
0.424558 0.032619 -0.216490
0.423097 0.032588 -0.218605
0.421640 0.032557 -0.220717
0.420185 0.032526 -0.222825
0.418733 0.032495 -0.224929
0.417283 0.032464 -0.227029
0.415606 0.032464 -0.227640
0.414161 0.032433 -0.229735
0.412718 0.032402 -0.231827
0.411512 0.032341 -0.235391
0.409841 0.032341 -0.235999
0.408407 0.032311 -0.238079
0.406975 0.032280 -0.240155
0.405307 0.032280 -0.240762
0.403880 0.032250 -0.242834
0.402454 0.032219 -0.244902
0.400790 0.032219 -0.245508
0.399369 0.032189 -0.247571
0.397951 0.032159 -0.249631
0.396289 0.032159 -0.250236
0.394875 0.032129 -0.252291
0.393464 0.032098 -0.254343
0.391805 0.032098 -0.254946
0.390147 0.032098 -0.255550
0.388741 0.032068 -0.257597
0.387338 0.032038 -0.259640
0.385683 0.032038 -0.260242
0.384284 0.032008 -0.262281
0.382887 0.031978 -0.264316
0.381235 0.031978 -0.264917
0.379842 0.031949 -0.266948
0.378452 0.031919 -0.268975
0.376803 0.031919 -0.269575
0.375417 0.031889 -0.271598
0.374034 0.031859 -0.273616
0.372388 0.031859 -0.274216
0.371008 0.031830 -0.276230
0.369632 0.031800 -0.278241
0.368257 0.031770 -0.280249
0.366616 0.031770 -0.280846
0.365517 0.031712 -0.284252
0.363878 0.031712 -0.284849
0.362513 0.031682 -0.286845
0.360875 0.031682 -0.287440
0.359514 0.031653 -0.289432
0.357878 0.031653 -0.290027
0.356521 0.031624 -0.292015
0.354887 0.031624 -0.292610
0.353533 0.031594 -0.294593
0.351900 0.031594 -0.295187
0.350551 0.031565 -0.297167
0.348920 0.031565 -0.297760
0.347574 0.031536 -0.299735
0.345944 0.031536 -0.300329
0.344603 0.031507 -0.302300
0.343264 0.031478 -0.304267
0.341927 0.031449 -0.306231
0.340302 0.031449 -0.306822
0.338969 0.031420 -0.308782
0.337345 0.031420 -0.309373
0.336016 0.031391 -0.311329
0.334393 0.031391 -0.311919
0.333068 0.031362 -0.313871
0.331447 0.031362 -0.314461
0.330126 0.031334 -0.316408
0.328506 0.031334 -0.316998
0.327189 0.031305 -0.318941
0.325571 0.031305 -0.319530
0.324257 0.031276 -0.321470
0.356249 0.028130 -0.470343
0.356281 0.027991 -0.477411
0.355574 0.027922 -0.481182
0.354128 0.027922 -0.481709
0.352931 0.027899 -0.483312
0.351486 0.027899 -0.483838
0.350292 0.027876 -0.485438
0.349099 0.027853 -0.487036
0.347657 0.027853 -0.487561
0.346214 0.027853 -0.488086
0.344771 0.027853 -0.488611
0.343328 0.027853 -0.489136
0.341628 0.027876 -0.488592
0.340184 0.027876 -0.489117
0.338740 0.027876 -0.489643
0.337296 0.027876 -0.490168
0.335852 0.027876 -0.490694
0.334408 0.027876 -0.491219
0.332964 0.027876 -0.491745
0.331520 0.027876 -0.492270
0.329809 0.027899 -0.491728
0.328364 0.027899 -0.492254
0.326649 0.027922 -0.491710
0.325202 0.027922 -0.492237
0.323483 0.027945 -0.491693
0.322036 0.027945 -0.492220
0.320313 0.027968 -0.491675
0.318864 0.027968 -0.492203
0.317416 0.027968 -0.492730
0.315687 0.027991 -0.492186
0.314238 0.027991 -0.492713
0.312788 0.027991 -0.493241
0.311055 0.028014 -0.492697
0.309319 0.028037 -0.492152
0.307866 0.028037 -0.492680
0.306126 0.028060 -0.492134
0.304673 0.028060 -0.492663
0.302929 0.028083 -0.492117
0.301475 0.028083 -0.492647
0.299727 0.028106 -0.492100
0.298271 0.028106 -0.492630
0.296519 0.028130 -0.492083
0.295062 0.028130 -0.492613
0.293306 0.028153 -0.492066
0.291848 0.028153 -0.492597
0.290088 0.028176 -0.492049
0.288629 0.028176 -0.492580
0.287169 0.028176 -0.493111
0.285404 0.028200 -0.492563
0.283944 0.028200 -0.493094
0.282483 0.028200 -0.493626
0.280713 0.028223 -0.493078
0.279251 0.028223 -0.493610
0.277477 0.028246 -0.493062
0.276014 0.028246 -0.493594
0.274235 0.028270 -0.493045
0.272771 0.028270 -0.493578
0.270988 0.028293 -0.493029
0.269523 0.028293 -0.493562
0.267736 0.028317 -0.493012
0.266270 0.028317 -0.493546
0.264479 0.028340 -0.492995
0.263011 0.028340 -0.493530
0.261216 0.028364 -0.492979
0.259747 0.028364 -0.493514
0.257948 0.028388 -0.492962
0.256478 0.028388 -0.493497
0.254675 0.028411 -0.492946
0.253204 0.028411 -0.493481
0.251396 0.028435 -0.492929
0.249924 0.028435 -0.493465
0.248112 0.028459 -0.492912
0.246638 0.028459 -0.493449
0.244822 0.028483 -0.492896
0.243348 0.028483 -0.493432
0.241527 0.028506 -0.492879
0.240052 0.028506 -0.493416
0.238227 0.028530 -0.492862
0.236750 0.028530 -0.493400
0.234921 0.028554 -0.492845
0.233443 0.028554 -0.493383
0.231610 0.028578 -0.492828
0.230131 0.028578 -0.493367
0.228294 0.028602 -0.492812
0.226813 0.028602 -0.493351
0.224971 0.028626 -0.492795
0.223489 0.028626 -0.493334
0.221644 0.028650 -0.492778
0.220161 0.028650 -0.493318
0.218311 0.028674 -0.492761
0.216826 0.028674 -0.493301
0.214972 0.028699 -0.492744
0.213486 0.028699 -0.493285
0.211628 0.028723 -0.492727
0.210141 0.028723 -0.493268
0.208278 0.028747 -0.492710
0.206790 0.028747 -0.493252
0.204923 0.028771 -0.492693
0.203434 0.028771 -0.493235
0.201562 0.028796 -0.492676
0.200072 0.028796 -0.493218
0.198196 0.028820 -0.492659
0.196704 0.028820 -0.493202
0.194824 0.028844 -0.492642
0.193331 0.028844 -0.493185
0.191446 0.028869 -0.492624
0.189952 0.028869 -0.493168
0.188063 0.028893 -0.492607
0.186568 0.028893 -0.493152
0.184674 0.028918 -0.492590
0.183178 0.028918 -0.493135
0.181280 0.028942 -0.492573
0.179782 0.028942 -0.493118
0.178284 0.028942 -0.493663
0.176786 0.028942 -0.494209
0.174881 0.028967 -0.493647
0.173382 0.028967 -0.494193
0.171473 0.028992 -0.493631
0.169972 0.028992 -0.494177
0.168059 0.029016 -0.493614
0.166557 0.029016 -0.494161
0.164639 0.029041 -0.493598
0.163136 0.029041 -0.494145
0.161214 0.029066 -0.493581
0.159288 0.029091 -0.493017
0.157783 0.029091 -0.493565
0.155853 0.029115 -0.493000
0.154346 0.029115 -0.493548
0.152411 0.029140 -0.492983
0.150903 0.029140 -0.493532
0.149395 0.029140 -0.494080
0.147455 0.029165 -0.493515
0.145945 0.029165 -0.494064
0.144000 0.029190 -0.493498
0.142490 0.029190 -0.494048
0.140540 0.029215 -0.493482
0.139028 0.029215 -0.494032
0.137074 0.029240 -0.493465
0.135561 0.029240 -0.494016
0.133602 0.029265 -0.493448
0.132088 0.029265 -0.494000
0.129676 0.029316 -0.492311
0.128159 0.029316 -0.492863
0.126189 0.029341 -0.492293
0.124670 0.029341 -0.492845
0.122696 0.029366 -0.492275
0.121176 0.029366 -0.492828
0.119198 0.029391 -0.492257
0.117677 0.029391 -0.492811
0.115693 0.029417 -0.492240
0.114171 0.029417 -0.492794
0.112183 0.029442 -0.492222
0.110659 0.029442 -0.492776
0.108666 0.029468 -0.492204
0.107141 0.029468 -0.492759
0.105144 0.029493 -0.492186
0.103618 0.029493 -0.492741
0.101615 0.029519 -0.492168
0.100088 0.029519 -0.492724
0.098081 0.029544 -0.492150
0.096552 0.029544 -0.492706
0.094541 0.029570 -0.492132
0.093011 0.029570 -0.492689
0.090994 0.029595 -0.492114
0.089463 0.029595 -0.492671
0.087442 0.029621 -0.492096
0.085909 0.029621 -0.492654
0.083883 0.029647 -0.492078
0.082349 0.029647 -0.492636
0.080319 0.029673 -0.492060
0.078784 0.029673 -0.492619
0.076748 0.029699 -0.492042
0.075212 0.029699 -0.492601
0.073171 0.029724 -0.492023
0.071633 0.029724 -0.492583
0.069588 0.029750 -0.492005
0.068049 0.029750 -0.492565
0.065999 0.029776 -0.491987
0.064459 0.029776 -0.492548
0.062404 0.029802 -0.491969
0.060862 0.029802 -0.492530
0.058803 0.029828 -0.491950
0.057260 0.029828 -0.492512
0.055195 0.029854 -0.491932
0.053651 0.029854 -0.492494
0.051581 0.029881 -0.491914
0.050035 0.029881 -0.492476
0.047961 0.029907 -0.491895
0.046414 0.029907 -0.492458
0.044335 0.029933 -0.491877
0.042787 0.029933 -0.492441
0.040703 0.029959 -0.491859
0.039153 0.029959 -0.492423
0.037064 0.029986 -0.491840
0.035513 0.029986 -0.492405
0.033419 0.030012 -0.491821
0.031866 0.030012 -0.492386
0.029767 0.030038 -0.491803
0.028214 0.030038 -0.492368
0.026110 0.030065 -0.491784
0.024555 0.030065 -0.492350
0.022446 0.030091 -0.491766
0.020889 0.030091 -0.492332
0.018775 0.030118 -0.491747
0.017218 0.030118 -0.492314
0.015099 0.030145 -0.491728
0.013539 0.030145 -0.492296
0.011416 0.030171 -0.491710
0.009855 0.030171 -0.492278
0.007726 0.030198 -0.491691
0.006164 0.030198 -0.492259
0.004030 0.030225 -0.491672
0.002467 0.030225 -0.492241
0.000328 0.030251 -0.491653
-0.001237 0.030251 -0.492223
-0.003381 0.030278 -0.491634
-0.004947 0.030278 -0.492204
-0.007096 0.030305 -0.491616
-0.008664 0.030305 -0.492186
-0.010818 0.030332 -0.491597
-0.012387 0.030332 -0.492168
-0.014546 0.030359 -0.491578
-0.016116 0.030359 -0.492149
-0.018281 0.030386 -0.491559
-0.019852 0.030386 -0.492131
-0.022022 0.030413 -0.491540
-0.023595 0.030413 -0.492112
-0.025770 0.030440 -0.491521
-0.027344 0.030440 -0.492094
-0.029525 0.030467 -0.491502
-0.031100 0.030467 -0.492075
-0.033286 0.030495 -0.491483
-0.034863 0.030495 -0.492057
-0.037053 0.030522 -0.491463
-0.038632 0.030522 -0.492038
-0.040827 0.030549 -0.491444
-0.042407 0.030549 -0.492019
-0.044608 0.030577 -0.491425
-0.046189 0.030577 -0.492001
-0.048396 0.030604 -0.491406
-0.049978 0.030604 -0.491982
-0.052190 0.030631 -0.491386
-0.053774 0.030631 -0.491963
-0.055991 0.030659 -0.491367
-0.057576 0.030659 -0.491944
-0.059799 0.030686 -0.491348
-0.061385 0.030686 -0.491925
-0.063613 0.030714 -0.491328
-0.065201 0.030714 -0.491906
-0.067434 0.030742 -0.491309
-0.069023 0.030742 -0.491888
-0.071262 0.030769 -0.491290
-0.072853 0.030769 -0.491869
-0.075096 0.030797 -0.491270
-0.076689 0.030797 -0.491850
-0.078938 0.030825 -0.491251
-0.080532 0.030825 -0.491831
-0.082786 0.030853 -0.491231
-0.084381 0.030853 -0.491812
-0.086641 0.030881 -0.491211
-0.088238 0.030881 -0.491793
-0.090503 0.030909 -0.491192
-0.092101 0.030909 -0.491773
-0.094372 0.030937 -0.491172
-0.095971 0.030937 -0.491754
-0.098248 0.030965 -0.491152
-0.099848 0.030965 -0.491735
-0.102130 0.030993 -0.491133
-0.103732 0.030993 -0.491716
-0.106020 0.031021 -0.491113
-0.107623 0.031021 -0.491697
-0.109916 0.031049 -0.491093
-0.112213 0.031077 -0.490489
-0.113820 0.031077 -0.491073
-0.115426 0.031077 -0.491658
-0.117730 0.031106 -0.491053
-0.119338 0.031106 -0.491639
-0.121647 0.031134 -0.491034
-0.123257 0.031134 -0.491619
-0.125572 0.031162 -0.491014
-0.127891 0.031191 -0.490407
-0.129503 0.031191 -0.490994
-0.131828 0.031219 -0.490386
-0.133442 0.031219 -0.490974
-0.135772 0.031248 -0.490366
-0.137388 0.031248 -0.490954
-0.139724 0.031276 -0.490345
-0.141340 0.031276 -0.490933
-0.143682 0.031305 -0.490324
-0.146028 0.031334 -0.489714
-0.147647 0.031334 -0.490304
-0.149999 0.031362 -0.489693
-0.151620 0.031362 -0.490283
-0.153977 0.031391 -0.489672
-0.155600 0.031391 -0.490262
-0.157963 0.031420 -0.489650
-0.160330 0.031449 -0.489037
-0.161956 0.031449 -0.489629
-0.164329 0.031478 -0.489015
-0.165956 0.031478 -0.489608
-0.168335 0.031507 -0.488993
-0.169963 0.031507 -0.489586
-0.172348 0.031536 -0.488971
-0.173977 0.031536 -0.489565
-0.176368 0.031565 -0.488949
-0.178763 0.031594 -0.488333
-0.180396 0.031594 -0.488927
-0.182796 0.031624 -0.488310
-0.184430 0.031624 -0.488905
-0.186837 0.031653 -0.488288
-0.188473 0.031653 -0.488883
-0.190885 0.031682 -0.488265
-0.193302 0.031712 -0.487645
-0.194941 0.031712 -0.488242
-0.198149 0.031770 -0.486404
-0.199790 0.031770 -0.487001
-0.202222 0.031800 -0.486379
-0.203865 0.031800 -0.486977
-0.206303 0.031830 -0.486354
-0.207947 0.031830 -0.486953
-0.210391 0.031859 -0.486330
-0.212037 0.031859 -0.486929
-0.213683 0.031859 -0.487528
-0.216134 0.031889 -0.486905
-0.217782 0.031889 -0.487504
-0.220239 0.031919 -0.486881
-0.221888 0.031919 -0.487481
-0.224351 0.031949 -0.486856
-0.226819 0.031978 -0.486231
-0.228471 0.031978 -0.486832
-0.230945 0.032008 -0.486206
-0.232599 0.032008 -0.486808
-0.235078 0.032038 -0.486181
-0.236734 0.032038 -0.486783
-0.239219 0.032068 -0.486156
-0.240876 0.032068 -0.486759
-0.243368 0.032098 -0.486131
-0.245865 0.032129 -0.485502
-0.247524 0.032129 -0.486106
-0.250027 0.032159 -0.485476
-0.252534 0.032189 -0.484845
-0.255046 0.032219 -0.484213
-0.256711 0.032219 -0.484818
-0.259229 0.032250 -0.484186
-0.261752 0.032280 -0.483552
-0.263419 0.032280 -0.484159
-0.265948 0.032311 -0.483524
-0.268482 0.032341 -0.482888
-0.270153 0.032341 -0.483496
-0.272693 0.032372 -0.482860
-0.275237 0.032402 -0.482222
-0.277787 0.032433 -0.481584
-0.279462 0.032433 -0.482194
-0.282018 0.032464 -0.481554
-0.283695 0.032464 -0.482165
-0.286257 0.032495 -0.481524
-0.288824 0.032526 -0.480883
-0.291396 0.032557 -0.480241
-0.293972 0.032588 -0.479597
-0.296553 0.032619 -0.478953
-0.299140 0.032650 -0.478307
-0.301731 0.032681 -0.477659
-0.304326 0.032712 -0.477011
-0.307840 0.032775 -0.475094
-0.310449 0.032806 -0.474441
-0.313063 0.032838 -0.473788
-0.315682 0.032869 -0.473132
-0.319234 0.032932 -0.471199
-0.321866 0.032964 -0.470540
-0.324503 0.032996 -0.469879
-0.327145 0.033028 -0.469217
-0.329792 0.033060 -0.468554
-0.332444 0.033092 -0.467889
-0.335102 0.033124 -0.467224
-0.338718 0.033188 -0.465264
-0.341388 0.033220 -0.464594
-0.344064 0.033252 -0.463923
-0.347711 0.033317 -0.461950
-0.350401 0.033349 -0.461274
-0.354070 0.033414 -0.459290
-0.357754 0.033480 -0.457299
-0.360466 0.033513 -0.456615
-0.364173 0.033578 -0.454613
-0.368891 0.033677 -0.451279
-0.372632 0.033744 -0.449257
-0.375379 0.033777 -0.448560
-0.380157 0.033877 -0.445189
-0.383942 0.033944 -0.443143
-0.387742 0.034012 -0.441089
-0.391556 0.034079 -0.439027
-0.395385 0.034147 -0.436957
-0.399230 0.034215 -0.434878
-0.404139 0.034318 -0.431423
-0.408020 0.034387 -0.429324
-0.412980 0.034491 -0.425835
-0.416898 0.034560 -0.423715
-0.421909 0.034665 -0.420192
-0.426950 0.034770 -0.416648
-0.432021 0.034876 -0.413083
-0.440445 0.035091 -0.405229
-0.452361 0.035417 -0.392937
0.469922 0.035958 0.076805
0.469436 0.035682 0.061712
0.468122 0.035564 0.054910
0.466816 0.035448 0.048153
0.465307 0.035371 0.043437
0.463805 0.035294 0.038743
0.462309 0.035217 0.034068
0.460819 0.035141 0.029413
0.459120 0.035103 0.026744
0.457642 0.035027 0.022120
0.455951 0.034989 0.019468
0.454264 0.034952 0.016821
0.452802 0.034876 0.012237
0.451123 0.034839 0.009607
0.449448 0.034802 0.006982
0.447777 0.034764 0.004362
0.446337 0.034690 -0.000171
0.444674 0.034653 -0.002775
0.453553 0.032928 -0.092568
0.454256 0.032531 -0.113720
0.454738 0.032175 -0.132728
0.454405 0.031953 -0.144843
0.453472 0.031827 -0.151963
0.452141 0.031765 -0.155819
0.450610 0.031733 -0.158057
0.449288 0.031671 -0.161889
0.447764 0.031640 -0.164114
0.446451 0.031578 -0.167924
0.445143 0.031517 -0.171720
0.443631 0.031486 -0.173925
0.442332 0.031425 -0.177698
0.440827 0.031395 -0.179891
0.439537 0.031334 -0.183642
0.438039 0.031303 -0.185823
0.436758 0.031243 -0.189552
0.435267 0.031213 -0.191722
0.434211 0.031123 -0.196968
0.432728 0.031093 -0.199122
0.431466 0.031033 -0.202801
0.429989 0.031003 -0.204944
0.428736 0.030944 -0.208602
0.427266 0.030914 -0.210733
0.425799 0.030885 -0.212860
0.424335 0.030855 -0.214984
0.422873 0.030826 -0.217103
0.421414 0.030796 -0.219218
0.419958 0.030767 -0.221329
0.418505 0.030738 -0.223437
0.417054 0.030708 -0.225540
0.415606 0.030679 -0.227640
0.414161 0.030650 -0.229735
0.412718 0.030621 -0.231827
0.411278 0.030592 -0.233915
0.409841 0.030563 -0.235999
0.408407 0.030534 -0.238079
0.406738 0.030534 -0.238687
0.405307 0.030506 -0.240762
0.403880 0.030477 -0.242834
0.402213 0.030477 -0.243440
0.400790 0.030448 -0.245508
0.399369 0.030419 -0.247571
0.397706 0.030419 -0.248177
0.396289 0.030391 -0.250236
0.394875 0.030362 -0.252291
0.393215 0.030362 -0.252895
0.391555 0.030362 -0.253500
0.390147 0.030334 -0.255550
0.388741 0.030305 -0.257597
0.387084 0.030305 -0.258200
0.385683 0.030277 -0.260242
0.384284 0.030248 -0.262281
0.382630 0.030248 -0.262883
0.381235 0.030220 -0.264917
0.379842 0.030192 -0.266948
0.378191 0.030192 -0.267549
0.376803 0.030164 -0.269575
0.375417 0.030135 -0.271598
0.373769 0.030135 -0.272197
0.372388 0.030107 -0.274216
0.371008 0.030079 -0.276230
0.369364 0.030079 -0.276829
0.367988 0.030051 -0.278839
0.366616 0.030023 -0.280846
0.364974 0.030023 -0.281444
0.363878 0.029968 -0.284849
0.362513 0.029940 -0.286845
0.360875 0.029940 -0.287440
0.359514 0.029912 -0.289432
0.357878 0.029912 -0.290027
0.356242 0.029912 -0.290623
0.354887 0.029884 -0.292610
0.353252 0.029884 -0.293205
0.351900 0.029857 -0.295187
0.350551 0.029829 -0.297167
0.348920 0.029829 -0.297760
0.347574 0.029802 -0.299735
0.345944 0.029802 -0.300329
0.344603 0.029774 -0.302300
0.343264 0.029747 -0.304267
0.341637 0.029747 -0.304859
0.340302 0.029719 -0.306822
0.338676 0.029719 -0.307414
0.337345 0.029692 -0.309373
0.335721 0.029692 -0.309964
0.334393 0.029665 -0.311919
0.332771 0.029665 -0.312510
0.331447 0.029637 -0.314461
0.329826 0.029637 -0.315051
0.328506 0.029610 -0.316998
0.327189 0.029583 -0.318941
0.325571 0.029583 -0.319530
0.324257 0.029556 -0.321470
0.322641 0.029556 -0.322058
0.356281 0.026448 -0.477411
0.355574 0.026383 -0.481182
0.354128 0.026383 -0.481709
0.352931 0.026361 -0.483312
0.351486 0.026361 -0.483838
0.350292 0.026340 -0.485438
0.349099 0.026318 -0.487036
0.347657 0.026318 -0.487561
0.346214 0.026318 -0.488086
0.344771 0.026318 -0.488611
0.343328 0.026318 -0.489136
0.341628 0.026340 -0.488592
0.340184 0.026340 -0.489117
0.338740 0.026340 -0.489643
0.337296 0.026340 -0.490168
0.335852 0.026340 -0.490694
0.334408 0.026340 -0.491219
0.332964 0.026340 -0.491745
0.331520 0.026340 -0.492270
0.329809 0.026361 -0.491728
0.328364 0.026361 -0.492254
0.326649 0.026383 -0.491710
0.325202 0.026383 -0.492237
0.323483 0.026405 -0.491693
0.322036 0.026405 -0.492220
0.320313 0.026426 -0.491675
0.318864 0.026426 -0.492203
0.317416 0.026426 -0.492730
0.315687 0.026448 -0.492186
0.314238 0.026448 -0.492713
0.312788 0.026448 -0.493241
0.311055 0.026470 -0.492697
0.309319 0.026492 -0.492152
0.307866 0.026492 -0.492680
0.306126 0.026514 -0.492134
0.304673 0.026514 -0.492663
0.302929 0.026535 -0.492117
0.301475 0.026535 -0.492647
0.299727 0.026557 -0.492100
0.298271 0.026557 -0.492630
0.296519 0.026579 -0.492083
0.295062 0.026579 -0.492613
0.293306 0.026601 -0.492066
0.291848 0.026601 -0.492597
0.290088 0.026623 -0.492049
0.288629 0.026623 -0.492580
0.287169 0.026623 -0.493111
0.285404 0.026645 -0.492563
0.283944 0.026645 -0.493094
0.282483 0.026645 -0.493626
0.280713 0.026668 -0.493078
0.279251 0.026668 -0.493610
0.277477 0.026690 -0.493062
0.276014 0.026690 -0.493594
0.274235 0.026712 -0.493045
0.272771 0.026712 -0.493578
0.270988 0.026734 -0.493029
0.269523 0.026734 -0.493562
0.267736 0.026756 -0.493012
0.266270 0.026756 -0.493546
0.264479 0.026779 -0.492995
0.263011 0.026779 -0.493530
0.261216 0.026801 -0.492979
0.259747 0.026801 -0.493514
0.257948 0.026823 -0.492962
0.256478 0.026823 -0.493497
0.254675 0.026846 -0.492946
0.253204 0.026846 -0.493481
0.251396 0.026868 -0.492929
0.249924 0.026868 -0.493465
0.248112 0.026891 -0.492912
0.246638 0.026891 -0.493449
0.244822 0.026913 -0.492896
0.243348 0.026913 -0.493432
0.241527 0.026936 -0.492879
0.240052 0.026936 -0.493416
0.238227 0.026958 -0.492862
0.236750 0.026958 -0.493400
0.234921 0.026981 -0.492845
0.233443 0.026981 -0.493383
0.231610 0.027004 -0.492828
0.230131 0.027004 -0.493367
0.228294 0.027026 -0.492812
0.226813 0.027026 -0.493351
0.224971 0.027049 -0.492795
0.223489 0.027049 -0.493334
0.221644 0.027072 -0.492778
0.220161 0.027072 -0.493318
0.218311 0.027095 -0.492761
0.216826 0.027095 -0.493301
0.214972 0.027117 -0.492744
0.213486 0.027117 -0.493285
0.211628 0.027140 -0.492727
0.210141 0.027140 -0.493268
0.208278 0.027163 -0.492710
0.206790 0.027163 -0.493252
0.204923 0.027186 -0.492693
0.203434 0.027186 -0.493235
0.201562 0.027209 -0.492676
0.200072 0.027209 -0.493218
0.198196 0.027232 -0.492659
0.196704 0.027232 -0.493202
0.194824 0.027255 -0.492642
0.193331 0.027255 -0.493185
0.191446 0.027278 -0.492624
0.189952 0.027278 -0.493168
0.188063 0.027302 -0.492607
0.186568 0.027302 -0.493152
0.184674 0.027325 -0.492590
0.183178 0.027325 -0.493135
0.181280 0.027348 -0.492573
0.179782 0.027348 -0.493118
0.178284 0.027348 -0.493663
0.176786 0.027348 -0.494209
0.174881 0.027371 -0.493647
0.173382 0.027371 -0.494193
0.171473 0.027395 -0.493631
0.169972 0.027395 -0.494177
0.168059 0.027418 -0.493614
0.166557 0.027418 -0.494161
0.164639 0.027441 -0.493598
0.163136 0.027441 -0.494145
0.161214 0.027465 -0.493581
0.159288 0.027488 -0.493017
0.157783 0.027488 -0.493565
0.155853 0.027512 -0.493000
0.154346 0.027512 -0.493548
0.152411 0.027535 -0.492983
0.150903 0.027535 -0.493532
0.149395 0.027535 -0.494080
0.147455 0.027559 -0.493515
0.145945 0.027559 -0.494064
0.144000 0.027583 -0.493498
0.142490 0.027583 -0.494048
0.140540 0.027606 -0.493482
0.139028 0.027606 -0.494032
0.137074 0.027630 -0.493465
0.135561 0.027630 -0.494016
0.133602 0.027654 -0.493448
0.132088 0.027654 -0.494000
0.129676 0.027701 -0.492311
0.128159 0.027701 -0.492863
0.126189 0.027725 -0.492293
0.124670 0.027725 -0.492845
0.122696 0.027749 -0.492275
0.121176 0.027749 -0.492828
0.119198 0.027773 -0.492257
0.117677 0.027773 -0.492811
0.115693 0.027797 -0.492240
0.114171 0.027797 -0.492794
0.112183 0.027821 -0.492222
0.110659 0.027821 -0.492776
0.108666 0.027845 -0.492204
0.107141 0.027845 -0.492759
0.105144 0.027869 -0.492186
0.103618 0.027869 -0.492741
0.101615 0.027893 -0.492168
0.100088 0.027893 -0.492724
0.098081 0.027917 -0.492150
0.096552 0.027917 -0.492706
0.094541 0.027942 -0.492132
0.093011 0.027942 -0.492689
0.090994 0.027966 -0.492114
0.089463 0.027966 -0.492671
0.087442 0.027990 -0.492096
0.085909 0.027990 -0.492654
0.083883 0.028015 -0.492078
0.082349 0.028015 -0.492636
0.080319 0.028039 -0.492060
0.078784 0.028039 -0.492619
0.076748 0.028063 -0.492042
0.075212 0.028063 -0.492601
0.073171 0.028088 -0.492023
0.071633 0.028088 -0.492583
0.069588 0.028112 -0.492005
0.068049 0.028112 -0.492565
0.065999 0.028137 -0.491987
0.064459 0.028137 -0.492548
0.062404 0.028162 -0.491969
0.060862 0.028162 -0.492530
0.058803 0.028186 -0.491950
0.057260 0.028186 -0.492512
0.055195 0.028211 -0.491932
0.053651 0.028211 -0.492494
0.051581 0.028236 -0.491914
0.050035 0.028236 -0.492476
0.047961 0.028260 -0.491895
0.046414 0.028260 -0.492458
0.044335 0.028285 -0.491877
0.042787 0.028285 -0.492441
0.040703 0.028310 -0.491859
0.039153 0.028310 -0.492423
0.037064 0.028335 -0.491840
0.035513 0.028335 -0.492405
0.033419 0.028360 -0.491821
0.031866 0.028360 -0.492386
0.029767 0.028385 -0.491803
0.028214 0.028385 -0.492368
0.026110 0.028410 -0.491784
0.024555 0.028410 -0.492350
0.022446 0.028435 -0.491766
0.020889 0.028435 -0.492332
0.018775 0.028460 -0.491747
0.017218 0.028460 -0.492314
0.015099 0.028485 -0.491728
0.013539 0.028485 -0.492296
0.011416 0.028511 -0.491710
0.009855 0.028511 -0.492278
0.007726 0.028536 -0.491691
0.006164 0.028536 -0.492259
0.004030 0.028561 -0.491672
0.002467 0.028561 -0.492241
0.000328 0.028586 -0.491653
-0.001237 0.028586 -0.492223
-0.003381 0.028612 -0.491634
-0.004947 0.028612 -0.492204
-0.007096 0.028637 -0.491616
-0.008664 0.028637 -0.492186
-0.010818 0.028663 -0.491597
-0.012387 0.028663 -0.492168
-0.014546 0.028688 -0.491578
-0.016116 0.028688 -0.492149
-0.018281 0.028714 -0.491559
-0.019852 0.028714 -0.492131
-0.022022 0.028739 -0.491540
-0.023595 0.028739 -0.492112
-0.025770 0.028765 -0.491521
-0.027344 0.028765 -0.492094
-0.029525 0.028791 -0.491502
-0.031100 0.028791 -0.492075
-0.033286 0.028816 -0.491483
-0.034863 0.028816 -0.492057
-0.037053 0.028842 -0.491463
-0.038632 0.028842 -0.492038
-0.040827 0.028868 -0.491444
-0.042407 0.028868 -0.492019
-0.044608 0.028894 -0.491425
-0.046189 0.028894 -0.492001
-0.048396 0.028920 -0.491406
-0.049978 0.028920 -0.491982
-0.052190 0.028946 -0.491386
-0.053774 0.028946 -0.491963
-0.055991 0.028972 -0.491367
-0.057576 0.028972 -0.491944
-0.059799 0.028998 -0.491348
-0.061385 0.028998 -0.491925
-0.063613 0.029024 -0.491328
-0.065201 0.029024 -0.491906
-0.067434 0.029050 -0.491309
-0.069023 0.029050 -0.491888
-0.071262 0.029076 -0.491290
-0.072853 0.029076 -0.491869
-0.075096 0.029103 -0.491270
-0.076689 0.029103 -0.491850
-0.078938 0.029129 -0.491251
-0.080532 0.029129 -0.491831
-0.082786 0.029155 -0.491231
-0.084381 0.029155 -0.491812
-0.086641 0.029182 -0.491211
-0.088238 0.029182 -0.491793
-0.090503 0.029208 -0.491192
-0.092101 0.029208 -0.491773
-0.094372 0.029235 -0.491172
-0.095971 0.029235 -0.491754
-0.098248 0.029261 -0.491152
-0.099848 0.029261 -0.491735
-0.102130 0.029288 -0.491133
-0.103732 0.029288 -0.491716
-0.106020 0.029314 -0.491113
-0.107623 0.029314 -0.491697
-0.109916 0.029341 -0.491093
-0.112213 0.029368 -0.490489
-0.113820 0.029368 -0.491073
-0.115426 0.029368 -0.491658
-0.117730 0.029394 -0.491053
-0.119338 0.029394 -0.491639
-0.121647 0.029421 -0.491034
-0.123257 0.029421 -0.491619
-0.125572 0.029448 -0.491014
-0.127891 0.029475 -0.490407
-0.129503 0.029475 -0.490994
-0.131828 0.029502 -0.490386
-0.133442 0.029502 -0.490974
-0.135772 0.029529 -0.490366
-0.137388 0.029529 -0.490954
-0.139724 0.029556 -0.490345
-0.141340 0.029556 -0.490933
-0.143682 0.029583 -0.490324
-0.146028 0.029610 -0.489714
-0.147647 0.029610 -0.490304
-0.149999 0.029637 -0.489693
-0.151620 0.029637 -0.490283
-0.153977 0.029665 -0.489672
-0.155600 0.029665 -0.490262
-0.157963 0.029692 -0.489650
-0.160330 0.029719 -0.489037
-0.161956 0.029719 -0.489629
-0.164329 0.029747 -0.489015
-0.165956 0.029747 -0.489608
-0.168335 0.029774 -0.488993
-0.169963 0.029774 -0.489586
-0.172348 0.029802 -0.488971
-0.173977 0.029802 -0.489565
-0.176368 0.029829 -0.488949
-0.178763 0.029857 -0.488333
-0.180396 0.029857 -0.488927
-0.182796 0.029884 -0.488310
-0.184430 0.029884 -0.488905
-0.186837 0.029912 -0.488288
-0.189248 0.029940 -0.487669
-0.190885 0.029940 -0.488265
-0.193302 0.029968 -0.487645
-0.194941 0.029968 -0.488242
-0.198149 0.030023 -0.486404
-0.199790 0.030023 -0.487001
-0.202222 0.030051 -0.486379
-0.203865 0.030051 -0.486977
-0.206303 0.030079 -0.486354
-0.207947 0.030079 -0.486953
-0.210391 0.030107 -0.486330
-0.212037 0.030107 -0.486929
-0.213683 0.030107 -0.487528
-0.216134 0.030135 -0.486905
-0.217782 0.030135 -0.487504
-0.220239 0.030164 -0.486881
-0.222701 0.030192 -0.486255
-0.224351 0.030192 -0.486856
-0.226819 0.030220 -0.486231
-0.228471 0.030220 -0.486832
-0.230945 0.030248 -0.486206
-0.232599 0.030248 -0.486808
-0.235078 0.030277 -0.486181
-0.236734 0.030277 -0.486783
-0.239219 0.030305 -0.486156
-0.240876 0.030305 -0.486759
-0.243368 0.030334 -0.486131
-0.245865 0.030362 -0.485502
-0.248366 0.030391 -0.484871
-0.250027 0.030391 -0.485476
-0.252534 0.030419 -0.484845
-0.255046 0.030448 -0.484213
-0.256711 0.030448 -0.484818
-0.259229 0.030477 -0.484186
-0.261752 0.030506 -0.483552
-0.263419 0.030506 -0.484159
-0.265948 0.030534 -0.483524
-0.268482 0.030563 -0.482888
-0.271020 0.030592 -0.482251
-0.272693 0.030592 -0.482860
-0.275237 0.030621 -0.482222
-0.277787 0.030650 -0.481584
-0.279462 0.030650 -0.482194
-0.282018 0.030679 -0.481554
-0.284579 0.030708 -0.480914
-0.286257 0.030708 -0.481524
-0.288824 0.030738 -0.480883
-0.291396 0.030767 -0.480241
-0.293972 0.030796 -0.479597
-0.296553 0.030826 -0.478953
-0.299140 0.030855 -0.478307
-0.302637 0.030914 -0.476396
-0.305236 0.030944 -0.475746
-0.307840 0.030973 -0.475094
-0.310449 0.031003 -0.474441
-0.313984 0.031063 -0.472515
-0.316607 0.031093 -0.471858
-0.319234 0.031123 -0.471199
-0.321866 0.031153 -0.470540
-0.324503 0.031183 -0.469879
-0.327145 0.031213 -0.469217
-0.329792 0.031243 -0.468554
-0.333391 0.031303 -0.466601
-0.336052 0.031334 -0.465933
-0.338718 0.031364 -0.465264
-0.342347 0.031425 -0.463298
-0.345027 0.031456 -0.462625
-0.347711 0.031486 -0.461950
-0.351372 0.031548 -0.459970
-0.354070 0.031578 -0.459290
-0.357754 0.031640 -0.457299
-0.361452 0.031702 -0.455300
-0.364173 0.031733 -0.454613
-0.368891 0.031827 -0.451279
-0.372632 0.031890 -0.449257
-0.376387 0.031953 -0.447227
-0.380157 0.032016 -0.445189
-0.383942 0.032080 -0.443143
-0.387742 0.032143 -0.441089
-0.391556 0.032207 -0.439027
-0.396424 0.032304 -0.435598
-0.400274 0.032368 -0.433515
-0.404139 0.032433 -0.431423
-0.409078 0.032531 -0.427948
-0.412980 0.032596 -0.425835
-0.417970 0.032695 -0.422326
-0.422989 0.032795 -0.418796
-0.428038 0.032894 -0.415244
-0.434217 0.033029 -0.410257
-0.444907 0.033300 -0.399500
-0.456912 0.033611 -0.387104
0.467798 0.034251 0.097739
0.468596 0.033760 0.069902
0.467701 0.033574 0.058968
0.466394 0.033464 0.052183
0.465095 0.033354 0.045441
0.463592 0.033282 0.040737
0.461880 0.033245 0.038042
0.460388 0.033173 0.033369
0.458903 0.033101 0.028715
0.457424 0.033030 0.024082
0.455731 0.032994 0.021425
0.454264 0.032923 0.016821
0.452580 0.032887 0.014180
0.450900 0.032852 0.011545
0.449223 0.032817 0.008915
0.447777 0.032746 0.004362
0.446109 0.032711 0.001748
0.444444 0.032676 -0.000860
0.452714 0.031142 -0.085622
0.453429 0.030764 -0.106942
0.453718 0.030457 -0.124431
0.453797 0.030185 -0.139944
0.453270 0.030006 -0.150347
0.451937 0.029947 -0.154209
0.450610 0.029889 -0.158057
0.449082 0.029859 -0.160290
0.447764 0.029801 -0.164114
0.446244 0.029772 -0.166335
0.444935 0.029713 -0.170138
0.443631 0.029656 -0.173925
0.442122 0.029627 -0.176126
0.440827 0.029569 -0.179891
0.439325 0.029540 -0.182080
0.438039 0.029483 -0.185823
0.436544 0.029455 -0.188001
0.435482 0.029369 -0.193267
0.433995 0.029341 -0.195429
0.432728 0.029284 -0.199122
0.431248 0.029256 -0.201272
0.429989 0.029200 -0.204944
0.428515 0.029172 -0.207083
0.427266 0.029116 -0.210733
0.425799 0.029088 -0.212860
0.424335 0.029060 -0.214984
0.422873 0.029033 -0.217103
0.421414 0.029005 -0.219218
0.419958 0.028977 -0.221329
0.418505 0.028950 -0.223437
0.417054 0.028922 -0.225540
0.415376 0.028922 -0.226151
0.413929 0.028895 -0.228250
0.412485 0.028867 -0.230345
0.411044 0.028840 -0.232436
0.409841 0.028785 -0.235999
0.408170 0.028785 -0.236607
0.406738 0.028758 -0.238687
0.405307 0.028731 -0.240762
0.403640 0.028731 -0.241369
0.402213 0.028704 -0.243440
0.400547 0.028704 -0.244047
0.399125 0.028677 -0.246114
0.397706 0.028650 -0.248177
0.396043 0.028650 -0.248782
0.394628 0.028623 -0.250841
0.393215 0.028596 -0.252895
0.391555 0.028596 -0.253500
0.390147 0.028569 -0.255550
0.388489 0.028569 -0.256154
0.387084 0.028542 -0.258200
0.385683 0.028515 -0.260242
0.384027 0.028515 -0.260845
0.382630 0.028488 -0.262883
0.381235 0.028462 -0.264917
0.379582 0.028462 -0.265519
0.378191 0.028435 -0.267549
0.376541 0.028435 -0.268149
0.375154 0.028408 -0.270175
0.373769 0.028382 -0.272197
0.372122 0.028382 -0.272797
0.370741 0.028355 -0.274815
0.369364 0.028329 -0.276829
0.367988 0.028303 -0.278839
0.366345 0.028303 -0.279438
0.364974 0.028276 -0.281444
0.363878 0.028224 -0.284849
0.362239 0.028224 -0.285445
0.360875 0.028197 -0.287440
0.359238 0.028197 -0.288036
0.357878 0.028171 -0.290027
0.356242 0.028171 -0.290623
0.354887 0.028145 -0.292610
0.353533 0.028119 -0.294593
0.351900 0.028119 -0.295187
0.350551 0.028093 -0.297167
0.348920 0.028093 -0.297760
0.347288 0.028093 -0.298354
0.345944 0.028067 -0.300329
0.344603 0.028041 -0.302300
0.342974 0.028041 -0.302892
0.341637 0.028015 -0.304859
0.340010 0.028015 -0.305451
0.338676 0.027990 -0.307414
0.337345 0.027964 -0.309373
0.335721 0.027964 -0.309964
0.334393 0.027938 -0.311919
0.332771 0.027938 -0.312510
0.331447 0.027912 -0.314461
0.329826 0.027912 -0.315051
0.328506 0.027887 -0.316998
0.326887 0.027887 -0.317587
0.325571 0.027861 -0.319530
0.323953 0.027861 -0.320119
0.322641 0.027836 -0.322058
0.356034 0.024926 -0.476326
0.355327 0.024864 -0.480103
0.354128 0.024844 -0.481709
0.352931 0.024823 -0.483312
0.351486 0.024823 -0.483838
0.350292 0.024803 -0.485438
0.349099 0.024783 -0.487036
0.347657 0.024783 -0.487561
0.346214 0.024783 -0.488086
0.344771 0.024783 -0.488611
0.343328 0.024783 -0.489136
0.341628 0.024803 -0.488592
0.340184 0.024803 -0.489117
0.338740 0.024803 -0.489643
0.337296 0.024803 -0.490168
0.335852 0.024803 -0.490694
0.334408 0.024803 -0.491219
0.332964 0.024803 -0.491745
0.331520 0.024803 -0.492270
0.329809 0.024823 -0.491728
0.328364 0.024823 -0.492254
0.326649 0.024844 -0.491710
0.325202 0.024844 -0.492237
0.323483 0.024864 -0.491693
0.322036 0.024864 -0.492220
0.320588 0.024864 -0.492746
0.318864 0.024885 -0.492203
0.317416 0.024885 -0.492730
0.315687 0.024905 -0.492186
0.314238 0.024905 -0.492713
0.312788 0.024905 -0.493241
0.311055 0.024926 -0.492697
0.309319 0.024946 -0.492152
0.307866 0.024946 -0.492680
0.306126 0.024967 -0.492134
0.304673 0.024967 -0.492663
0.302929 0.024988 -0.492117
0.301475 0.024988 -0.492647
0.299727 0.025008 -0.492100
0.298271 0.025008 -0.492630
0.296519 0.025029 -0.492083
0.295062 0.025029 -0.492613
0.293306 0.025050 -0.492066
0.291848 0.025050 -0.492597
0.290088 0.025071 -0.492049
0.288629 0.025071 -0.492580
0.287169 0.025071 -0.493111
0.285404 0.025091 -0.492563
0.283944 0.025091 -0.493094
0.282483 0.025091 -0.493626
0.280713 0.025112 -0.493078
0.279251 0.025112 -0.493610
0.277477 0.025133 -0.493062
0.276014 0.025133 -0.493594
0.274235 0.025154 -0.493045
0.272771 0.025154 -0.493578
0.270988 0.025175 -0.493029
0.269523 0.025175 -0.493562
0.267736 0.025196 -0.493012
0.266270 0.025196 -0.493546
0.264479 0.025217 -0.492995
0.263011 0.025217 -0.493530
0.261216 0.025238 -0.492979
0.259747 0.025238 -0.493514
0.257948 0.025259 -0.492962
0.256478 0.025259 -0.493497
0.254675 0.025280 -0.492946
0.253204 0.025280 -0.493481
0.251396 0.025301 -0.492929
0.249924 0.025301 -0.493465
0.248112 0.025323 -0.492912
0.246638 0.025323 -0.493449
0.244822 0.025344 -0.492896
0.243348 0.025344 -0.493432
0.241527 0.025365 -0.492879
0.240052 0.025365 -0.493416
0.238227 0.025386 -0.492862
0.236750 0.025386 -0.493400
0.234921 0.025408 -0.492845
0.233443 0.025408 -0.493383
0.231610 0.025429 -0.492828
0.230131 0.025429 -0.493367
0.228294 0.025450 -0.492812
0.226813 0.025450 -0.493351
0.224971 0.025472 -0.492795
0.223489 0.025472 -0.493334
0.221644 0.025493 -0.492778
0.220161 0.025493 -0.493318
0.218311 0.025515 -0.492761
0.216826 0.025515 -0.493301
0.214972 0.025536 -0.492744
0.213486 0.025536 -0.493285
0.211628 0.025558 -0.492727
0.210141 0.025558 -0.493268
0.208278 0.025580 -0.492710
0.206790 0.025580 -0.493252
0.204923 0.025601 -0.492693
0.203434 0.025601 -0.493235
0.201562 0.025623 -0.492676
0.200072 0.025623 -0.493218
0.198196 0.025645 -0.492659
0.196704 0.025645 -0.493202
0.194824 0.025666 -0.492642
0.193331 0.025666 -0.493185
0.191446 0.025688 -0.492624
0.189952 0.025688 -0.493168
0.188063 0.025710 -0.492607
0.186568 0.025710 -0.493152
0.184674 0.025732 -0.492590
0.183178 0.025732 -0.493135
0.181280 0.025754 -0.492573
0.179782 0.025754 -0.493118
0.178284 0.025754 -0.493663
0.176786 0.025754 -0.494209
0.174881 0.025776 -0.493647
0.173382 0.025776 -0.494193
0.171473 0.025798 -0.493631
0.169972 0.025798 -0.494177
0.168059 0.025820 -0.493614
0.166557 0.025820 -0.494161
0.164639 0.025842 -0.493598
0.163136 0.025842 -0.494145
0.161214 0.025864 -0.493581
0.159288 0.025886 -0.493017
0.157783 0.025886 -0.493565
0.155853 0.025908 -0.493000
0.154346 0.025908 -0.493548
0.152411 0.025930 -0.492983
0.150903 0.025930 -0.493532
0.149395 0.025930 -0.494080
0.147455 0.025953 -0.493515
0.145945 0.025953 -0.494064
0.144000 0.025975 -0.493498
0.142490 0.025975 -0.494048
0.140540 0.025997 -0.493482
0.139028 0.025997 -0.494032
0.137074 0.026020 -0.493465
0.135561 0.026020 -0.494016
0.133602 0.026042 -0.493448
0.132088 0.026042 -0.494000
0.129676 0.026087 -0.492311
0.128159 0.026087 -0.492863
0.126189 0.026109 -0.492293
0.124670 0.026109 -0.492845
0.122696 0.026132 -0.492275
0.121176 0.026132 -0.492828
0.119198 0.026154 -0.492257
0.117677 0.026154 -0.492811
0.115693 0.026177 -0.492240
0.114171 0.026177 -0.492794
0.112183 0.026200 -0.492222
0.110659 0.026200 -0.492776
0.108666 0.026222 -0.492204
0.107141 0.026222 -0.492759
0.105144 0.026245 -0.492186
0.103618 0.026245 -0.492741
0.101615 0.026268 -0.492168
0.100088 0.026268 -0.492724
0.098081 0.026291 -0.492150
0.096552 0.026291 -0.492706
0.094541 0.026314 -0.492132
0.093011 0.026314 -0.492689
0.090994 0.026336 -0.492114
0.089463 0.026336 -0.492671
0.087442 0.026359 -0.492096
0.085909 0.026359 -0.492654
0.083883 0.026382 -0.492078
0.082349 0.026382 -0.492636
0.080319 0.026405 -0.492060
0.078784 0.026405 -0.492619
0.076748 0.026428 -0.492042
0.075212 0.026428 -0.492601
0.073171 0.026451 -0.492023
0.071633 0.026451 -0.492583
0.069588 0.026475 -0.492005
0.068049 0.026475 -0.492565
