ply
format ascii 1.0
element vertex 1657
property float x
property float y
property float z
end_header
-0.179342 0.180863 -0.487867
-0.184279 0.180371 -0.487676
-0.189189 0.179881 -0.487486
-0.195407 0.179232 -0.487730
-0.200256 0.178748 -0.487541
-0.205079 0.178267 -0.487353
-0.209877 0.177788 -0.487166
-0.214649 0.177312 -0.486980
-0.219395 0.176839 -0.486795
-0.224116 0.176368 -0.486611
-0.228812 0.175899 -0.486428
-0.233483 0.175433 -0.486246
-0.236864 0.175124 -0.485639
-0.241494 0.174662 -0.485460
-0.244846 0.174356 -0.484858
-0.249434 0.173898 -0.484682
-0.252758 0.173594 -0.484083
-0.256070 0.173291 -0.483487
-0.259370 0.172989 -0.482893
-0.262659 0.172688 -0.482301
-0.265937 0.172389 -0.481711
-0.267985 0.172239 -0.480701
-0.271244 0.171941 -0.480116
-0.274493 0.171644 -0.479532
-0.276525 0.171496 -0.478528
-0.279756 0.171200 -0.477949
-0.282976 0.170906 -0.477371
-0.284992 0.170759 -0.476373
-0.288195 0.170466 -0.475800
-0.290201 0.170319 -0.474806
-0.292204 0.170173 -0.473814
-0.295384 0.169882 -0.473247
-0.297377 0.169737 -0.472259
-0.299367 0.169592 -0.471272
-0.301353 0.169448 -0.470287
-0.304504 0.169159 -0.469729
-0.306481 0.169015 -0.468747
-0.308454 0.168871 -0.467768
-0.310425 0.168728 -0.466790
-0.313547 0.168442 -0.466240
-0.315508 0.168299 -0.465266
-0.317465 0.168156 -0.464293
-0.320565 0.167872 -0.463749
-0.322513 0.167730 -0.462780
-0.324459 0.167589 -0.461813
-0.327536 0.167307 -0.461275
-0.329472 0.167166 -0.460312
-0.331405 0.167025 -0.459350
-0.334461 0.166745 -0.458818
-0.336385 0.166605 -0.457860
-0.338305 0.166465 -0.456903
-0.340223 0.166326 -0.455948
-0.342137 0.166187 -0.454995
-0.345159 0.165909 -0.454473
-0.347065 0.165770 -0.453523
-0.348967 0.165632 -0.452575
-0.350866 0.165494 -0.451628
-0.353861 0.165219 -0.451114
-0.355751 0.165081 -0.450171
-0.357639 0.164944 -0.449229
-0.359523 0.164807 -0.448289
-0.361403 0.164671 -0.447351
-0.363281 0.164534 -0.446414
-0.365156 0.164398 -0.445479
-0.367027 0.164262 -0.444545
-0.368896 0.164126 -0.443613
-0.370761 0.163991 -0.442683
-0.372624 0.163856 -0.441754
-0.374483 0.163720 -0.440826
-0.376339 0.163586 -0.439900
-0.378192 0.163451 -0.438975
-0.380043 0.163317 -0.438053
-0.381890 0.163182 -0.437131
-0.383734 0.163048 -0.436211
-0.385575 0.162915 -0.435293
-0.387413 0.162781 -0.434376
-0.389248 0.162648 -0.433460
-0.391080 0.162515 -0.432546
-0.392909 0.162382 -0.431634
-0.394735 0.162249 -0.430723
-0.396558 0.162116 -0.429813
-0.398379 0.161984 -0.428905
-0.400196 0.161852 -0.427999
-0.402010 0.161720 -0.427093
-0.403821 0.161589 -0.426190
-0.405630 0.161457 -0.425288
-0.407435 0.161326 -0.424387
-0.409238 0.161195 -0.423488
-0.411038 0.161064 -0.422590
-0.411811 0.161064 -0.421251
-0.412584 0.161064 -0.419911
-0.414380 0.160934 -0.419017
-0.416172 0.160804 -0.418124
-0.416944 0.160804 -0.416787
-0.418733 0.160673 -0.415897
-0.420519 0.160544 -0.415008
-0.422303 0.160414 -0.414121
-0.423073 0.160414 -0.412787
-0.424853 0.160284 -0.411902
-0.426630 0.160155 -0.411019
-0.427399 0.160155 -0.409687
-0.429172 0.160026 -0.408806
-0.430943 0.159897 -0.407926
-0.432710 0.159768 -0.407048
-0.433478 0.159768 -0.405720
-0.434245 0.159768 -0.404391
-0.436008 0.159640 -0.403516
-0.436775 0.159640 -0.402189
-0.438535 0.159512 -0.401317
-0.439301 0.159512 -0.399990
-0.440067 0.159512 -0.398664
-0.441823 0.159384 -0.397795
-0.442588 0.159384 -0.396470
-0.444341 0.159256 -0.395604
-0.445106 0.159256 -0.394279
-0.445870 0.159256 -0.392955
-0.447619 0.159128 -0.392092
-0.448383 0.159128 -0.390769
-0.449147 0.159128 -0.389446
-0.450892 0.159001 -0.388586
-0.451656 0.159001 -0.387264
-0.452419 0.159001 -0.385942
-0.454160 0.158874 -0.385086
-0.454922 0.158874 -0.383765
-0.456660 0.158746 -0.382912
-0.457422 0.158746 -0.381592
-0.458184 0.158746 -0.380271
-0.459918 0.158620 -0.379422
-0.459709 0.158746 -0.377631
-0.461441 0.158620 -0.376783
-0.462202 0.158620 -0.375464
-0.463931 0.158493 -0.374619
-0.462757 0.158746 -0.372351
-0.464487 0.158620 -0.371507
-0.465249 0.158620 -0.370188
-0.466010 0.158620 -0.368869
-0.466772 0.158620 -0.367550
-0.467534 0.158620 -0.366231
-0.468295 0.158620 -0.364912
-0.469057 0.158620 -0.363592
-0.469818 0.158620 -0.362273
-0.470580 0.158620 -0.360954
-0.471341 0.158620 -0.359635
-0.472103 0.158620 -0.358316
-0.472865 0.158620 -0.356997
-0.472666 0.158746 -0.355189
-0.473428 0.158746 -0.353868
-0.474190 0.158746 -0.352548
-0.474952 0.158746 -0.351228
-0.475715 0.158746 -0.349908
-0.475518 0.158874 -0.348092
-0.476281 0.158874 -0.346771
-0.476085 0.159001 -0.344952
-0.476848 0.159001 -0.343630
-0.476652 0.159128 -0.341806
-0.477416 0.159128 -0.340483
-0.477220 0.159256 -0.338656
-0.477985 0.159256 -0.337331
-0.478749 0.159256 -0.336007
-0.478555 0.159384 -0.334174
-0.479320 0.159384 -0.332849
-0.479125 0.159512 -0.331013
-0.478930 0.159640 -0.329173
-0.479697 0.159640 -0.327846
-0.479502 0.159768 -0.326002
-0.480269 0.159768 -0.324674
-0.480075 0.159897 -0.322826
-0.480843 0.159897 -0.321497
-0.480649 0.160026 -0.319645
-0.480455 0.160155 -0.317791
-0.481224 0.160155 -0.316459
-0.481030 0.160284 -0.314601
-0.480835 0.160414 -0.312739
-0.480641 0.160544 -0.310875
-0.481412 0.160544 -0.309540
-0.481218 0.160673 -0.307671
-0.481023 0.160804 -0.305800
-0.481795 0.160804 -0.304462
-0.481601 0.160934 -0.302587
-0.481406 0.161064 -0.300708
-0.481211 0.161195 -0.298826
-0.481016 0.161326 -0.296942
-0.479849 0.161589 -0.294507
-0.479652 0.161720 -0.292614
-0.478480 0.161984 -0.290166
-0.478281 0.162116 -0.288265
-0.477104 0.162382 -0.285804
-0.475923 0.162648 -0.283335
-0.474738 0.162915 -0.280857
-0.473549 0.163182 -0.278372
-0.470374 0.163720 -0.274739
-0.468175 0.164126 -0.271656
-0.464964 0.164671 -0.267979
-0.461731 0.165219 -0.264278
-0.457460 0.165909 -0.259962
-0.389552 0.175279 -0.218553
-0.389259 0.175433 -0.216434
-0.388966 0.175589 -0.214310
-0.389809 0.175589 -0.212851
-0.389516 0.175744 -0.210722
-0.389222 0.175899 -0.208590
-0.388928 0.176055 -0.206454
-0.389773 0.176055 -0.204990
-0.389479 0.176211 -0.202849
-0.389184 0.176368 -0.200705
-0.388889 0.176525 -0.198556
-0.389736 0.176525 -0.197088
-0.389442 0.176682 -0.194935
-0.389146 0.176839 -0.192777
-0.388850 0.176996 -0.190616
-0.388554 0.177154 -0.188450
-0.389404 0.177154 -0.186978
-0.389108 0.177312 -0.184807
-0.388811 0.177471 -0.182633
-0.389663 0.177471 -0.181158
-0.389367 0.177629 -0.178978
-0.389070 0.177788 -0.176795
-0.388772 0.177948 -0.174608
-0.389626 0.177948 -0.173128
-0.389329 0.178107 -0.170936
-0.390184 0.178107 -0.169455
-0.389887 0.178267 -0.167258
-0.389589 0.178427 -0.165056
-0.389291 0.178587 -0.162850
-0.388992 0.178748 -0.160641
-0.388693 0.178909 -0.158427
-0.388394 0.179070 -0.156210
-0.388093 0.179232 -0.153988
-0.387793 0.179394 -0.151763
-0.387491 0.179556 -0.149533
-0.387189 0.179718 -0.147300
-0.385720 0.180044 -0.144317
-0.385415 0.180207 -0.142073
-0.385111 0.180371 -0.139825
-0.384805 0.180534 -0.137572
-0.383325 0.180863 -0.134558
-0.383017 0.181028 -0.132295
-0.382708 0.181193 -0.130028
-0.382399 0.181358 -0.127756
-0.382090 0.181524 -0.125480
-0.381780 0.181690 -0.123200
-0.380284 0.182023 -0.120141
-0.379972 0.182190 -0.117850
-0.379658 0.182357 -0.115555
-0.379345 0.182524 -0.113256
-0.379030 0.182692 -0.110952
-0.377522 0.183029 -0.107853
-0.377205 0.183198 -0.105538
-0.376887 0.183367 -0.103219
-0.375369 0.183706 -0.100095
-0.375049 0.183876 -0.097764
-0.373523 0.184216 -0.094621
-0.373200 0.184387 -0.092279
-0.371667 0.184730 -0.089117
-0.370128 0.185074 -0.085944
-0.369800 0.185247 -0.083583
-0.368253 0.185593 -0.080390
-0.366700 0.185940 -0.077185
-0.366368 0.186114 -0.074805
-0.364808 0.186463 -0.071581
-0.363241 0.186814 -0.068344
-0.362904 0.186990 -0.065945
-0.361330 0.187342 -0.062689
-0.359749 0.187696 -0.059420
-0.358163 0.188051 -0.056140
-0.357819 0.188229 -0.053713
-0.356225 0.188587 -0.050412
-0.354624 0.188945 -0.047099
-0.354275 0.189125 -0.044652
-0.352666 0.189486 -0.041318
-0.351051 0.189847 -0.037972
-0.348160 0.190393 -0.033720
-0.346529 0.190758 -0.030343
-0.344891 0.191125 -0.026953
-0.343247 0.191494 -0.023550
-0.340309 0.192049 -0.019219
-0.337353 0.192607 -0.014864
-0.334380 0.193168 -0.010482
-0.331390 0.193733 -0.006076
-0.328383 0.194301 -0.001643
-0.324033 0.195064 0.003767
-0.319649 0.195833 0.009219
-0.316575 0.196413 0.013745
-0.312131 0.197192 0.019275
-0.307652 0.197978 0.024849
-0.301765 0.198968 0.031465
0.304405 0.228093 -0.486648
0.291922 0.226780 -0.487519
0.279582 0.225483 -0.488380
0.267381 0.224200 -0.489231
0.257504 0.223184 -0.489531
0.247715 0.222177 -0.489828
0.238015 0.221180 -0.490122
0.228400 0.220191 -0.490414
0.220980 0.219455 -0.490170
0.211516 0.218481 -0.490460
0.202135 0.217517 -0.490746
0.194891 0.216798 -0.490505
0.185654 0.215848 -0.490789
0.176498 0.214906 -0.491071
0.167421 0.213973 -0.491350
0.160407 0.213278 -0.491111
0.151467 0.212358 -0.491388
0.144557 0.211673 -0.491150
0.135752 0.210767 -0.491425
0.128943 0.210093 -0.491189
0.120270 0.209200 -0.491461
0.113561 0.208536 -0.491227
0.106893 0.207876 -0.490994
0.098404 0.207002 -0.491265
0.091833 0.206351 -0.491033
0.083467 0.205490 -0.491302
0.076991 0.204849 -0.491072
0.070554 0.204211 -0.490843
0.062363 0.203368 -0.491110
0.056017 0.202740 -0.490883
0.049711 0.202116 -0.490658
0.041688 0.201289 -0.490922
0.035471 0.200674 -0.490698
0.031023 0.200266 -0.489989
0.023148 0.199454 -0.490254
0.017043 0.198850 -0.490034
0.010975 0.198250 -0.489816
0.004943 0.197653 -0.489598
-0.002726 0.196862 -0.489861
-0.010334 0.196078 -0.490122
-0.016237 0.195494 -0.489906
-0.022105 0.194913 -0.489692
-0.029561 0.194144 -0.489951
-0.035350 0.193572 -0.489737
-0.041105 0.193003 -0.489525
-0.046826 0.192437 -0.489315
-0.054092 0.191687 -0.489572
-0.059737 0.191129 -0.489362
-0.065348 0.190574 -0.489154
-0.070928 0.190022 -0.488947
-0.078011 0.189291 -0.489202
-0.083517 0.188747 -0.488997
-0.088991 0.188205 -0.488792
-0.094434 0.187667 -0.488589
-0.101342 0.186954 -0.488842
-0.106714 0.186423 -0.488640
-0.112056 0.185895 -0.488439
-0.117367 0.185369 -0.488239
-0.124105 0.184674 -0.488491
-0.129348 0.184155 -0.488292
-0.134562 0.183640 -0.488094
-0.139747 0.183127 -0.487898
-0.146321 0.182448 -0.488148
-0.151440 0.181942 -0.487952
-0.156530 0.181439 -0.487758
-0.161593 0.180939 -0.487564
-0.168009 0.180276 -0.487813
-0.174378 0.179618 -0.488059
-0.179342 0.179127 -0.487867
-0.184279 0.178639 -0.487676
-0.189189 0.178154 -0.487486
-0.195407 0.177511 -0.487730
-0.200256 0.177032 -0.487541
-0.205079 0.176556 -0.487353
-0.209877 0.176082 -0.487166
-0.214649 0.175610 -0.486980
-0.219395 0.175141 -0.486795
-0.224116 0.174675 -0.486611
-0.228812 0.174211 -0.486428
-0.233483 0.173749 -0.486246
-0.236864 0.173443 -0.485639
-0.241494 0.172986 -0.485460
-0.246099 0.172531 -0.485282
-0.249434 0.172228 -0.484682
-0.252758 0.171927 -0.484083
-0.257306 0.171478 -0.483910
-0.259370 0.171329 -0.482893
-0.262659 0.171031 -0.482301
-0.267158 0.170586 -0.482133
-0.269203 0.170438 -0.481123
-0.271244 0.170290 -0.480116
-0.274493 0.169996 -0.479532
-0.277731 0.169703 -0.478950
-0.279756 0.169557 -0.477949
-0.282976 0.169265 -0.477371
-0.284992 0.169119 -0.476373
-0.288195 0.168829 -0.475800
-0.291387 0.168540 -0.475229
-0.293387 0.168395 -0.474237
-0.295384 0.168251 -0.473247
-0.297377 0.168108 -0.472259
-0.299367 0.167964 -0.471272
-0.302523 0.167678 -0.470711
-0.304504 0.167535 -0.469729
-0.306481 0.167392 -0.468747
-0.309615 0.167108 -0.468193
-0.311582 0.166966 -0.467216
-0.313547 0.166825 -0.466240
-0.315508 0.166683 -0.465266
-0.317465 0.166542 -0.464293
-0.321708 0.166120 -0.464175
-0.323654 0.165980 -0.463207
-0.325597 0.165840 -0.462240
-0.327536 0.165700 -0.461275
-0.329472 0.165561 -0.460312
-0.331405 0.165422 -0.459350
-0.334461 0.165144 -0.458818
-0.336385 0.165005 -0.457860
-0.339424 0.164729 -0.457331
-0.341339 0.164591 -0.456377
-0.343251 0.164453 -0.455424
-0.345159 0.164316 -0.454473
-0.347065 0.164179 -0.453523
-0.350071 0.163905 -0.453004
-0.351968 0.163769 -0.452058
-0.353861 0.163632 -0.451114
-0.355751 0.163496 -0.450171
-0.357639 0.163361 -0.449229
-0.360613 0.163090 -0.448720
-0.362491 0.162955 -0.447782
-0.364367 0.162820 -0.446846
-0.366239 0.162685 -0.445911
-0.368108 0.162551 -0.444978
-0.369974 0.162416 -0.444046
-0.371837 0.162282 -0.443116
-0.373697 0.162148 -0.442187
-0.375554 0.162015 -0.441260
-0.377408 0.161882 -0.440335
-0.379259 0.161748 -0.439411
-0.381106 0.161615 -0.438488
-0.382951 0.161483 -0.437567
-0.384793 0.161350 -0.436647
-0.386631 0.161218 -0.435729
-0.388467 0.161086 -0.434813
-0.390300 0.160954 -0.433898
-0.392130 0.160822 -0.432984
-0.393956 0.160691 -0.432072
-0.395780 0.160560 -0.431161
-0.397601 0.160429 -0.430252
-0.399419 0.160298 -0.429344
-0.401234 0.160168 -0.428438
-0.403046 0.160037 -0.427534
-0.404855 0.159907 -0.426630
-0.406661 0.159777 -0.425729
-0.408464 0.159647 -0.424828
-0.409238 0.159647 -0.423488
-0.411038 0.159518 -0.422590
-0.411811 0.159518 -0.421251
-0.413607 0.159389 -0.420355
-0.415400 0.159260 -0.419462
-0.416172 0.159260 -0.418124
-0.417962 0.159131 -0.417233
-0.419749 0.159002 -0.416343
-0.420519 0.159002 -0.415008
-0.422303 0.158874 -0.414121
-0.424083 0.158745 -0.413235
-0.425861 0.158617 -0.412350
-0.426630 0.158617 -0.411019
-0.428404 0.158489 -0.410137
-0.430175 0.158362 -0.409256
-0.430943 0.158362 -0.407926
-0.433709 0.158107 -0.407499
-0.434475 0.158107 -0.406172
-0.435242 0.158107 -0.404844
-0.437003 0.157980 -0.403970
-0.437769 0.157980 -0.402643
-0.438535 0.157980 -0.401317
-0.440293 0.157853 -0.400446
-0.441058 0.157853 -0.399121
-0.442812 0.157727 -0.398252
-0.443577 0.157727 -0.396928
-0.444341 0.157727 -0.395604
-0.446091 0.157600 -0.394739
-0.446855 0.157600 -0.393416
-0.447619 0.157600 -0.392092
-0.449365 0.157474 -0.391231
-0.450129 0.157474 -0.389909
-0.451871 0.157348 -0.389050
-0.452634 0.157348 -0.387729
-0.453397 0.157348 -0.386407
-0.455135 0.157222 -0.385552
-0.455898 0.157222 -0.384232
-0.456660 0.157222 -0.382912
-0.458395 0.157096 -0.382060
-0.459156 0.157096 -0.380741
-0.460887 0.156971 -0.379891
-0.460679 0.157096 -0.378103
-0.461441 0.157096 -0.376783
-0.463170 0.156971 -0.375937
-0.463931 0.156971 -0.374619
-0.464692 0.156971 -0.373301
-0.465453 0.156971 -0.371983
-0.466214 0.156971 -0.370665
-0.466975 0.156971 -0.369347
-0.467736 0.156971 -0.368029
-0.468497 0.156971 -0.366711
-0.469258 0.156971 -0.365393
-0.470019 0.156971 -0.364075
-0.470780 0.156971 -0.362757
-0.471541 0.156971 -0.361439
-0.472302 0.156971 -0.360121
-0.473063 0.156971 -0.358802
-0.473824 0.156971 -0.357484
-0.473626 0.157096 -0.355678
-0.474388 0.157096 -0.354359
-0.475149 0.157096 -0.353040
-0.475911 0.157096 -0.351721
-0.476673 0.157096 -0.350401
-0.476477 0.157222 -0.348588
-0.477239 0.157222 -0.347268
-0.477044 0.157348 -0.345450
-0.477806 0.157348 -0.344129
-0.478569 0.157348 -0.342808
-0.478375 0.157474 -0.340985
-0.479138 0.157474 -0.339663
-0.478944 0.157600 -0.337836
-0.479708 0.157600 -0.336513
-0.479514 0.157727 -0.334682
-0.479320 0.157853 -0.332849
-0.480085 0.157853 -0.331524
-0.479891 0.157980 -0.329686
-0.480657 0.157980 -0.328360
-0.480463 0.158107 -0.326518
-0.481230 0.158107 -0.325191
-0.481036 0.158234 -0.323345
-0.481804 0.158234 -0.322016
-0.481611 0.158362 -0.320167
-0.481417 0.158489 -0.318314
-0.482186 0.158489 -0.316984
-0.481993 0.158617 -0.315127
-0.481799 0.158745 -0.313268
-0.481606 0.158874 -0.311405
-0.482376 0.158874 -0.310071
-0.482183 0.159002 -0.308205
-0.481989 0.159131 -0.306335
-0.481795 0.159260 -0.304462
-0.482567 0.159260 -0.303125
-0.482373 0.159389 -0.301248
-0.482179 0.159518 -0.299369
-0.481985 0.159647 -0.297486
-0.481791 0.159777 -0.295600
-0.480625 0.160037 -0.293163
-0.480428 0.160168 -0.291269
-0.479258 0.160429 -0.288819
-0.478083 0.160691 -0.286361
-0.477884 0.160822 -0.284453
-0.476704 0.161086 -0.281982
-0.475520 0.161350 -0.279503
-0.473345 0.161748 -0.276447
-0.471160 0.162148 -0.273377
-0.467966 0.162685 -0.269715
-0.465754 0.163090 -0.266610
-0.462524 0.163632 -0.262904
-0.458257 0.164316 -0.258582
-0.390394 0.173596 -0.217096
-0.390101 0.173749 -0.214975
-0.389809 0.173903 -0.212851
-0.389516 0.174057 -0.210722
-0.390359 0.174057 -0.209261
-0.390066 0.174211 -0.207128
-0.389773 0.174365 -0.204990
-0.389479 0.174520 -0.202849
-0.390324 0.174520 -0.201384
-0.390031 0.174675 -0.199238
-0.389736 0.174830 -0.197088
-0.389442 0.174986 -0.194935
-0.390290 0.174986 -0.193466
-0.389995 0.175141 -0.191307
-0.389700 0.175297 -0.189144
-0.389404 0.175454 -0.186978
-0.390254 0.175454 -0.185505
-0.389959 0.175610 -0.183333
-0.389663 0.175767 -0.181158
-0.389367 0.175924 -0.178978
-0.390219 0.175924 -0.177502
-0.391072 0.175924 -0.176025
-0.390776 0.176082 -0.173839
-0.390480 0.176239 -0.171649
-0.390184 0.176397 -0.169455
-0.389887 0.176556 -0.167258
-0.390742 0.176556 -0.165776
-0.390446 0.176714 -0.163573
-0.388992 0.177032 -0.160641
-0.389850 0.177032 -0.159155
-0.389552 0.177192 -0.156940
-0.389253 0.177351 -0.154721
-0.387793 0.177672 -0.151763
-0.387491 0.177832 -0.149533
-0.387189 0.177993 -0.147300
-0.386887 0.178154 -0.145062
-0.386584 0.178316 -0.142821
-0.386280 0.178477 -0.140575
-0.385976 0.178639 -0.138325
-0.385672 0.178802 -0.136071
-0.384193 0.179127 -0.133055
-0.383886 0.179290 -0.130790
-0.383578 0.179454 -0.128521
-0.383270 0.179618 -0.126249
-0.382961 0.179782 -0.123971
-0.382652 0.179946 -0.121690
-0.381158 0.180276 -0.118628
-0.380846 0.180441 -0.116336
-0.380534 0.180607 -0.114039
-0.379030 0.180939 -0.110952
-0.378715 0.181105 -0.108644
-0.378400 0.181272 -0.106332
-0.378084 0.181439 -0.104016
-0.376569 0.181774 -0.100896
-0.376251 0.181942 -0.098568
-0.374728 0.182279 -0.095429
-0.374407 0.182448 -0.093090
-0.372877 0.182787 -0.089933
-0.371342 0.183127 -0.086764
-0.371016 0.183298 -0.084405
-0.369472 0.183640 -0.081217
-0.367923 0.183983 -0.078017
-0.367593 0.184155 -0.075640
-0.366036 0.184501 -0.072420
-0.364473 0.184847 -0.069188
-0.364138 0.185021 -0.066792
-0.362567 0.185369 -0.063540
-0.360990 0.185719 -0.060277
-0.360650 0.185895 -0.057860
-0.359065 0.186246 -0.054577
-0.357475 0.186600 -0.051281
-0.355878 0.186954 -0.047973
-0.355531 0.187132 -0.045528
-0.353926 0.187488 -0.042200
-0.352314 0.187846 -0.038858
-0.350697 0.188205 -0.035504
-0.349074 0.188566 -0.032137
-0.347444 0.188928 -0.028757
-0.344529 0.189473 -0.024458
-0.342883 0.189839 -0.021047
-0.339940 0.190389 -0.016705
-0.336981 0.190943 -0.012338
-0.335307 0.191315 -0.008877
-0.332320 0.191874 -0.004466
-0.327998 0.192625 0.000918
-0.323643 0.193382 0.006343
-0.319254 0.194144 0.011811
-0.314829 0.194913 0.017322
-0.311725 0.195494 0.021895
-0.305875 0.196469 0.028476
-0.284631 0.199657 0.046300
0.302118 0.225622 -0.487205
0.289662 0.224325 -0.488072
0.279582 0.223299 -0.488380
0.267381 0.222028 -0.489231
0.257504 0.221022 -0.489531
0.245551 0.219777 -0.490367
0.238015 0.219037 -0.490122
0.228400 0.218058 -0.490414
0.218872 0.217087 -0.490703
0.211516 0.216365 -0.490460
0.202135 0.215410 -0.490746
0.194891 0.214698 -0.490505
0.185654 0.213757 -0.490789
0.176498 0.212825 -0.491071
0.167421 0.211900 -0.491350
0.158423 0.210983 -0.491627
0.151467 0.210301 -0.491388
0.142605 0.209398 -0.491663
0.135752 0.208726 -0.491425
0.128943 0.208058 -0.491189
0.120270 0.207174 -0.491461
0.113561 0.206516 -0.491227
0.105016 0.205645 -0.491497
0.098404 0.204996 -0.491265
0.091833 0.204352 -0.491033
0.083467 0.203499 -0.491302
0.076991 0.202864 -0.491072
0.070554 0.202233 -0.490843
0.062363 0.201398 -0.491110
0.056017 0.200776 -0.490883
0.049711 0.200158 -0.490658
0.041688 0.199339 -0.490922
0.037215 0.198932 -0.490211
0.031023 0.198325 -0.489989
0.023148 0.197522 -0.490254
0.017043 0.196924 -0.490034
0.010975 0.196329 -0.489816
0.003259 0.195541 -0.490078
-0.002726 0.194955 -0.489861
-0.010334 0.194178 -0.490122
-0.016237 0.193600 -0.489906
-0.023738 0.192834 -0.490165
-0.029561 0.192263 -0.489951
-0.035350 0.191696 -0.489737
-0.041105 0.191133 -0.489525
-0.046826 0.190572 -0.489315
-0.054092 0.189830 -0.489572
-0.059737 0.189277 -0.489362
-0.065348 0.188727 -0.489154
-0.070928 0.188181 -0.488947
-0.078011 0.187457 -0.489202
-0.083517 0.186918 -0.488997
-0.088991 0.186382 -0.488792
-0.095939 0.185671 -0.489046
-0.101342 0.185142 -0.488842
-0.106714 0.184616 -0.488640
-0.112056 0.184093 -0.488439
-0.118832 0.183400 -0.488691
-0.124105 0.182884 -0.488491
-0.129348 0.182371 -0.488292
-0.134562 0.181860 -0.488094
-0.139747 0.181353 -0.487898
-0.146321 0.180680 -0.488148
-0.151440 0.180179 -0.487952
-0.156530 0.179681 -0.487758
-0.161593 0.179185 -0.487564
-0.168009 0.178529 -0.487813
-0.174378 0.177877 -0.488059
-0.179342 0.177391 -0.487867
-0.184279 0.176908 -0.487676
-0.190532 0.176268 -0.487920
-0.195407 0.175791 -0.487730
-0.200256 0.175316 -0.487541
-0.205079 0.174845 -0.487353
-0.209877 0.174375 -0.487166
-0.214649 0.173908 -0.486980
-0.219395 0.173444 -0.486795
-0.224116 0.172982 -0.486611
-0.228812 0.172522 -0.486428
-0.233483 0.172065 -0.486246
-0.238130 0.171611 -0.486064
-0.241494 0.171309 -0.485460
-0.246099 0.170858 -0.485282
-0.249434 0.170559 -0.484682
-0.252758 0.170261 -0.484083
-0.257306 0.169816 -0.483910
-0.260601 0.169520 -0.483315
-0.263885 0.169226 -0.482723
-0.267158 0.168932 -0.482133
-0.269203 0.168786 -0.481123
-0.272458 0.168494 -0.480538
-0.274493 0.168348 -0.479532
-0.277731 0.168058 -0.478950
-0.280957 0.167768 -0.478371
-0.282976 0.167624 -0.477371
-0.286185 0.167336 -0.476796
-0.288195 0.167193 -0.475800
-0.291387 0.166906 -0.475229
-0.294568 0.166621 -0.474660
-0.296562 0.166478 -0.473670
-0.298552 0.166336 -0.472682
-0.300540 0.166194 -0.471696
-0.302523 0.166052 -0.470711
-0.304504 0.165911 -0.469729
-0.307644 0.165629 -0.469172
-0.309615 0.165488 -0.468193
-0.311582 0.165348 -0.467216
-0.313547 0.165207 -0.466240
-0.316658 0.164928 -0.465691
-0.319759 0.164649 -0.465145
-0.321708 0.164510 -0.464175
-0.323654 0.164371 -0.463207
-0.325597 0.164232 -0.462240
-0.328670 0.163956 -0.461702
-0.330603 0.163818 -0.460739
-0.332534 0.163680 -0.459777
-0.335585 0.163406 -0.459245
-0.337506 0.163269 -0.458287
-0.339424 0.163132 -0.457331
-0.341339 0.162995 -0.456377
-0.343251 0.162859 -0.455424
-0.346269 0.162587 -0.454901
-0.348172 0.162452 -0.453952
-0.350071 0.162316 -0.453004
-0.351968 0.162181 -0.452058
-0.354959 0.161911 -0.451543
-0.356847 0.161777 -0.450601
-0.358731 0.161643 -0.449660
-0.360613 0.161509 -0.448720
-0.361403 0.161509 -0.447351
-0.364367 0.161241 -0.446846
-0.366239 0.161108 -0.445911
-0.368108 0.160975 -0.444978
-0.369974 0.160842 -0.444046
-0.371837 0.160709 -0.443116
-0.373697 0.160576 -0.442187
-0.375554 0.160444 -0.441260
-0.377408 0.160312 -0.440335
-0.379259 0.160180 -0.439411
-0.381106 0.160049 -0.438488
-0.382951 0.159917 -0.437567
-0.384793 0.159786 -0.436647
-0.386631 0.159655 -0.435729
-0.388467 0.159524 -0.434813
-0.390300 0.159394 -0.433898
-0.392130 0.159263 -0.432984
-0.393956 0.159133 -0.432072
-0.395780 0.159003 -0.431161
-0.397601 0.158874 -0.430252
-0.399419 0.158744 -0.429344
-0.401234 0.158615 -0.428438
-0.403046 0.158486 -0.427534
-0.404855 0.158357 -0.426630
-0.406661 0.158228 -0.425729
-0.408464 0.158100 -0.424828
-0.410264 0.157971 -0.423929
-0.412062 0.157843 -0.423032
-0.412834 0.157843 -0.421694
-0.414628 0.157715 -0.420799
-0.416419 0.157588 -0.419905
-0.417190 0.157588 -0.418569
-0.418978 0.157460 -0.417678
-0.420762 0.157333 -0.416789
-0.421533 0.157333 -0.415455
-0.423314 0.157206 -0.414568
-0.425092 0.157079 -0.413682
-0.425861 0.157079 -0.412350
-0.427635 0.156953 -0.411467
-0.429407 0.156826 -0.410586
-0.431176 0.156700 -0.409705
-0.431943 0.156700 -0.408377
-0.433709 0.156574 -0.407499
-0.435472 0.156448 -0.406623
-0.436238 0.156448 -0.405296
-0.437003 0.156448 -0.403970
-0.438762 0.156323 -0.403097
-0.439527 0.156323 -0.401771
-0.441283 0.156197 -0.400901
-0.442047 0.156197 -0.399577
-0.442812 0.156197 -0.398252
-0.444563 0.156072 -0.397386
-0.445327 0.156072 -0.396062
-0.447075 0.155947 -0.395198
-0.447838 0.155947 -0.393876
-0.448602 0.155947 -0.392553
-0.450346 0.155822 -0.391692
-0.451108 0.155822 -0.390371
-0.451871 0.155822 -0.389050
-0.453611 0.155698 -0.388192
-0.454373 0.155698 -0.386872
-0.455135 0.155698 -0.385552
-0.456871 0.155573 -0.384698
-0.457633 0.155573 -0.383379
-0.459365 0.155449 -0.382527
-0.460126 0.155449 -0.381209
-0.460887 0.155449 -0.379891
-0.461648 0.155449 -0.378573
-0.462409 0.155449 -0.377255
-0.464137 0.155325 -0.376409
-0.464897 0.155325 -0.375092
-0.465657 0.155325 -0.373775
-0.466418 0.155325 -0.372458
-0.467178 0.155325 -0.371141
-0.467939 0.155325 -0.369824
-0.468699 0.155325 -0.368507
-0.469459 0.155325 -0.367190
-0.470220 0.155325 -0.365873
-0.470980 0.155325 -0.364556
-0.471740 0.155325 -0.363239
-0.472501 0.155325 -0.361922
-0.473261 0.155325 -0.360605
-0.474021 0.155325 -0.359288
-0.474782 0.155325 -0.357971
-0.474585 0.155449 -0.356166
-0.475346 0.155449 -0.354848
-0.476107 0.155449 -0.353530
-0.476868 0.155449 -0.352212
-0.477629 0.155449 -0.350894
-0.477434 0.155573 -0.349082
-0.478196 0.155573 -0.347763
-0.478957 0.155573 -0.346444
-0.478763 0.155698 -0.344627
-0.479526 0.155698 -0.343307
-0.479332 0.155822 -0.341486
-0.480095 0.155822 -0.340165
-0.479902 0.155947 -0.338341
-0.479708 0.156072 -0.336513
-0.480472 0.156072 -0.335190
-0.480279 0.156197 -0.333358
-0.481043 0.156197 -0.332034
-0.480850 0.156323 -0.330198
-0.481616 0.156323 -0.328873
-0.481423 0.156448 -0.327033
-0.482189 0.156448 -0.325707
-0.481996 0.156574 -0.323863
-0.481804 0.156700 -0.322016
-0.482571 0.156700 -0.320688
-0.482378 0.156826 -0.318837
-0.482186 0.156953 -0.316984
-0.482954 0.156953 -0.315653
-0.482762 0.157079 -0.313795
-0.482569 0.157206 -0.311935
-0.482376 0.157333 -0.310071
-0.483146 0.157333 -0.308737
-0.482953 0.157460 -0.306870
-0.482760 0.157588 -0.304999
-0.483532 0.157588 -0.303663
-0.483339 0.157715 -0.301788
-0.483146 0.157843 -0.299910
-0.482953 0.157971 -0.298029
-0.482759 0.158100 -0.296145
-0.482565 0.158228 -0.294258
-0.481400 0.158486 -0.291819
-0.480232 0.158744 -0.289372
-0.480035 0.158874 -0.287472
-0.478862 0.159133 -0.285011
-0.478663 0.159263 -0.283103
-0.477485 0.159524 -0.280630
-0.476302 0.159786 -0.278148
-0.474129 0.160180 -0.275089
-0.470953 0.160709 -0.271442
-0.467756 0.161241 -0.267770
-0.465542 0.161643 -0.264658
-0.462308 0.162181 -0.260943
-0.390394 0.171914 -0.217096
-0.391235 0.171914 -0.215639
-0.390943 0.172065 -0.213517
-0.390651 0.172217 -0.211391
-0.390359 0.172370 -0.209261
-0.391203 0.172370 -0.207800
-0.390910 0.172522 -0.205665
-0.390618 0.172675 -0.203527
-0.390324 0.172828 -0.201384
-0.391170 0.172828 -0.199920
-0.390877 0.172982 -0.197772
-0.390584 0.173136 -0.195621
-0.390290 0.173290 -0.193466
-0.389995 0.173444 -0.191307
-0.390844 0.173444 -0.189837
-0.390549 0.173598 -0.187673
-0.390254 0.173753 -0.185505
-0.391105 0.173753 -0.184032
-0.390810 0.173908 -0.181859
-0.390515 0.174064 -0.179682
-0.391367 0.174064 -0.178207
-0.391072 0.174219 -0.176025
-0.390776 0.174375 -0.173839
-0.391630 0.174375 -0.172361
-0.391334 0.174531 -0.170170
-0.391039 0.174688 -0.167975
-0.390742 0.174845 -0.165776
-0.390446 0.175002 -0.163573
-0.390148 0.175159 -0.161366
-0.389850 0.175316 -0.159155
-0.389552 0.175474 -0.156940
-0.389253 0.175632 -0.154721
-0.388953 0.175791 -0.152498
-0.388653 0.175950 -0.150272
-0.388353 0.176109 -0.148041
-0.388052 0.176268 -0.145806
-0.387750 0.176428 -0.143567
-0.387448 0.176587 -0.141324
-0.387145 0.176748 -0.139077
-0.386842 0.176908 -0.136826
-0.385366 0.177230 -0.133814
-0.385061 0.177391 -0.131552
-0.384754 0.177553 -0.129285
-0.384448 0.177715 -0.127015
-0.384140 0.177877 -0.124741
-0.383832 0.178039 -0.122462
-0.383524 0.178202 -0.120180
-0.382031 0.178529 -0.117115
-0.381720 0.178692 -0.114821
-0.380221 0.179021 -0.111738
-0.379907 0.179185 -0.109433
-0.379593 0.179350 -0.107124
-0.379278 0.179515 -0.104811
-0.378963 0.179681 -0.102493
-0.377450 0.180013 -0.099370
-0.375931 0.180346 -0.096236
-0.375612 0.180513 -0.093900
-0.374085 0.180848 -0.090747
-0.372553 0.181184 -0.087582
-0.372229 0.181353 -0.085227
-0.370689 0.181691 -0.082043
-0.369144 0.182030 -0.078847
-0.368815 0.182200 -0.076473
-0.367262 0.182542 -0.073258
-0.365703 0.182884 -0.070031
-0.365369 0.183056 -0.067637
-0.363802 0.183400 -0.064390
-0.362229 0.183746 -0.061132
-0.361890 0.183920 -0.058718
-0.360309 0.184267 -0.055439
-0.358722 0.184616 -0.052148
-0.358379 0.184791 -0.049715
-0.356784 0.185142 -0.046404
-0.355183 0.185495 -0.043080
-0.353575 0.185848 -0.039743
-0.353225 0.186026 -0.037282
-0.351609 0.186382 -0.033925
-0.348717 0.186918 -0.029657
-0.347085 0.187277 -0.026269
-0.344166 0.187818 -0.021959
-0.342518 0.188181 -0.018540
-0.340863 0.188545 -0.015107
-0.337906 0.189093 -0.010736
-0.334932 0.189645 -0.006338
-0.330629 0.190386 -0.000973
-0.326293 0.191133 0.004435
-0.323252 0.191696 0.008924
-0.318857 0.192453 0.014408
-0.314427 0.193216 0.019935
-0.309961 0.193985 0.025506
-0.305460 0.194760 0.031121
0.302118 0.223416 -0.487205
0.289662 0.222132 -0.488072
0.279582 0.221115 -0.488380
0.267381 0.219857 -0.489231
0.255318 0.218613 -0.490073
0.245551 0.217628 -0.490367
0.238015 0.216895 -0.490122
0.228400 0.215925 -0.490414
0.218872 0.214964 -0.490703
0.211516 0.214249 -0.490460
0.202135 0.213303 -0.490746
0.192836 0.212365 -0.491030
0.185654 0.211667 -0.490789
0.174481 0.210513 -0.491591
0.167421 0.209827 -0.491350
0.158423 0.208919 -0.491627
0.151467 0.208244 -0.491388
0.142605 0.207350 -0.491663
0.135752 0.206684 -0.491425
0.128943 0.206023 -0.491189
0.120270 0.205147 -0.491461
0.113561 0.204496 -0.491227
0.105016 0.203633 -0.491497
0.098404 0.202991 -0.491265
0.091833 0.202353 -0.491033
0.083467 0.201508 -0.491302
0.076991 0.200880 -0.491072
0.068747 0.200047 -0.491338
0.062363 0.199428 -0.491110
0.056017 0.198812 -0.490883
0.047944 0.197996 -0.491147
0.041688 0.197389 -0.490922
0.037215 0.196986 -0.490211
0.029291 0.196186 -0.490475
0.023148 0.195590 -0.490254
0.017043 0.194997 -0.490034
0.010975 0.194408 -0.489816
0.003259 0.193628 -0.490078
-0.002726 0.193047 -0.489861
-0.010334 0.192278 -0.490122
-0.016237 0.191706 -0.489906
-0.023738 0.190947 -0.490165
-0.029561 0.190382 -0.489951
-0.035350 0.189821 -0.489737
-0.041105 0.189262 -0.489525
-0.048415 0.188523 -0.489782
-0.054092 0.187972 -0.489572
-0.059737 0.187425 -0.489362
-0.065348 0.186881 -0.489154
-0.072474 0.186160 -0.489409
-0.078011 0.185623 -0.489202
-0.083517 0.185089 -0.488997
-0.088991 0.184558 -0.488792
-0.095939 0.183855 -0.489046
-0.101342 0.183331 -0.488842
-0.106714 0.182810 -0.488640
-0.112056 0.182292 -0.488439
-0.118832 0.181606 -0.488691
-0.124105 0.181095 -0.488491
-0.129348 0.180586 -0.488292
-0.134562 0.180081 -0.488094
-0.141173 0.179411 -0.488344
-0.146321 0.178912 -0.488148
-0.151440 0.178416 -0.487952
-0.156530 0.177922 -0.487758
-0.162983 0.177269 -0.488006
-0.168009 0.176782 -0.487813
-0.174378 0.176136 -0.488059
-0.179342 0.175655 -0.487867
-0.184279 0.175177 -0.487676
-0.190532 0.174543 -0.487920
-0.195407 0.174070 -0.487730
-0.200256 0.173601 -0.487541
-0.205079 0.173133 -0.487353
-0.209877 0.172669 -0.487166
-0.214649 0.172206 -0.486980
-0.219395 0.171746 -0.486795
-0.225402 0.171137 -0.487038
-0.230091 0.170683 -0.486854
-0.233483 0.170381 -0.486246
-0.238130 0.169931 -0.486064
-0.241494 0.169632 -0.485460
-0.246099 0.169186 -0.485282
-0.249434 0.168890 -0.484682
-0.253999 0.168447 -0.484506
-0.257306 0.168154 -0.483910
-0.260601 0.167861 -0.483315
-0.263885 0.167569 -0.482723
-0.267158 0.167279 -0.482133
-0.270419 0.166989 -0.481545
-0.272458 0.166845 -0.480538
-0.274493 0.166701 -0.479532
-0.277731 0.166413 -0.478950
-0.280957 0.166126 -0.478371
-0.284172 0.165841 -0.477793
-0.286185 0.165698 -0.476796
-0.289384 0.165414 -0.476222
-0.291387 0.165272 -0.475229
-0.294568 0.164990 -0.474660
-0.296562 0.164849 -0.473670
-0.298552 0.164708 -0.472682
-0.300540 0.164567 -0.471696
-0.303692 0.164287 -0.471135
-0.305669 0.164147 -0.470153
-0.307644 0.164008 -0.469172
-0.309615 0.163868 -0.468193
-0.312738 0.163590 -0.467640
-0.314700 0.163452 -0.466665
-0.316658 0.163313 -0.465691
-0.319759 0.163037 -0.465145
-0.322850 0.162762 -0.464600
-0.324793 0.162625 -0.463632
-0.326733 0.162488 -0.462666
-0.328670 0.162351 -0.461702
-0.330603 0.162214 -0.460739
-0.332534 0.162078 -0.459777
-0.335585 0.161806 -0.459245
-0.337506 0.161670 -0.458287
-0.339424 0.161535 -0.457331
-0.342454 0.161265 -0.456805
-0.344363 0.161130 -0.455852
-0.346269 0.160996 -0.454901
-0.348172 0.160861 -0.453952
-0.351174 0.160593 -0.453433
-0.353068 0.160460 -0.452487
-0.354959 0.160326 -0.451543
-0.356847 0.160193 -0.450601
-0.358731 0.160060 -0.449660
-0.361701 0.159795 -0.449151
-0.362491 0.159795 -0.447782
-0.364367 0.159663 -0.446846
-0.367320 0.159399 -0.446343
-0.369187 0.159267 -0.445410
-0.371050 0.159136 -0.444479
-0.372911 0.159005 -0.443549
-0.374769 0.158874 -0.442621
-0.376623 0.158743 -0.441694
-0.378475 0.158612 -0.440769
-0.380323 0.158482 -0.439845
-0.382168 0.158352 -0.438923
-0.384011 0.158222 -0.438002
-0.385850 0.158092 -0.437083
-0.387686 0.157963 -0.436165
-0.389520 0.157833 -0.435249
-0.391350 0.157704 -0.434334
-0.393178 0.157575 -0.433421
-0.395002 0.157447 -0.432509
-0.396823 0.157318 -0.431599
-0.398642 0.157190 -0.430690
-0.400457 0.157062 -0.429783
-0.402270 0.156934 -0.428877
-0.404080 0.156806 -0.427973
-0.405886 0.156679 -0.427070
-0.407690 0.156552 -0.426169
-0.409491 0.156425 -0.425269
-0.411289 0.156298 -0.424370
-0.412062 0.156298 -0.423032
-0.413856 0.156171 -0.422136
-0.415648 0.156045 -0.421241
-0.416419 0.156045 -0.419905
-0.418207 0.155919 -0.419013
-0.419992 0.155793 -0.418123
-0.420762 0.155793 -0.416789
-0.422544 0.155667 -0.415901
-0.424323 0.155541 -0.415014
-0.426099 0.155416 -0.414129
-0.426867 0.155416 -0.412798
-0.428640 0.155291 -0.411915
-0.430409 0.155166 -0.411034
-0.431176 0.155166 -0.409705
-0.432942 0.155041 -0.408827
-0.434706 0.154917 -0.407949
-0.436466 0.154792 -0.407073
-0.437232 0.154792 -0.405748
-0.437997 0.154792 -0.404422
-0.439753 0.154668 -0.403550
-0.440518 0.154668 -0.402225
-0.441283 0.154668 -0.400901
-0.443035 0.154544 -0.400032
-0.443799 0.154544 -0.398709
-0.445548 0.154420 -0.397842
-0.446312 0.154420 -0.396520
-0.447075 0.154420 -0.395198
-0.448820 0.154297 -0.394335
-0.449583 0.154297 -0.393013
-0.450346 0.154297 -0.391692
-0.452087 0.154173 -0.390833
-0.452849 0.154173 -0.389513
-0.454587 0.154050 -0.388655
-0.455348 0.154050 -0.387336
-0.456110 0.154050 -0.386017
-0.457843 0.153927 -0.385163
-0.458604 0.153927 -0.383845
-0.459365 0.153927 -0.382527
-0.461095 0.153804 -0.381677
-0.461856 0.153804 -0.380360
-0.462616 0.153804 -0.379043
-0.463376 0.153804 -0.377726
-0.464137 0.153804 -0.376409
-0.465861 0.153682 -0.375564
-0.466621 0.153682 -0.374249
-0.467381 0.153682 -0.372933
-0.468141 0.153682 -0.371617
-0.468900 0.153682 -0.370301
-0.469660 0.153682 -0.368985
-0.470420 0.153682 -0.367669
-0.471180 0.153682 -0.366353
-0.471939 0.153682 -0.365037
-0.472699 0.153682 -0.363721
-0.473459 0.153682 -0.362405
-0.474219 0.153682 -0.361089
-0.474979 0.153682 -0.359773
-0.475738 0.153682 -0.358457
-0.476498 0.153682 -0.357141
-0.477258 0.153682 -0.355825
-0.478018 0.153682 -0.354509
-0.478777 0.153682 -0.353193
-0.479537 0.153682 -0.351877
-0.479344 0.153804 -0.350069
-0.479151 0.153927 -0.348258
-0.479912 0.153927 -0.346940
-0.479719 0.154050 -0.345125
-0.480480 0.154050 -0.343806
-0.480288 0.154173 -0.341987
-0.481050 0.154173 -0.340667
-0.480858 0.154297 -0.338844
-0.480665 0.154420 -0.337018
-0.481428 0.154420 -0.335696
-0.481236 0.154544 -0.333866
-0.482000 0.154544 -0.332543
-0.481808 0.154668 -0.330709
-0.482572 0.154668 -0.329385
-0.482381 0.154792 -0.327547
-0.483146 0.154792 -0.326222
-0.482955 0.154917 -0.324380
-0.482763 0.155041 -0.322535
-0.483529 0.155041 -0.321208
-0.483338 0.155166 -0.319359
-0.483146 0.155291 -0.317508
-0.482954 0.155416 -0.315653
-0.483722 0.155416 -0.314322
-0.483530 0.155541 -0.312464
-0.483338 0.155667 -0.310602
-0.483146 0.155793 -0.308737
-0.483916 0.155793 -0.307403
-0.483724 0.155919 -0.305535
-0.483532 0.156045 -0.303663
-0.484303 0.156045 -0.302327
-0.484111 0.156171 -0.300451
-0.483919 0.156298 -0.298572
-0.483726 0.156425 -0.296690
-0.483533 0.156552 -0.294805
-0.482371 0.156806 -0.292369
-0.482176 0.156934 -0.290475
-0.481009 0.157190 -0.288026
-0.480813 0.157318 -0.286125
-0.479641 0.157575 -0.283662
-0.478465 0.157833 -0.281192
-0.478266 0.157963 -0.279277
-0.476101 0.158352 -0.276226
-0.473926 0.158743 -0.273160
-0.470746 0.159267 -0.269504
-0.468545 0.159663 -0.266403
-0.466333 0.160060 -0.263288
-0.463102 0.160593 -0.259568
-0.391235 0.170231 -0.215639
-0.390943 0.170381 -0.213517
-0.391785 0.170381 -0.212058
-0.391494 0.170532 -0.209931
-0.391203 0.170683 -0.207800
-0.390910 0.170834 -0.205665
-0.391755 0.170834 -0.204203
-0.391463 0.170985 -0.202063
-0.391170 0.171137 -0.199920
-0.390877 0.171289 -0.197772
-0.391724 0.171289 -0.196306
-0.391431 0.171441 -0.194153
-0.391138 0.171594 -0.191997
-0.390844 0.171746 -0.189837
-0.391693 0.171746 -0.188367
-0.391399 0.171899 -0.186202
-0.391105 0.172053 -0.184032
-0.390810 0.172206 -0.181859
-0.391661 0.172206 -0.180385
-0.392512 0.172206 -0.178911
-0.392219 0.172360 -0.176732
-0.391924 0.172514 -0.174548
-0.391630 0.172669 -0.172361
-0.391334 0.172823 -0.170170
-0.391039 0.172978 -0.167975
-0.391893 0.172978 -0.166494
-0.391598 0.173133 -0.164294
-0.390148 0.173445 -0.161366
-0.389850 0.173601 -0.159155
-0.390708 0.173601 -0.157669
-0.390411 0.173757 -0.155453
-0.390112 0.173914 -0.153233
-0.389814 0.174070 -0.151008
-0.389514 0.174228 -0.148780
-0.389215 0.174385 -0.146548
-0.387750 0.174701 -0.143567
-0.387448 0.174859 -0.141324
-0.387145 0.175018 -0.139077
-0.386842 0.175177 -0.136826
-0.386538 0.175336 -0.134571
-0.386234 0.175495 -0.132312
-0.385929 0.175655 -0.130048
-0.385623 0.175815 -0.127781
-0.384140 0.176136 -0.124741
-0.385011 0.176136 -0.123233
-0.384703 0.176297 -0.120954
-0.384396 0.176458 -0.118670
-0.381720 0.176944 -0.114821
-0.381409 0.177106 -0.112523
-0.381097 0.177269 -0.110221
-0.380784 0.177432 -0.107915
-0.380471 0.177595 -0.105604
-0.380157 0.177759 -0.103289
-0.378647 0.178087 -0.100171
-0.377132 0.178416 -0.097041
-0.376814 0.178581 -0.094708
-0.375291 0.178912 -0.091559
-0.373763 0.179244 -0.088399
-0.373440 0.179411 -0.086046
-0.371904 0.179745 -0.082867
-0.370362 0.180081 -0.079676
-0.370035 0.180249 -0.077305
-0.368485 0.180586 -0.074094
-0.366930 0.180925 -0.070872
-0.366597 0.181095 -0.068481
-0.365034 0.181435 -0.065239
-0.363465 0.181777 -0.061985
-0.363128 0.181948 -0.059574
-0.361551 0.182292 -0.056300
-0.359968 0.182637 -0.053014
-0.359626 0.182810 -0.050584
-0.358034 0.183157 -0.047277
-0.356437 0.183505 -0.043958
-0.354834 0.183855 -0.040626
-0.354485 0.184030 -0.038168
-0.352873 0.184381 -0.034816
-0.351255 0.184734 -0.031451
-0.349632 0.185089 -0.028073
-0.346725 0.185623 -0.023776
-0.345085 0.185980 -0.020367
-0.342152 0.186519 -0.016027
-0.340495 0.186881 -0.012587
-0.337534 0.187425 -0.008203
-0.334556 0.187972 -0.003794
-0.330247 0.188707 0.001586
-0.325905 0.189448 0.007009
-0.321529 0.190195 0.012474
-0.318459 0.190758 0.017010
-0.314023 0.191515 0.022552
-0.309552 0.192278 0.028139
-0.302300 0.193434 0.035776
0.302118 0.221209 -0.487205
0.289662 0.219938 -0.488072
0.277348 0.218681 -0.488929
0.267381 0.217685 -0.489231
0.255318 0.216454 -0.490073
0.245551 0.215478 -0.490367
0.235871 0.214512 -0.490658
0.226277 0.213554 -0.490947
0.218872 0.212841 -0.490703
0.209427 0.211898 -0.490989
0.202135 0.211196 -0.490746
0.192836 0.210267 -0.491030
0.185654 0.209576 -0.490789
0.174481 0.208434 -0.491591
0.167421 0.207755 -0.491350
0.158423 0.206856 -0.491627
0.149502 0.205965 -0.491902
0.142605 0.205301 -0.491663
0.135752 0.204642 -0.491425
0.128943 0.203987 -0.491189
0.120270 0.203121 -0.491461
0.111670 0.202261 -0.491732
0.105016 0.201621 -0.491497
0.098404 0.200986 -0.491265
0.089984 0.200144 -0.491533
0.083467 0.199518 -0.491302
0.076991 0.198895 -0.491072
0.068747 0.198071 -0.491338
0.062363 0.197457 -0.491110
0.056017 0.196847 -0.490883
0.047944 0.196040 -0.491147
0.043444 0.195639 -0.490433
0.037215 0.195040 -0.490211
0.029291 0.194247 -0.490475
0.023148 0.193657 -0.490254
0.017043 0.193070 -0.490034
0.010975 0.192487 -0.489816
0.003259 0.191715 -0.490078
-0.002726 0.191140 -0.489861
-0.010334 0.190379 -0.490122
-0.016237 0.189811 -0.489906
-0.023738 0.189060 -0.490165
-0.029561 0.188501 -0.489951
-0.035350 0.187945 -0.489737
-0.041105 0.187392 -0.489525
-0.048415 0.186660 -0.489782
-0.054092 0.186115 -0.489572
-0.059737 0.185573 -0.489362
-0.065348 0.185034 -0.489154
-0.072474 0.184320 -0.489409
-0.078011 0.183788 -0.489202
-0.083517 0.183260 -0.488997
-0.088991 0.182734 -0.488792
-0.095939 0.182038 -0.489046
-0.101342 0.181519 -0.488842
-0.106714 0.181003 -0.488640
-0.112056 0.180490 -0.488439
-0.118832 0.179811 -0.488691
-0.124105 0.179305 -0.488491
-0.129348 0.178802 -0.488292
-0.134562 0.178301 -0.488094
-0.141173 0.177638 -0.488344
-0.146321 0.177144 -0.488148
-0.151440 0.176653 -0.487952
-0.156530 0.176164 -0.487758
-0.162983 0.175517 -0.488006
-0.168009 0.175034 -0.487813
-0.174378 0.174395 -0.488059
-0.179342 0.173919 -0.487867
-0.185630 0.173288 -0.488112
-0.190532 0.172818 -0.487920
-0.195407 0.172350 -0.487730
-0.200256 0.171885 -0.487541
-0.205079 0.171422 -0.487353
-0.209877 0.170962 -0.487166
-0.214649 0.170504 -0.486980
-0.219395 0.170049 -0.486795
-0.225402 0.169445 -0.487038
-0.230091 0.168996 -0.486854
-0.233483 0.168697 -0.486246
-0.238130 0.168251 -0.486064
-0.241494 0.167956 -0.485460
-0.246099 0.167514 -0.485282
-0.250680 0.167074 -0.485104
-0.253999 0.166782 -0.484506
-0.257306 0.166492 -0.483910
-0.260601 0.166202 -0.483315
-0.263885 0.165913 -0.482723
-0.267158 0.165625 -0.482133
-0.270419 0.165339 -0.481545
-0.272458 0.165196 -0.480538
-0.275702 0.164910 -0.479954
-0.278934 0.164626 -0.479372
-0.280957 0.164484 -0.478371
-0.284172 0.164201 -0.477793
-0.286185 0.164060 -0.476796
-0.289384 0.163779 -0.476222
-0.292571 0.163498 -0.475651
-0.294568 0.163359 -0.474660
-0.296562 0.163219 -0.473670
-0.299726 0.162940 -0.473105
-0.301711 0.162802 -0.472119
-0.303692 0.162663 -0.471135
-0.305669 0.162524 -0.470153
-0.308805 0.162248 -0.469596
-0.310773 0.162111 -0.468617
-0.312738 0.161973 -0.467640
-0.314700 0.161836 -0.466665
-0.318953 0.161425 -0.466541
-0.320903 0.161289 -0.465570
-0.322850 0.161153 -0.464600
-0.324793 0.161017 -0.463632
-0.326733 0.160881 -0.462666
-0.329801 0.160611 -0.462128
-0.331732 0.160476 -0.461165
-0.333660 0.160341 -0.460204
-0.335585 0.160207 -0.459245
-0.338626 0.159938 -0.458714
-0.340541 0.159804 -0.457759
-0.342454 0.159671 -0.456805
-0.344363 0.159537 -0.455852
-0.347377 0.159271 -0.455329
-0.349277 0.159138 -0.454380
-0.351174 0.159006 -0.453433
-0.353068 0.158874 -0.452487
-0.354959 0.158741 -0.451543
-0.357940 0.158478 -0.451030
-0.359822 0.158346 -0.450090
-0.361701 0.158215 -0.449151
-0.362491 0.158215 -0.447782
-0.364367 0.158084 -0.446846
-0.366239 0.157954 -0.445911
-0.369187 0.157693 -0.445410
-0.371050 0.157562 -0.444479
-0.372911 0.157433 -0.443549
-0.374769 0.157303 -0.442621
-0.376623 0.157173 -0.441694
-0.378475 0.157044 -0.440769
-0.380323 0.156915 -0.439845
-0.382168 0.156786 -0.438923
-0.384011 0.156657 -0.438002
-0.385850 0.156529 -0.437083
-0.387686 0.156401 -0.436165
-0.389520 0.156273 -0.435249
-0.391350 0.156145 -0.434334
-0.393178 0.156017 -0.433421
-0.395002 0.155890 -0.432509
-0.396823 0.155763 -0.431599
-0.398642 0.155636 -0.430690
-0.400457 0.155509 -0.429783
-0.402270 0.155382 -0.428877
-0.404080 0.155256 -0.427973
-0.405886 0.155130 -0.427070
-0.407690 0.155004 -0.426169
-0.409491 0.154878 -0.425269
-0.411289 0.154753 -0.424370
-0.413084 0.154627 -0.423473
-0.414876 0.154502 -0.422578
-0.416665 0.154377 -0.421683
-0.417436 0.154377 -0.420348
-0.419222 0.154253 -0.419457
-0.421005 0.154128 -0.418567
-0.421775 0.154128 -0.417234
-0.423554 0.154004 -0.416346
-0.425331 0.153879 -0.415460
-0.426099 0.153879 -0.414129
-0.427872 0.153756 -0.413245
-0.429642 0.153632 -0.412363
-0.430409 0.153632 -0.411034
-0.432176 0.153508 -0.410154
-0.433940 0.153385 -0.409276
-0.435701 0.153262 -0.408399
-0.436466 0.153262 -0.407073
-0.438224 0.153139 -0.406199
-0.438989 0.153139 -0.404874
-0.440743 0.153016 -0.404002
-0.441507 0.153016 -0.402679
-0.442271 0.153016 -0.401355
-0.444021 0.152893 -0.400487
-0.444785 0.152893 -0.399165
-0.445548 0.152893 -0.397842
-0.447294 0.152771 -0.396977
-0.448057 0.152771 -0.395656
-0.449800 0.152649 -0.394793
-0.450562 0.152649 -0.393473
-0.451325 0.152649 -0.392153
-0.453063 0.152527 -0.391294
-0.453825 0.152527 -0.389975
-0.454587 0.152527 -0.388655
-0.456322 0.152405 -0.387800
-0.457083 0.152405 -0.386482
-0.458814 0.152284 -0.385628
-0.459574 0.152284 -0.384311
-0.460335 0.152284 -0.382994
-0.462062 0.152162 -0.382144
-0.462822 0.152162 -0.380828
-0.462616 0.152284 -0.379043
-0.464342 0.152162 -0.378196
-0.466065 0.152041 -0.377351
-0.466824 0.152041 -0.376036
-0.467583 0.152041 -0.374721
-0.467381 0.152162 -0.372933
-0.468141 0.152162 -0.371617
-0.468900 0.152162 -0.370301
-0.469660 0.152162 -0.368985
-0.470420 0.152162 -0.367669
-0.471180 0.152162 -0.366353
-0.471939 0.152162 -0.365037
-0.472699 0.152162 -0.363721
-0.473459 0.152162 -0.362405
-0.474219 0.152162 -0.361089
-0.474979 0.152162 -0.359773
-0.475738 0.152162 -0.358457
-0.476498 0.152162 -0.357141
-0.477258 0.152162 -0.355825
-0.478018 0.152162 -0.354509
-0.478777 0.152162 -0.353193
-0.479537 0.152162 -0.351877
-0.480297 0.152162 -0.350561
-0.481057 0.152162 -0.349245
-0.480865 0.152284 -0.347435
-0.480673 0.152405 -0.345622
-0.481434 0.152405 -0.344304
-0.481242 0.152527 -0.342487
-0.482004 0.152527 -0.341168
-0.481812 0.152649 -0.339347
-0.481620 0.152771 -0.337523
-0.482383 0.152771 -0.336202
-0.482192 0.152893 -0.334374
-0.482955 0.152893 -0.333052
-0.482764 0.153016 -0.331220
-0.483528 0.153016 -0.329896
-0.483337 0.153139 -0.328061
-0.483146 0.153262 -0.326222
-0.483911 0.153262 -0.324896
-0.483720 0.153385 -0.323054
-0.484486 0.153385 -0.321727
-0.484296 0.153508 -0.319880
-0.484105 0.153632 -0.318031
-0.483914 0.153756 -0.316178
-0.484681 0.153756 -0.314848
-0.484491 0.153879 -0.312991
-0.484299 0.154004 -0.311132
-0.484108 0.154128 -0.309269
-0.484877 0.154128 -0.307936
-0.484686 0.154253 -0.306069
-0.484495 0.154377 -0.304199
-0.484303 0.154502 -0.302327
-0.485075 0.154502 -0.300991
-0.484883 0.154627 -0.299114
-0.484691 0.154753 -0.297234
-0.484499 0.154878 -0.295351
-0.484307 0.155004 -0.293465
-0.483146 0.155256 -0.291026
-0.482952 0.155382 -0.289132
-0.481786 0.155636 -0.286680
-0.481591 0.155763 -0.284778
-0.480420 0.156017 -0.282313
-0.479245 0.156273 -0.279840
-0.478066 0.156529 -0.277359
-0.476884 0.156786 -0.274871
-0.473722 0.157303 -0.271228
-0.471534 0.157693 -0.268140
-0.469334 0.158084 -0.265036
-0.466121 0.158610 -0.261332
-0.393496 0.168251 -0.216963
-0.393207 0.168400 -0.214846
-0.391785 0.168697 -0.212058
-0.392628 0.168697 -0.210600
-0.392337 0.168846 -0.208471
-0.392046 0.168996 -0.206339
-0.391755 0.169145 -0.204203
-0.392599 0.169145 -0.202741
-0.392308 0.169295 -0.200600
-0.392016 0.169445 -0.198455
-0.391724 0.169596 -0.196306
-0.391431 0.169747 -0.194153
-0.392278 0.169747 -0.192686
-0.391986 0.169898 -0.190528
-0.391693 0.170049 -0.188367
-0.391399 0.170200 -0.186202
-0.392248 0.170200 -0.184730
-0.393098 0.170200 -0.183259
-0.392805 0.170352 -0.181087
-0.392512 0.170504 -0.178911
-0.392219 0.170656 -0.176732
-0.391924 0.170809 -0.174548
-0.392777 0.170809 -0.173072
-0.392483 0.170962 -0.170883
-0.392188 0.171115 -0.168691
-0.391893 0.171268 -0.166494
-0.391598 0.171422 -0.164294
-0.391302 0.171576 -0.162089
-0.391005 0.171730 -0.159881
-0.390708 0.171885 -0.157669
-0.391566 0.171885 -0.156183
-0.391269 0.172040 -0.153966
-0.389814 0.172350 -0.151008
-0.389514 0.172506 -0.148780
-0.389215 0.172662 -0.146548
-0.388914 0.172818 -0.144312
-0.388613 0.172974 -0.142072
-0.388312 0.173131 -0.139827
-0.388010 0.173288 -0.137579
-0.387708 0.173445 -0.135327
