ply
format ascii 1.0
element vertex 1691
property float x
property float y
property float z
end_header
-0.219617 0.004231 0.102788
-0.217199 0.004236 0.103580
-0.214776 0.004241 0.104374
-0.212348 0.004246 0.105169
-0.211388 0.004246 0.106831
-0.208955 0.004251 0.107629
-0.206516 0.004256 0.108429
-0.204072 0.004260 0.109231
-0.201624 0.004265 0.110034
-0.199171 0.004270 0.110839
-0.196712 0.004275 0.111645
-0.194249 0.004280 0.112453
-0.191781 0.004285 0.113263
-0.189307 0.004290 0.114074
-0.186829 0.004294 0.114887
-0.184346 0.004299 0.115702
-0.180336 0.004309 0.115652
-0.177839 0.004314 0.116470
-0.175336 0.004319 0.117290
-0.172828 0.004324 0.118111
-0.170316 0.004329 0.118934
-0.167798 0.004334 0.119758
-0.165275 0.004339 0.120585
-0.162746 0.004344 0.121412
-0.158655 0.004354 0.121374
-0.156112 0.004359 0.122206
-0.151995 0.004369 0.122169
-0.151011 0.004369 0.123873
-0.146875 0.004379 0.123840
-0.142721 0.004390 0.123806
-0.138551 0.004400 0.123773
-0.134363 0.004410 0.123739
-0.128546 0.004426 0.122826
-0.124316 0.004436 0.122790
-0.121694 0.004441 0.123637
-0.117436 0.004452 0.123602
-0.113160 0.004462 0.123568
-0.108866 0.004473 0.123533
-0.106209 0.004478 0.124387
-0.100224 0.004494 0.123463
-0.095875 0.004504 0.123428
-0.089825 0.004521 0.122497
-0.085431 0.004531 0.122459
-0.081019 0.004542 0.122422
-0.074875 0.004559 0.121480
-0.070417 0.004569 0.121441
-0.065939 0.004580 0.121401
-0.059701 0.004597 0.120449
-0.055176 0.004608 0.120406
-0.048869 0.004625 0.119446
-0.044296 0.004636 0.119401
-0.039703 0.004647 0.119356
-0.035089 0.004659 0.119311
-0.026849 0.004681 0.117408
-0.022178 0.004693 0.117358
-0.015658 0.004710 0.116372
-0.010936 0.004722 0.116319
-0.006193 0.004734 0.116267
0.000431 0.004751 0.115269
0.007099 0.004769 0.114265
0.011924 0.004781 0.114208
0.016771 0.004793 0.114150
0.023546 0.004811 0.113134
0.028446 0.004823 0.113074
0.035299 0.004841 0.112048
0.040254 0.004853 0.111985
0.045231 0.004865 0.111921
0.052195 0.004884 0.110884
0.057228 0.004896 0.110818
0.064273 0.004915 0.109771
0.069362 0.004927 0.109701
0.076490 0.004946 0.108644
0.081637 0.004959 0.108572
0.086807 0.004972 0.108499
0.094053 0.004991 0.107430
0.101350 0.005010 0.106352
0.106614 0.005023 0.106274
0.111903 0.005036 0.106195
0.119323 0.005056 0.105105
0.124673 0.005069 0.105022
0.127920 0.005075 0.105956
0.131175 0.005082 0.106891
0.134437 0.005089 0.107829
0.135565 0.005089 0.109783
0.138837 0.005095 0.110725
0.142116 0.005102 0.111670
0.145403 0.005109 0.112616
0.146535 0.005109 0.114577
0.149831 0.005115 0.115528
0.153135 0.005122 0.116482
0.156447 0.005129 0.117438
0.157583 0.005129 0.119405
0.160904 0.005136 0.120366
0.164233 0.005142 0.121329
0.165371 0.005142 0.123301
0.168709 0.005149 0.124268
0.172056 0.005156 0.125238
0.175410 0.005163 0.126210
0.178772 0.005170 0.127184
0.179916 0.005170 0.129166
0.183288 0.005177 0.130145
0.186668 0.005183 0.131127
0.190055 0.005190 0.132110
0.191204 0.005190 0.134099
0.194601 0.005197 0.135088
0.198006 0.005204 0.136079
0.201420 0.005211 0.137072
0.204842 0.005218 0.138068
0.205996 0.005218 0.140066
0.204878 0.005211 0.143060
0.203762 0.005204 0.146047
0.202649 0.005197 0.149027
0.203799 0.005197 0.151019
0.202687 0.005190 0.153989
0.201578 0.005183 0.156952
0.200471 0.005177 0.159908
0.199368 0.005170 0.162857
0.198266 0.005163 0.165799
0.197168 0.005156 0.168734
0.198309 0.005156 0.170711
0.197212 0.005149 0.173636
0.196118 0.005142 0.176555
0.195026 0.005136 0.179467
0.193936 0.005129 0.182371
0.192849 0.005122 0.185269
0.191765 0.005115 0.188160
0.190683 0.005109 0.191044
0.189604 0.005102 0.193922
0.190735 0.005102 0.195880
0.189657 0.005095 0.198748
0.188581 0.005089 0.201610
0.187508 0.005082 0.204464
0.186438 0.005075 0.207312
0.187563 0.005075 0.209262
0.186494 0.005069 0.212101
0.185428 0.005062 0.214933
0.186550 0.005062 0.216878
0.185485 0.005056 0.219701
0.184422 0.005049 0.222518
0.181186 0.005036 0.226196
0.182303 0.005036 0.228132
0.181248 0.005030 0.230929
0.182364 0.005030 0.232862
0.155653 0.004946 0.245758
0.123604 0.004847 0.260679
0.114563 0.004817 0.266510
0.107616 0.004793 0.271499
0.102713 0.004775 0.275672
0.095874 0.004751 0.280581
0.091047 0.004734 0.284692
0.086253 0.004716 0.288776
0.079561 0.004693 0.293574
0.074841 0.004676 0.297597
0.066350 0.004647 0.303044
0.061714 0.004630 0.307002
0.062750 0.004630 0.308797
0.060019 0.004619 0.312014
0.059174 0.004614 0.314512
0.058331 0.004608 0.317005
0.057490 0.004603 0.319492
0.058520 0.004603 0.321278
0.059551 0.004603 0.323063
0.060582 0.004603 0.324848
0.061613 0.004603 0.326634
0.062643 0.004603 0.328419
0.063674 0.004603 0.330204
0.066586 0.004608 0.331303
0.067618 0.004608 0.333090
0.068649 0.004608 0.334878
0.069681 0.004608 0.336665
0.068828 0.004603 0.339131
0.069859 0.004603 0.340916
0.072777 0.004608 0.342027
0.073809 0.004608 0.343814
0.074841 0.004608 0.345601
0.077768 0.004614 0.346718
0.078801 0.004614 0.348507
0.079834 0.004614 0.350296
0.082769 0.004619 0.351419
0.083803 0.004619 0.353210
0.084837 0.004619 0.355001
0.085871 0.004619 0.356792
0.086905 0.004619 0.358583
0.087939 0.004619 0.360375
0.088974 0.004619 0.362166
0.090008 0.004619 0.363957
0.091042 0.004619 0.365748
0.092076 0.004619 0.367539
0.093110 0.004619 0.369330
0.094144 0.004619 0.371121
0.095178 0.004619 0.372912
0.096212 0.004619 0.374704
0.097246 0.004619 0.376495
0.098281 0.004619 0.378286
0.099315 0.004619 0.380077
0.100349 0.004619 0.381868
0.101383 0.004619 0.383659
0.102417 0.004619 0.385450
0.105380 0.004625 0.386612
0.106415 0.004625 0.388406
0.107450 0.004625 0.390199
0.108486 0.004625 0.391992
0.109521 0.004625 0.393785
0.112495 0.004630 0.394957
0.113531 0.004630 0.396752
0.114567 0.004630 0.398547
0.113662 0.004625 0.400957
0.116640 0.004630 0.402137
0.121578 0.004642 0.402706
0.126537 0.004653 0.403278
-0.434923 0.002416 -0.385926
-0.444148 0.002392 -0.373114
-0.451975 0.002371 -0.361864
-0.453497 0.002365 -0.357476
-0.453770 0.002362 -0.354448
-0.455283 0.002356 -0.350089
-0.455553 0.002353 -0.347077
-0.457058 0.002347 -0.342746
-0.458557 0.002342 -0.338432
-0.458823 0.002339 -0.335448
-0.460314 0.002333 -0.331162
-0.460577 0.002330 -0.328194
-0.462060 0.002324 -0.323935
-0.461101 0.002324 -0.322275
-0.460143 0.002324 -0.320615
-0.460405 0.002321 -0.317666
-0.459448 0.002321 -0.316007
-0.459711 0.002318 -0.313066
-0.458754 0.002318 -0.311409
-0.457797 0.002318 -0.309753
-0.458062 0.002316 -0.306821
-0.457106 0.002316 -0.305165
-0.456150 0.002316 -0.303510
-0.455195 0.002316 -0.301855
-0.454239 0.002316 -0.300200
-0.454507 0.002313 -0.297280
-0.453552 0.002313 -0.295627
-0.452598 0.002313 -0.293973
-0.451643 0.002313 -0.292320
-0.451913 0.002310 -0.289411
-0.450959 0.002310 -0.287759
-0.450005 0.002310 -0.286107
-0.449052 0.002310 -0.284456
-0.449324 0.002307 -0.281557
-0.448371 0.002307 -0.279907
-0.448644 0.002304 -0.277016
-0.447692 0.002304 -0.275368
-0.446740 0.002304 -0.273719
-0.445788 0.002304 -0.272071
-0.443607 0.002307 -0.271656
-0.442655 0.002307 -0.270006
-0.441702 0.002307 -0.268356
-0.440749 0.002307 -0.266706
-0.439796 0.002307 -0.265056
-0.438844 0.002307 -0.263405
-0.437891 0.002307 -0.261755
-0.436938 0.002307 -0.260105
-0.435985 0.002307 -0.258455
-0.433793 0.002310 -0.258026
-0.432839 0.002310 -0.256374
-0.431885 0.002310 -0.254723
-0.430932 0.002310 -0.253071
-0.428732 0.002313 -0.252636
-0.427777 0.002313 -0.250983
-0.425571 0.002316 -0.250546
-0.425868 0.002313 -0.247676
-0.423660 0.002316 -0.247236
-0.422705 0.002316 -0.245580
-0.420492 0.002318 -0.245138
-0.419536 0.002318 -0.243481
-0.417317 0.002321 -0.243036
-0.416360 0.002321 -0.241377
-0.414136 0.002324 -0.240929
-0.411909 0.002327 -0.240481
-0.410949 0.002327 -0.238819
-0.408716 0.002330 -0.238368
-0.407755 0.002330 -0.236704
-0.405517 0.002333 -0.236250
-0.403273 0.002336 -0.235795
-0.401025 0.002339 -0.235340
-0.398773 0.002342 -0.234883
-0.396516 0.002344 -0.234425
-0.392956 0.002350 -0.235183
-0.391989 0.002350 -0.233507
-0.392322 0.002347 -0.230620
-0.392655 0.002344 -0.227738
-0.392987 0.002342 -0.224862
-0.392023 0.002342 -0.223192
-0.392356 0.002339 -0.220323
-0.392688 0.002336 -0.217461
-0.393019 0.002333 -0.214604
-0.393349 0.002330 -0.211752
-0.393679 0.002327 -0.208907
-0.394009 0.002324 -0.206067
-0.394337 0.002321 -0.203233
-0.394665 0.002318 -0.200404
-0.394993 0.002316 -0.197582
-0.395319 0.002313 -0.194764
-0.394365 0.002313 -0.193111
-0.394691 0.002310 -0.190301
-0.395018 0.002307 -0.187497
-0.394065 0.002307 -0.185846
-0.394392 0.002304 -0.183049
-0.395993 0.002298 -0.179117
-0.395043 0.002298 -0.177472
-0.395367 0.002296 -0.174691
-0.395691 0.002293 -0.171916
-0.396015 0.002290 -0.169147
-0.395068 0.002290 -0.167506
-0.395391 0.002287 -0.164744
-0.395714 0.002284 -0.161987
-0.394769 0.002284 -0.160350
-0.395093 0.002282 -0.157600
-0.395415 0.002279 -0.154856
-0.394472 0.002279 -0.153222
-0.394795 0.002276 -0.150484
-0.395117 0.002273 -0.147752
-0.394176 0.002273 -0.146122
-0.394498 0.002270 -0.143397
-0.394820 0.002268 -0.140677
-0.393881 0.002268 -0.139049
-0.394203 0.002265 -0.136337
-0.393264 0.002265 -0.134711
-0.393587 0.002262 -0.132005
-0.392649 0.002262 -0.130381
-0.392972 0.002259 -0.127682
-0.393294 0.002257 -0.124988
-0.393616 0.002254 -0.122300
-0.392681 0.002254 -0.120680
-0.391746 0.002254 -0.119060
-0.390810 0.002254 -0.117441
-0.391134 0.002251 -0.114762
-0.390200 0.002251 -0.113145
-0.389266 0.002251 -0.111527
-0.389591 0.002248 -0.108857
-0.388658 0.002248 -0.107240
-0.387724 0.002248 -0.105624
-0.388051 0.002246 -0.102962
-0.387118 0.002246 -0.101347
-0.386186 0.002246 -0.099732
-0.386513 0.002243 -0.097079
-0.385582 0.002243 -0.095466
-0.384650 0.002243 -0.093853
-0.384979 0.002240 -0.091208
-0.384048 0.002240 -0.089596
-0.383118 0.002240 -0.087984
-0.382187 0.002240 -0.086373
-0.382518 0.002238 -0.083737
-0.381588 0.002238 -0.082127
-0.380659 0.002238 -0.080517
-0.380990 0.002235 -0.077890
-0.380062 0.002235 -0.076282
-0.379133 0.002235 -0.074673
-0.379466 0.002232 -0.072054
-0.378538 0.002232 -0.070447
-0.377610 0.002232 -0.068841
-0.377944 0.002229 -0.066230
-0.377017 0.002229 -0.064625
-0.376090 0.002229 -0.063019
-0.375164 0.002229 -0.061414
-0.375500 0.002227 -0.058813
-0.374574 0.002227 -0.057209
-0.373648 0.002227 -0.055605
-0.372722 0.002227 -0.054001
-0.371796 0.002227 -0.052397
-0.370870 0.002227 -0.050794
-0.369944 0.002227 -0.049190
-0.369018 0.002227 -0.047586
-0.368092 0.002227 -0.045982
-0.367166 0.002227 -0.044378
-0.366240 0.002227 -0.042774
-0.365314 0.002227 -0.041170
-0.364388 0.002227 -0.039566
-0.363462 0.002227 -0.037963
-0.362536 0.002227 -0.036359
-0.361610 0.002227 -0.034755
-0.360684 0.002227 -0.033151
-0.359758 0.002227 -0.031547
-0.358832 0.002227 -0.029943
-0.357906 0.002227 -0.028339
-0.356980 0.002227 -0.026736
-0.356054 0.002227 -0.025132
-0.355128 0.002227 -0.023528
-0.352918 0.002229 -0.022884
-0.351991 0.002229 -0.021278
-0.351064 0.002229 -0.019673
-0.350138 0.002229 -0.018067
-0.349211 0.002229 -0.016462
-0.348284 0.002229 -0.014857
-0.347357 0.002229 -0.013251
-0.346430 0.002229 -0.011646
-0.345503 0.002229 -0.010040
-0.344576 0.002229 -0.008435
-0.343649 0.002229 -0.006829
-0.342722 0.002229 -0.005224
-0.341796 0.002229 -0.003619
-0.340869 0.002229 -0.002013
-0.339942 0.002229 -0.000408
-0.339015 0.002229 0.001198
-0.338088 0.002229 0.002803
-0.337161 0.002229 0.004408
-0.336234 0.002229 0.006014
-0.335307 0.002229 0.007619
-0.334380 0.002229 0.009225
-0.333454 0.002229 0.010830
-0.332527 0.002229 0.012436
-0.331600 0.002229 0.014041
-0.330673 0.002229 0.015646
-0.329746 0.002229 0.017252
-0.328819 0.002229 0.018857
-0.327892 0.002229 0.020463
-0.326965 0.002229 0.022068
-0.324726 0.002232 0.022757
-0.323799 0.002232 0.024364
-0.322871 0.002232 0.025971
-0.321943 0.002232 0.027578
-0.321015 0.002232 0.029185
-0.318768 0.002235 0.029882
-0.317840 0.002235 0.031490
-0.316911 0.002235 0.033099
-0.315982 0.002235 0.034707
-0.315053 0.002235 0.036316
-0.312798 0.002238 0.037020
-0.311869 0.002238 0.038630
-0.310939 0.002238 0.040240
-0.310010 0.002238 0.041850
-0.307748 0.002240 0.042560
-0.306817 0.002240 0.044172
-0.304550 0.002243 0.044885
-0.303618 0.002243 0.046499
-0.301346 0.002246 0.047215
-0.300413 0.002246 0.048830
-0.298135 0.002248 0.049549
-0.297202 0.002248 0.051165
-0.294919 0.002251 0.051887
-0.293985 0.002251 0.053505
-0.293051 0.002251 0.055123
-0.290761 0.002254 0.055850
-0.289826 0.002254 0.057470
-0.287531 0.002257 0.058199
-0.286595 0.002257 0.059820
-0.285659 0.002257 0.061442
-0.283358 0.002259 0.062176
-0.282421 0.002259 0.063799
-0.280114 0.002262 0.064536
-0.279176 0.002262 0.066160
-0.276864 0.002265 0.066901
-0.275925 0.002265 0.068527
-0.273607 0.002268 0.069270
-0.272668 0.002268 0.070898
-0.270344 0.002270 0.071644
-0.269404 0.002270 0.073273
-0.267075 0.002273 0.074023
-0.264742 0.002276 0.074774
-0.263799 0.002276 0.076406
-0.262857 0.002276 0.078039
-0.260517 0.002279 0.078794
-0.259574 0.002279 0.080428
-0.257229 0.002282 0.081187
-0.256284 0.002282 0.082823
-0.253934 0.002284 0.083585
-0.251578 0.002287 0.084348
-0.250632 0.002287 0.085987
-0.248271 0.002290 0.086754
-0.247324 0.002290 0.088394
-0.244957 0.002293 0.089164
-0.242585 0.002296 0.089935
-0.240209 0.002298 0.090708
-0.239259 0.002298 0.092353
-0.235443 0.002304 0.092258
-0.233052 0.002307 0.093036
-0.232100 0.002307 0.094686
-0.229703 0.002310 0.095467
-0.228750 0.002310 0.097118
-0.226348 0.002313 0.097902
-0.223941 0.002316 0.098688
-0.221530 0.002318 0.099475
-0.220573 0.002318 0.101132
-0.218156 0.002321 0.101922
-0.215734 0.002324 0.102714
-0.213307 0.002327 0.103507
-0.212348 0.002327 0.105169
-0.209915 0.002330 0.105966
-0.207477 0.002333 0.106764
-0.205035 0.002336 0.107564
-0.202587 0.002339 0.108365
-0.200135 0.002342 0.109168
-0.197677 0.002344 0.109973
-0.195215 0.002347 0.110779
-0.192748 0.002350 0.111588
-0.190276 0.002353 0.112397
-0.187798 0.002356 0.113208
-0.185316 0.002359 0.114021
-0.182829 0.002362 0.114836
-0.180336 0.002365 0.115652
-0.177839 0.002368 0.116470
-0.175336 0.002371 0.117290
-0.172828 0.002374 0.118111
-0.170316 0.002377 0.118934
-0.167798 0.002380 0.119758
-0.165275 0.002383 0.120585
-0.161193 0.002389 0.120545
-0.158655 0.002392 0.121374
-0.154547 0.002398 0.121336
-0.151995 0.002401 0.122169
-0.147861 0.002407 0.122132
-0.143710 0.002413 0.122095
-0.139541 0.002419 0.122058
-0.135355 0.002426 0.122020
-0.131152 0.002432 0.121983
-0.126931 0.002438 0.121945
-0.122693 0.002444 0.121907
-0.120067 0.002447 0.122754
-0.115801 0.002454 0.122718
-0.111517 0.002460 0.122681
-0.107215 0.002466 0.122645
-0.104554 0.002469 0.123498
-0.098557 0.002479 0.122571
-0.094200 0.002485 0.122534
-0.089825 0.002492 0.122497
-0.083736 0.002502 0.121560
-0.079315 0.002508 0.121520
-0.073160 0.002518 0.120575
-0.068693 0.002524 0.120533
-0.064206 0.002531 0.120491
-0.057956 0.002541 0.119535
-0.053422 0.002548 0.119490
-0.048869 0.002554 0.119446
-0.042521 0.002565 0.118479
-0.037919 0.002571 0.118432
-0.029700 0.002585 0.116527
-0.025040 0.002592 0.116476
-0.020359 0.002599 0.116424
-0.015658 0.002606 0.116372
-0.009095 0.002616 0.115379
-0.004343 0.002623 0.115324
0.002294 0.002634 0.114323
0.007099 0.002641 0.114265
0.013811 0.002651 0.113254
0.018668 0.002659 0.113194
0.025457 0.002669 0.112174
0.030367 0.002677 0.112111
0.035299 0.002684 0.112048
0.042198 0.002695 0.111016
0.047185 0.002702 0.110950
0.054165 0.002713 0.109908
0.059207 0.002721 0.109840
0.064273 0.002728 0.109771
0.071367 0.002740 0.108716
0.076490 0.002747 0.108644
0.083667 0.002759 0.107580
0.088848 0.002766 0.107505
0.096110 0.002778 0.106431
0.101350 0.002786 0.106352
0.108698 0.002797 0.105268
0.113998 0.002805 0.105186
0.121433 0.002817 0.104091
0.124673 0.002821 0.105022
0.127920 0.002825 0.105956
0.131175 0.002829 0.106891
0.134437 0.002833 0.107829
0.137707 0.002837 0.108769
0.140985 0.002841 0.109711
0.142116 0.002841 0.111670
0.145403 0.002845 0.112616
0.148697 0.002849 0.113565
0.152000 0.002853 0.114517
0.153135 0.002853 0.116482
0.156447 0.002857 0.117438
0.159766 0.002861 0.118396
0.160904 0.002861 0.120366
0.164233 0.002865 0.121329
0.167569 0.002869 0.122294
0.170914 0.002873 0.123261
0.172056 0.002873 0.125238
0.175410 0.002877 0.126210
0.178772 0.002881 0.127184
0.182142 0.002885 0.128161
0.185521 0.002890 0.129140
0.186668 0.002890 0.131127
0.190055 0.002894 0.132110
0.193451 0.002898 0.133097
0.196855 0.002902 0.134085
0.198006 0.002902 0.136079
0.201420 0.002906 0.137072
0.207117 0.002914 0.137065
0.208272 0.002914 0.139066
0.207150 0.002910 0.142065
0.206030 0.002906 0.145057
0.204913 0.002902 0.148041
0.203799 0.002898 0.151019
0.202687 0.002894 0.153989
0.201578 0.002890 0.156952
0.200471 0.002885 0.159908
0.201617 0.002885 0.161892
0.200512 0.002881 0.164839
0.199409 0.002877 0.167778
0.198309 0.002873 0.170711
0.197212 0.002869 0.173636
0.196118 0.002865 0.176555
0.195026 0.002861 0.179467
0.193936 0.002857 0.182371
0.195072 0.002857 0.184339
0.193984 0.002853 0.187235
0.192898 0.002849 0.190123
0.191815 0.002845 0.193005
0.190735 0.002841 0.195880
0.189657 0.002837 0.198748
0.188581 0.002833 0.201610
0.187508 0.002829 0.204464
0.188635 0.002829 0.206416
0.185370 0.002821 0.210154
0.186494 0.002821 0.212101
0.185428 0.002817 0.214933
0.186550 0.002817 0.216878
0.185485 0.002813 0.219701
0.184422 0.002809 0.222518
0.183362 0.002805 0.225328
0.182303 0.002801 0.228132
0.181248 0.002797 0.230929
0.182364 0.002797 0.232862
0.168392 0.002770 0.240739
0.125640 0.002691 0.259879
0.112552 0.002666 0.267297
0.103633 0.002648 0.273053
0.098754 0.002637 0.277212
0.093908 0.002627 0.281343
0.089094 0.002616 0.285447
0.080441 0.002599 0.291014
0.073795 0.002585 0.295786
0.065310 0.002568 0.301243
0.058795 0.002554 0.305925
0.057950 0.002551 0.308432
0.057108 0.002548 0.310934
0.054397 0.002541 0.314136
0.055428 0.002541 0.315922
0.052727 0.002534 0.319107
0.053756 0.002534 0.320888
0.056650 0.002538 0.321974
0.057680 0.002538 0.323758
0.058710 0.002538 0.325541
0.059739 0.002538 0.327325
0.060769 0.002538 0.329108
0.061798 0.002538 0.330891
0.062828 0.002538 0.332675
0.063858 0.002538 0.334458
0.064887 0.002538 0.336242
0.065917 0.002538 0.338025
0.066947 0.002538 0.339808
0.067976 0.002538 0.341592
0.069006 0.002538 0.343375
0.068155 0.002534 0.345829
0.071065 0.002538 0.346942
0.072095 0.002538 0.348726
0.073125 0.002538 0.350509
0.076043 0.002541 0.351628
0.077074 0.002541 0.353414
0.078105 0.002541 0.355199
0.081032 0.002544 0.356325
0.082064 0.002544 0.358112
0.083096 0.002544 0.359899
0.084128 0.002544 0.361687
0.085159 0.002544 0.363474
0.086191 0.002544 0.365261
0.087223 0.002544 0.367048
0.088255 0.002544 0.368836
0.089287 0.002544 0.370623
0.090319 0.002544 0.372410
0.091351 0.002544 0.374197
0.092383 0.002544 0.375985
0.093414 0.002544 0.377772
0.094446 0.002544 0.379559
0.095478 0.002544 0.381346
0.096510 0.002544 0.383134
0.097542 0.002544 0.384921
0.098574 0.002544 0.386708
0.101526 0.002548 0.387869
0.102559 0.002548 0.389658
0.103592 0.002548 0.391448
0.104625 0.002548 0.393237
0.105658 0.002548 0.395026
0.108622 0.002551 0.396197
0.109656 0.002551 0.397988
0.110690 0.002551 0.399779
0.111724 0.002551 0.401570
0.112758 0.002551 0.403362
0.115732 0.002554 0.404543
0.118713 0.002558 0.405727
-0.436503 0.000436 -0.381421
-0.445697 0.000428 -0.368672
-0.451001 0.000423 -0.360177
-0.452525 0.000421 -0.355792
-0.452799 0.000420 -0.352766
-0.454314 0.000418 -0.348410
-0.455823 0.000416 -0.344072
-0.456092 0.000415 -0.341073
-0.457593 0.000413 -0.336762
-0.457860 0.000412 -0.333779
-0.458126 0.000411 -0.330802
-0.459616 0.000409 -0.326530
-0.459880 0.000408 -0.323569
-0.458920 0.000408 -0.321908
-0.459184 0.000407 -0.318955
-0.458226 0.000407 -0.317294
-0.458490 0.000406 -0.314349
-0.457533 0.000406 -0.312690
-0.456575 0.000406 -0.311032
-0.455618 0.000406 -0.309374
-0.455884 0.000405 -0.306439
-0.454928 0.000405 -0.304782
-0.453971 0.000405 -0.303125
-0.453015 0.000405 -0.301469
-0.452058 0.000405 -0.299812
-0.452328 0.000404 -0.296890
-0.451372 0.000404 -0.295235
-0.450417 0.000404 -0.293579
-0.449461 0.000404 -0.291924
-0.449734 0.000403 -0.289013
-0.448779 0.000403 -0.287359
-0.447824 0.000403 -0.285706
-0.448098 0.000402 -0.282804
-0.447144 0.000402 -0.281152
-0.446191 0.000402 -0.279500
-0.446466 0.000401 -0.276607
-0.445513 0.000401 -0.274957
-0.444560 0.000401 -0.273306
-0.443607 0.000401 -0.271656
-0.441422 0.000402 -0.271241
-0.440468 0.000402 -0.269589
-0.439515 0.000402 -0.267937
-0.438561 0.000402 -0.266285
-0.437607 0.000402 -0.264634
-0.436654 0.000402 -0.262982
-0.435700 0.000402 -0.261330
-0.434746 0.000402 -0.259678
-0.433793 0.000402 -0.258026
-0.431596 0.000403 -0.257597
-0.430641 0.000403 -0.255943
-0.429686 0.000403 -0.254290
-0.428732 0.000403 -0.252636
-0.426527 0.000404 -0.252201
-0.425571 0.000404 -0.250546
-0.423362 0.000405 -0.250108
-0.423660 0.000404 -0.247236
-0.421449 0.000405 -0.246794
-0.420492 0.000405 -0.245138
-0.418275 0.000406 -0.244694
-0.417317 0.000406 -0.243036
-0.415095 0.000407 -0.242589
-0.414136 0.000407 -0.240929
-0.411909 0.000408 -0.240481
-0.409676 0.000409 -0.240031
-0.408716 0.000409 -0.238368
-0.406478 0.000410 -0.237915
-0.405517 0.000410 -0.236250
-0.403273 0.000411 -0.235795
-0.401025 0.000412 -0.235340
-0.397481 0.000414 -0.236097
-0.396516 0.000414 -0.234425
-0.392956 0.000416 -0.235183
-0.390686 0.000417 -0.234724
-0.391021 0.000416 -0.231832
-0.391356 0.000415 -0.228946
-0.391690 0.000414 -0.226066
-0.392023 0.000413 -0.223192
-0.392356 0.000412 -0.220323
-0.392688 0.000411 -0.217461
-0.393019 0.000410 -0.214604
-0.393349 0.000409 -0.211752
-0.393679 0.000408 -0.208907
-0.392720 0.000408 -0.207245
-0.393050 0.000407 -0.204407
-0.394665 0.000405 -0.200404
-0.394993 0.000404 -0.197582
-0.394037 0.000404 -0.195926
-0.394365 0.000403 -0.193111
-0.393410 0.000403 -0.191457
-0.393738 0.000402 -0.188649
-0.394065 0.000401 -0.185846
-0.394392 0.000401 -0.183049
-0.393440 0.000401 -0.181401
-0.395043 0.000399 -0.177472
-0.395367 0.000398 -0.174691
-0.394419 0.000398 -0.173048
-0.394743 0.000397 -0.170274
-0.395068 0.000396 -0.167506
-0.395391 0.000395 -0.164744
-0.394445 0.000395 -0.163105
-0.394769 0.000394 -0.160350
-0.395093 0.000393 -0.157600
-0.394148 0.000393 -0.155965
-0.394472 0.000392 -0.153222
-0.393528 0.000392 -0.151588
-0.393852 0.000391 -0.148852
-0.394176 0.000390 -0.146122
-0.394498 0.000389 -0.143397
-0.393558 0.000389 -0.141767
-0.393881 0.000388 -0.139049
-0.392941 0.000388 -0.137422
-0.393264 0.000387 -0.134711
-0.392326 0.000387 -0.133085
-0.392649 0.000387 -0.130381
-0.392972 0.000386 -0.127682
-0.392035 0.000386 -0.126059
-0.392358 0.000385 -0.123367
-0.391422 0.000385 -0.121746
-0.391746 0.000384 -0.119060
-0.390810 0.000384 -0.117441
-0.389875 0.000384 -0.115821
-0.390200 0.000383 -0.113145
-0.389266 0.000383 -0.111527
-0.388332 0.000383 -0.109909
-0.388658 0.000382 -0.107240
-0.387724 0.000382 -0.105624
-0.386791 0.000382 -0.104007
-0.387118 0.000381 -0.101347
-0.386186 0.000381 -0.099732
-0.385254 0.000381 -0.098118
-0.384321 0.000381 -0.096503
-0.384650 0.000380 -0.093853
-0.383719 0.000380 -0.092239
-0.382788 0.000380 -0.090626
-0.383118 0.000379 -0.087984
-0.382187 0.000379 -0.086373
-0.381257 0.000379 -0.084761
-0.381588 0.000378 -0.082127
-0.380659 0.000378 -0.080517
-0.379729 0.000378 -0.078907
-0.380062 0.000377 -0.076282
-0.379133 0.000377 -0.074673
-0.378204 0.000377 -0.073065
-0.378538 0.000377 -0.070447
-0.377610 0.000377 -0.068841
-0.376682 0.000377 -0.067234
-0.375755 0.000377 -0.065627
-0.376090 0.000376 -0.063019
-0.375164 0.000376 -0.061414
-0.374237 0.000376 -0.059808
-0.374574 0.000375 -0.057209
-0.373648 0.000375 -0.055605
-0.372722 0.000375 -0.054001
-0.371796 0.000375 -0.052397
-0.370870 0.000375 -0.050794
-0.369944 0.000375 -0.049190
-0.369018 0.000375 -0.047586
-0.368092 0.000375 -0.045982
-0.367166 0.000375 -0.044378
-0.366240 0.000375 -0.042774
-0.365314 0.000375 -0.041170
-0.364388 0.000375 -0.039566
-0.363462 0.000375 -0.037963
-0.362536 0.000375 -0.036359
-0.361610 0.000375 -0.034755
-0.360684 0.000375 -0.033151
-0.358480 0.000376 -0.032516
-0.357553 0.000376 -0.030911
-0.356626 0.000376 -0.029305
-0.355699 0.000376 -0.027700
-0.354772 0.000376 -0.026095
-0.353845 0.000376 -0.024489
-0.352918 0.000376 -0.022884
-0.351991 0.000376 -0.021278
-0.351064 0.000376 -0.019673
-0.350138 0.000376 -0.018067
-0.349211 0.000376 -0.016462
-0.348284 0.000376 -0.014857
-0.347357 0.000376 -0.013251
-0.346430 0.000376 -0.011646
-0.345503 0.000376 -0.010040
-0.344576 0.000376 -0.008435
-0.343649 0.000376 -0.006829
-0.342722 0.000376 -0.005224
-0.341796 0.000376 -0.003619
-0.340869 0.000376 -0.002013
-0.339942 0.000376 -0.000408
-0.339015 0.000376 0.001198
-0.338088 0.000376 0.002803
-0.337161 0.000376 0.004408
-0.336234 0.000376 0.006014
-0.335307 0.000376 0.007619
-0.334380 0.000376 0.009225
-0.333454 0.000376 0.010830
-0.332527 0.000376 0.012436
-0.331600 0.000376 0.014041
-0.330673 0.000376 0.015646
-0.329746 0.000376 0.017252
-0.327510 0.000377 0.017936
-0.326582 0.000377 0.019543
-0.325654 0.000377 0.021150
-0.324726 0.000377 0.022757
-0.323799 0.000377 0.024364
-0.322871 0.000377 0.025971
-0.320626 0.000377 0.026664
-0.319697 0.000377 0.028273
-0.318768 0.000377 0.029882
-0.317840 0.000377 0.031490
-0.316911 0.000377 0.033099
-0.314658 0.000378 0.033800
-0.313728 0.000378 0.035410
-0.312798 0.000378 0.037020
-0.311869 0.000378 0.038630
-0.310939 0.000378 0.040240
-0.308678 0.000379 0.040949
-0.307748 0.000379 0.042560
-0.305481 0.000380 0.043272
-0.304550 0.000380 0.044885
-0.302278 0.000381 0.045600
-0.301346 0.000381 0.047215
-0.299069 0.000382 0.047932
-0.298135 0.000382 0.049549
-0.297202 0.000382 0.051165
-0.294919 0.000383 0.051887
-0.293985 0.000383 0.053505
-0.291696 0.000384 0.054230
-0.290761 0.000384 0.055850
-0.288467 0.000385 0.056578
-0.287531 0.000385 0.058199
-0.285231 0.000386 0.058931
-0.284294 0.000386 0.060553
-0.283358 0.000386 0.062176
-0.281052 0.000387 0.062912
-0.280114 0.000387 0.064536
-0.277802 0.000387 0.065275
-0.276864 0.000387 0.066901
-0.274547 0.000388 0.067643
-0.273607 0.000388 0.069270
-0.271285 0.000389 0.070015
-0.270344 0.000389 0.071644
-0.268017 0.000390 0.072392
-0.265684 0.000391 0.073142
-0.264742 0.000391 0.074774
-0.263799 0.000391 0.076406
-0.261461 0.000392 0.077160
-0.259117 0.000393 0.077916
-0.258173 0.000393 0.079552
-0.257229 0.000393 0.081187
-0.254879 0.000394 0.081948
-0.252524 0.000395 0.082709
-0.251578 0.000395 0.084348
-0.249218 0.000396 0.085113
-0.248271 0.000396 0.086754
-0.245905 0.000397 0.087522
-0.243534 0.000398 0.088291
-0.241159 0.000399 0.089063
-0.240209 0.000399 0.090708
-0.236395 0.000401 0.090610
-0.234005 0.000401 0.091386
-0.233052 0.000401 0.093036
-0.230657 0.000402 0.093815
-0.228257 0.000403 0.094595
-0.227303 0.000403 0.096249
-0.224897 0.000404 0.097033
-0.223941 0.000404 0.098688
-0.221530 0.000405 0.099475
-0.219114 0.000406 0.100263
-0.216693 0.000407 0.101054
-0.215734 0.000407 0.102714
-0.213307 0.000408 0.103507
-0.210875 0.000409 0.104302
-0.208439 0.000410 0.105099
-0.205997 0.000411 0.105897
-0.205035 0.000411 0.107564
-0.202587 0.000412 0.108365
-0.200135 0.000413 0.109168
-0.197677 0.000414 0.109973
-0.195215 0.000415 0.110779
-0.192748 0.000416 0.111588
-0.190276 0.000417 0.112397
-0.187798 0.000418 0.113208
-0.185316 0.000419 0.114021
-0.181308 0.000421 0.113968
-0.178812 0.000422 0.114785
-0.176310 0.000423 0.115602
-0.173803 0.000424 0.116422
-0.171292 0.000425 0.117243
-0.168775 0.000426 0.118066
-0.166253 0.000427 0.118890
-0.163725 0.000428 0.119717
-0.161193 0.000429 0.120545
-0.157095 0.000431 0.120505
-0.154547 0.000432 0.121336
-0.150423 0.000434 0.121297
-0.146281 0.000436 0.121258
-0.142122 0.000438 0.121220
-0.137946 0.000440 0.121180
-0.133752 0.000442 0.121141
-0.129542 0.000444 0.121102
-0.125313 0.000446 0.121062
-0.121067 0.000448 0.121023
-0.116803 0.000450 0.120983
-0.114163 0.000451 0.121831
-0.109871 0.000454 0.121793
-0.105561 0.000456 0.121754
-0.101233 0.000458 0.121716
-0.096886 0.000460 0.121677
-0.092521 0.000462 0.121638
-0.088138 0.000464 0.121599
-0.082037 0.000467 0.120658
-0.077608 0.000470 0.120616
-0.073160 0.000472 0.120575
-0.066965 0.000475 0.119623
-0.062470 0.000477 0.119579
-0.056207 0.000481 0.118619
-0.051665 0.000483 0.118573
-0.047103 0.000485 0.118526
-0.040742 0.000488 0.117555
-0.036131 0.000491 0.117506
-0.029700 0.000494 0.116527
-0.023226 0.000498 0.115541
-0.018537 0.000500 0.115487
-0.011990 0.000503 0.114493
-0.009095 0.000505 0.115379
-0.002488 0.000508 0.114380
0.002294 0.000510 0.114323
0.008976 0.000514 0.113314
0.015702 0.000518 0.112299
0.020568 0.000520 0.112237
0.025457 0.000522 0.112174
0.032292 0.000526 0.111147
0.037234 0.000528 0.111082
0.044147 0.000532 0.110045
0.049145 0.000534 0.109977
0.054165 0.000537 0.109908
0.061191 0.000541 0.108860
0.066268 0.000543 0.108788
0.073376 0.000547 0.107729
0.078510 0.000549 0.107655
0.083667 0.000552 0.107580
0.090894 0.000556 0.106509
0.096110 0.000558 0.106431
0.103422 0.000562 0.105349
0.110786 0.000566 0.104259
0.116097 0.000569 0.104176
0.121433 0.000571 0.104091
0.126794 0.000574 0.104007
0.130048 0.000575 0.104940
0.133309 0.000577 0.105875
0.134437 0.000577 0.107829
0.137707 0.000578 0.108769
0.140985 0.000579 0.109711
0.144271 0.000581 0.110656
0.147564 0.000582 0.111602
0.148697 0.000582 0.113565
0.152000 0.000583 0.114517
0.155311 0.000585 0.115470
0.158629 0.000586 0.116426
0.159766 0.000586 0.118396
0.163094 0.000587 0.119356
0.166429 0.000589 0.120319
0.167569 0.000589 0.122294
0.170914 0.000590 0.123261
0.174267 0.000592 0.124231
0.177628 0.000593 0.125203
0.178772 0.000593 0.127184
0.182142 0.000594 0.128161
0.185521 0.000596 0.129140
0.188907 0.000597 0.130121
0.192302 0.000598 0.131105
0.193451 0.000598 0.133097
0.196855 0.000600 0.134085
0.200268 0.000601 0.135076
0.203688 0.000603 0.136069
0.207117 0.000604 0.137065
0.210554 0.000605 0.138063
0.209428 0.000604 0.141067
0.208304 0.000603 0.144063
0.207183 0.000601 0.147053
0.206064 0.000600 0.150035
0.204948 0.000598 0.153010
0.203835 0.000597 0.155978
0.202725 0.000596 0.158939
0.201617 0.000594 0.161892
0.200512 0.000593 0.164839
0.199409 0.000592 0.167778
0.198309 0.000590 0.170711
0.199451 0.000590 0.172688
0.198352 0.000589 0.175611
0.197256 0.000587 0.178527
0.196163 0.000586 0.181437
0.195072 0.000585 0.184339
0.193984 0.000583 0.187235
0.192898 0.000582 0.190123
0.191815 0.000581 0.193005
0.192947 0.000581 0.194966
0.191865 0.000579 0.197838
0.190786 0.000578 0.200704
0.189709 0.000577 0.203563
0.188635 0.000575 0.206416
0.187563 0.000574 0.209262
0.186494 0.000573 0.212101
0.185428 0.000571 0.214933
0.186550 0.000571 0.216878
0.185485 0.000570 0.219701
0.186606 0.000570 0.221643
0.185542 0.000569 0.224458
0.184480 0.000568 0.227266
0.183421 0.000566 0.230067
0.182364 0.000565 0.232862
0.181310 0.000564 0.235650
0.129728 0.000532 0.258274
0.110546 0.000520 0.268083
0.101648 0.000514 0.273827
0.096782 0.000510 0.277979
0.089990 0.000506 0.282861
0.085200 0.000502 0.286951
0.074666 0.000495 0.293238
0.066167 0.000490 0.298714
0.059641 0.000485 0.303412
0.055042 0.000482 0.307356
0.052336 0.000479 0.310566
0.053367 0.000479 0.312351
0.050670 0.000477 0.315544
0.049840 0.000476 0.318024
0.050867 0.000476 0.319804
0.051895 0.000476 0.321584
0.054784 0.000477 0.322670
0.055813 0.000477 0.324451
0.056841 0.000477 0.326233
0.057870 0.000477 0.328014
0.058898 0.000477 0.329796
0.059927 0.000477 0.331577
0.060955 0.000477 0.333358
0.061984 0.000477 0.335140
0.063012 0.000477 0.336921
0.064041 0.000477 0.338703
0.065070 0.000477 0.340484
0.066098 0.000477 0.342266
0.067127 0.000477 0.344047
0.068155 0.000477 0.345829
0.069184 0.000477 0.347610
0.070212 0.000477 0.349392
0.069361 0.000476 0.351836
0.070388 0.000476 0.353616
0.071416 0.000476 0.355396
0.074326 0.000477 0.356518
0.075355 0.000477 0.358299
0.076384 0.000477 0.360081
0.079303 0.000478 0.361209
0.080332 0.000478 0.362993
0.083259 0.000479 0.364126
0.082392 0.000478 0.366560
0.083421 0.000478 0.368343
0.086351 0.000479 0.369482
0.087382 0.000479 0.371267
0.088413 0.000479 0.373052
0.089443 0.000479 0.374838
0.090474 0.000479 0.376623
0.091505 0.000479 0.378408
0.092536 0.000479 0.380194
0.091658 0.000478 0.382610
0.092688 0.000478 0.384394
0.093718 0.000478 0.386177
0.096659 0.000479 0.387335
0.097689 0.000479 0.389120
0.098720 0.000479 0.390906
0.099751 0.000479 0.392691
0.100782 0.000479 0.394476
0.101812 0.000479 0.396262
0.104765 0.000481 0.397432
0.105797 0.000481 0.399219
0.106829 0.000481 0.401006
0.107861 0.000481 0.402794
0.108893 0.000481 0.404581
0.109924 0.000481 0.406368
0.112889 0.000482 0.407550
0.117803 0.000484 0.408129
-0.438077 -0.001536 -0.376934
-0.445980 -0.001529 -0.365611
-0.448775 -0.001526 -0.359842
-0.450304 -0.001524 -0.355454
-0.451828 -0.001522 -0.351084
-0.452102 -0.001521 -0.348065
-0.453617 -0.001519 -0.343723
-0.453889 -0.001518 -0.340721
-0.455395 -0.001517 -0.336408
-0.455665 -0.001516 -0.333422
-0.457163 -0.001514 -0.329136
-0.457430 -0.001513 -0.326166
-0.457696 -0.001512 -0.323203
-0.456735 -0.001512 -0.321540
-0.457002 -0.001511 -0.318584
-0.456042 -0.001511 -0.316922
-0.455083 -0.001511 -0.315261
-0.455350 -0.001510 -0.312314
-0.454392 -0.001510 -0.310654
-0.453434 -0.001510 -0.308994
-0.452475 -0.001510 -0.307334
-0.452745 -0.001509 -0.304398
-0.453015 -0.001508 -0.301469
-0.452058 -0.001508 -0.299812
-0.451102 -0.001508 -0.298155
-0.450145 -0.001508 -0.296498
-0.450417 -0.001507 -0.293579
-0.449461 -0.001507 -0.291924
-0.448506 -0.001507 -0.290269
-0.447550 -0.001507 -0.288614
-0.447824 -0.001506 -0.285706
-0.446870 -0.001506 -0.284052
-0.445915 -0.001506 -0.282399
-0.446191 -0.001505 -0.279500
-0.445237 -0.001505 -0.277848
-0.444283 -0.001505 -0.276196
-0.443330 -0.001505 -0.274545
-0.442376 -0.001505 -0.272893
-0.441422 -0.001505 -0.271241
-0.439233 -0.001506 -0.270825
-0.438278 -0.001506 -0.269171
-0.437323 -0.001506 -0.267518
-0.436369 -0.001506 -0.265864
-0.435414 -0.001506 -0.264211
-0.434459 -0.001506 -0.262557
-0.433505 -0.001506 -0.260904
-0.432550 -0.001506 -0.259250
-0.431596 -0.001506 -0.257597
-0.430641 -0.001506 -0.255943
-0.428438 -0.001507 -0.255511
-0.427483 -0.001507 -0.253856
-0.426527 -0.001507 -0.252201
-0.424318 -0.001508 -0.251765
-0.423362 -0.001508 -0.250108
-0.422405 -0.001508 -0.248451
-0.420190 -0.001509 -0.248011
-0.419232 -0.001509 -0.246353
-0.417012 -0.001510 -0.245910
-0.416053 -0.001510 -0.244250
-0.413827 -0.001511 -0.243804
-0.412868 -0.001511 -0.242142
-0.410636 -0.001512 -0.241694
-0.409676 -0.001512 -0.240031
-0.407439 -0.001513 -0.239580
-0.406478 -0.001513 -0.237915
-0.404236 -0.001514 -0.237462
-0.401989 -0.001515 -0.237008
-0.401025 -0.001515 -0.235340
-0.398773 -0.001516 -0.234883
-0.395221 -0.001517 -0.235640
-0.392956 -0.001518 -0.235183
-0.389381 -0.001520 -0.235943
-0.391021 -0.001518 -0.231832
-0.391356 -0.001517 -0.228946
-0.391690 -0.001517 -0.226066
-0.392023 -0.001516 -0.223192
-0.392356 -0.001515 -0.220323
-0.392688 -0.001514 -0.217461
-0.393019 -0.001513 -0.214604
-0.393349 -0.001512 -0.211752
-0.393679 -0.001511 -0.208907
-0.394009 -0.001510 -0.206067
-0.393050 -0.001510 -0.204407
-0.393380 -0.001509 -0.201574
-0.392422 -0.001509 -0.199916
-0.392752 -0.001508 -0.197091
-0.393081 -0.001507 -0.194271
-0.393410 -0.001506 -0.191457
-0.393738 -0.001505 -0.188649
-0.392784 -0.001505 -0.186997
-0.393112 -0.001504 -0.184196
-0.393440 -0.001503 -0.181401
-0.392488 -0.001503 -0.179752
-0.394093 -0.001501 -0.175826
-0.394419 -0.001500 -0.173048
-0.394743 -0.001499 -0.170274
-0.393795 -0.001499 -0.168632
-0.394121 -0.001498 -0.165866
-0.394445 -0.001497 -0.163105
-0.393499 -0.001497 -0.161466
-0.393824 -0.001496 -0.158713
-0.394148 -0.001496 -0.155965
-0.393204 -0.001496 -0.154329
-0.393528 -0.001495 -0.151588
-0.393852 -0.001494 -0.148852
-0.392910 -0.001494 -0.147220
-0.394498 -0.001492 -0.143397
-0.393558 -0.001492 -0.141767
-0.393881 -0.001491 -0.139049
-0.392941 -0.001491 -0.137422
-0.393264 -0.001490 -0.134711
-0.392326 -0.001490 -0.133085
-0.392649 -0.001489 -0.130381
-0.391711 -0.001489 -0.128756
-0.392035 -0.001488 -0.126059
-0.391098 -0.001488 -0.124436
-0.391422 -0.001487 -0.121746
-0.390486 -0.001487 -0.120125
-0.389550 -0.001487 -0.118503
-0.389875 -0.001486 -0.115821
-0.388940 -0.001486 -0.114202
-0.388005 -0.001486 -0.112582
-0.388332 -0.001485 -0.109909
-0.387398 -0.001485 -0.108291
-0.386464 -0.001485 -0.106673
-0.385529 -0.001485 -0.105055
-0.385858 -0.001484 -0.102391
-0.384925 -0.001484 -0.100775
-0.383992 -0.001484 -0.099158
-0.384321 -0.001484 -0.096503
-0.383389 -0.001484 -0.094888
-0.382457 -0.001484 -0.093273
-0.382788 -0.001483 -0.090626
-0.381856 -0.001483 -0.089013
-0.380925 -0.001483 -0.087400
-0.381257 -0.001482 -0.084761
-0.380326 -0.001482 -0.083149
-0.379396 -0.001482 -0.081538
-0.379729 -0.001481 -0.078907
-0.378799 -0.001481 -0.077297
-0.377870 -0.001481 -0.075687
-0.376940 -0.001481 -0.074077
-0.377276 -0.001480 -0.071456
-0.376347 -0.001480 -0.069848
-0.375418 -0.001480 -0.068239
-0.375755 -0.001479 -0.065627
-0.374827 -0.001479 -0.064020
-0.375164 -0.001478 -0.061414
-0.374237 -0.001478 -0.059808
-0.372043 -0.001479 -0.059199
-0.372383 -0.001478 -0.056597
-0.371456 -0.001478 -0.054992
-0.370529 -0.001478 -0.053387
-0.369602 -0.001478 -0.051781
-0.368675 -0.001478 -0.050176
-0.367748 -0.001478 -0.048570
-0.366822 -0.001478 -0.046965
-0.365895 -0.001478 -0.045360
-0.364968 -0.001478 -0.043754
-0.364041 -0.001478 -0.042149
-0.363114 -0.001478 -0.040543
-0.362187 -0.001478 -0.038938
-0.361260 -0.001478 -0.037332
-0.360333 -0.001478 -0.035727
-0.359406 -0.001478 -0.034122
-0.358480 -0.001478 -0.032516
-0.357553 -0.001478 -0.030911
-0.356626 -0.001478 -0.029305
-0.355699 -0.001478 -0.027700
-0.354772 -0.001478 -0.026095
-0.352560 -0.001479 -0.025452
-0.351632 -0.001479 -0.023845
-0.350704 -0.001479 -0.022238
-0.349777 -0.001479 -0.020631
-0.348849 -0.001479 -0.019024
-0.347921 -0.001479 -0.017417
-0.346993 -0.001479 -0.015810
-0.346065 -0.001479 -0.014203
-0.345138 -0.001479 -0.012596
-0.344210 -0.001479 -0.010989
-0.343282 -0.001479 -0.009382
-0.341057 -0.001480 -0.008723
-0.340128 -0.001480 -0.007115
-0.339199 -0.001480 -0.005506
-0.338271 -0.001480 -0.003898
-0.337342 -0.001480 -0.002289
-0.336413 -0.001480 -0.000681
-0.335485 -0.001480 0.000928
-0.335860 -0.001479 0.003473
-0.334932 -0.001479 0.005080
-0.334004 -0.001479 0.006687
-0.333076 -0.001479 0.008294
-0.332149 -0.001479 0.009901
-0.331221 -0.001479 0.011508
-0.330293 -0.001479 0.013115
-0.329365 -0.001479 0.014722
-0.328437 -0.001479 0.016329
-0.326198 -0.001480 0.017013
-0.325269 -0.001480 0.018622
-0.324340 -0.001480 0.020230
-0.323412 -0.001480 0.021839
-0.322483 -0.001480 0.023447
-0.321554 -0.001480 0.025056
-0.320626 -0.001480 0.026664
-0.319697 -0.001480 0.028273
-0.318768 -0.001480 0.029882
-0.316517 -0.001481 0.030580
-0.315587 -0.001481 0.032190
-0.314658 -0.001481 0.033800
-0.313728 -0.001481 0.035410
-0.312798 -0.001481 0.037020
-0.311869 -0.001481 0.038630
-0.310939 -0.001481 0.040240
-0.308678 -0.001482 0.040949
-0.306413 -0.001483 0.041659
-0.305481 -0.001483 0.043272
-0.303210 -0.001484 0.043985
-0.302278 -0.001484 0.045600
-0.300002 -0.001484 0.046316
-0.299069 -0.001484 0.047932
-0.296787 -0.001485 0.048651
-0.295853 -0.001485 0.050269
-0.293566 -0.001486 0.050991
-0.292631 -0.001486 0.052611
-0.290339 -0.001487 0.053336
-0.289403 -0.001487 0.054957
-0.288467 -0.001487 0.056578
-0.286168 -0.001488 0.057308
-0.285231 -0.001488 0.058931
-0.284294 -0.001488 0.060553
-0.281989 -0.001489 0.061287
-0.281052 -0.001489 0.062912
-0.278741 -0.001490 0.063649
-0.277802 -0.001490 0.065275
-0.275487 -0.001491 0.066015
-0.274547 -0.001491 0.067643
-0.272226 -0.001492 0.068386
-0.271285 -0.001492 0.070015
-0.268958 -0.001493 0.070761
-0.266627 -0.001494 0.071509
-0.265684 -0.001494 0.073142
-0.263347 -0.001495 0.073893
-0.262404 -0.001495 0.075527
-0.260061 -0.001496 0.076281
-0.257714 -0.001496 0.077036
-0.256769 -0.001496 0.078673
-0.254416 -0.001497 0.079432
-0.253470 -0.001497 0.081071
-0.251112 -0.001498 0.081832
-0.250165 -0.001498 0.083473
-0.247801 -0.001499 0.084238
-0.246853 -0.001499 0.085880
-0.244483 -0.001500 0.086648
-0.243534 -0.001500 0.088291
-0.241159 -0.001501 0.089063
-0.237346 -0.001503 0.088961
-0.236395 -0.001503 0.090610
-0.234005 -0.001504 0.091386
-0.233052 -0.001504 0.093036
-0.230657 -0.001505 0.093815
-0.228257 -0.001506 0.094595
-0.225853 -0.001507 0.095378
-0.223443 -0.001508 0.096161
-0.222486 -0.001508 0.097818
-0.220071 -0.001509 0.098605
-0.217651 -0.001510 0.099393
-0.215226 -0.001511 0.100184
-0.214267 -0.001511 0.101845
-0.211836 -0.001512 0.102639
-0.209400 -0.001513 0.103434
-0.206959 -0.001514 0.104230
-0.205997 -0.001514 0.105897
-0.203551 -0.001515 0.106697
-0.201099 -0.001516 0.107498
-0.198643 -0.001517 0.108301
-0.197677 -0.001517 0.109973
-0.195215 -0.001517 0.110779
-0.192748 -0.001518 0.111588
-0.190276 -0.001519 0.112397
-0.187798 -0.001520 0.113208
-0.183800 -0.001522 0.113154
-0.181308 -0.001523 0.113968
-0.178812 -0.001524 0.114785
-0.176310 -0.001525 0.115602
-0.173803 -0.001526 0.116422
-0.171292 -0.001527 0.117243
-0.168775 -0.001528 0.118066
-0.166253 -0.001529 0.118890
-0.163725 -0.001530 0.119717
-0.161193 -0.001531 0.120545
-0.157095 -0.001533 0.120505
-0.152979 -0.001535 0.120464
-0.148847 -0.001537 0.120424
-0.143111 -0.001540 0.119506
-0.138937 -0.001543 0.119464
-0.134746 -0.001545 0.119421
-0.132146 -0.001546 0.120260
-0.127928 -0.001548 0.120219
-0.123691 -0.001550 0.120178
-0.121067 -0.001551 0.121023
-0.116803 -0.001553 0.120983
-0.112521 -0.001555 0.120943
-0.108221 -0.001557 0.120902
-0.103903 -0.001559 0.120862
-0.101233 -0.001560 0.121716
-0.096886 -0.001562 0.121677
-0.090839 -0.001566 0.120740
-0.086448 -0.001568 0.120699
-0.082037 -0.001570 0.120658
-0.075897 -0.001573 0.119710
-0.069718 -0.001577 0.118757
-0.066965 -0.001578 0.119623
-0.062470 -0.001580 0.119579
-0.056207 -0.001583 0.118619
-0.051665 -0.001585 0.118573
-0.045333 -0.001589 0.117604
-0.040742 -0.001591 0.117555
-0.036131 -0.001593 0.117506
-0.027896 -0.001598 0.115595
-0.023226 -0.001600 0.115541
-0.018537 -0.001602 0.115487
-0.011990 -0.001606 0.114493
-0.007250 -0.001608 0.114436
-0.000630 -0.001612 0.113433
0.004162 -0.001614 0.113373
0.010858 -0.001618 0.112361
0.015702 -0.001620 0.112299
0.022474 -0.001624 0.111277
0.027372 -0.001626 0.111212
0.034221 -0.001630 0.110180
0.039173 -0.001632 0.110113
0.044147 -0.001635 0.110045
0.051108 -0.001638 0.109001
0.056138 -0.001641 0.108931
0.063180 -0.001644 0.107877
0.068267 -0.001647 0.107803
0.073376 -0.001649 0.107729
0.080535 -0.001653 0.106663
0.085702 -0.001656 0.106586
0.092945 -0.001660 0.105510
0.098171 -0.001662 0.105429
0.105499 -0.001666 0.104343
0.110786 -0.001669 0.104259
0.118201 -0.001673 0.103162
0.123549 -0.001675 0.103076
0.126794 -0.001677 0.104007
0.130048 -0.001678 0.104940
0.131175 -0.001678 0.106891
0.134437 -0.001679 0.107829
0.137707 -0.001681 0.108769
0.140985 -0.001682 0.109711
0.142116 -0.001682 0.111670
0.145403 -0.001683 0.112616
0.148697 -0.001685 0.113565
0.152000 -0.001686 0.114517
0.155311 -0.001687 0.115470
0.156447 -0.001687 0.117438
0.161955 -0.001690 0.117384
0.163094 -0.001690 0.119356
0.166429 -0.001691 0.120319
0.169773 -0.001693 0.121284
0.173124 -0.001694 0.122251
0.176484 -0.001695 0.123221
0.177628 -0.001695 0.125203
0.180997 -0.001697 0.126177
0.184374 -0.001698 0.127154
0.185521 -0.001698 0.129140
0.188907 -0.001700 0.130121
0.190055 -0.001700 0.132110
0.193451 -0.001701 0.133097
0.196855 -0.001702 0.134085
0.200268 -0.001704 0.135076
0.203688 -0.001705 0.136069
0.207117 -0.001707 0.137065
0.210554 -0.001708 0.138063
0.214000 -0.001709 0.139063
0.212867 -0.001708 0.142070
0.211738 -0.001707 0.145069
0.210611 -0.001705 0.148060
0.209487 -0.001704 0.151045
0.208366 -0.001702 0.154022
0.204984 -0.001700 0.157967
0.203872 -0.001698 0.160925
0.202763 -0.001697 0.163876
0.201656 -0.001695 0.166821
0.200552 -0.001694 0.169758
0.199451 -0.001693 0.172688
0.200592 -0.001693 0.174665
0.199492 -0.001691 0.177586
0.198395 -0.001690 0.180500
0.197300 -0.001689 0.183407
0.196208 -0.001687 0.186307
0.195119 -0.001686 0.189200
0.194031 -0.001685 0.192086
0.192947 -0.001683 0.194966
0.194079 -0.001683 0.196926
0.192996 -0.001682 0.199797
0.191915 -0.001681 0.202660
0.190837 -0.001679 0.205517
0.189762 -0.001678 0.208367
0.188689 -0.001677 0.211211
0.187618 -0.001675 0.214047
0.188742 -0.001675 0.215994
0.185485 -0.001673 0.219701
0.184422 -0.001671 0.222518
0.185542 -0.001671 0.224458
0.184480 -0.001670 0.227266
0.183421 -0.001669 0.230067
0.182364 -0.001667 0.232862
0.181310 -0.001666 0.235650
0.131778 -0.001636 0.257469
0.108545 -0.001621 0.268866
0.097692 -0.001614 0.275371
0.092849 -0.001611 0.279508
0.088038 -0.001607 0.283618
0.081323 -0.001602 0.288449
0.067026 -0.001593 0.296180
0.060489 -0.001589 0.300894
0.054009 -0.001584 0.305566
0.053171 -0.001583 0.308069
0.048613 -0.001580 0.311981
0.047785 -0.001579 0.314465
0.046958 -0.001578 0.316945
0.047985 -0.001578 0.318722
0.049011 -0.001578 0.320500
0.050037 -0.001578 0.322278
0.051064 -0.001578 0.324055
0.052090 -0.001578 0.325833
0.053117 -0.001578 0.327611
0.054143 -0.001578 0.329388
0.055169 -0.001578 0.331166
0.056196 -0.001578 0.332944
0.057222 -0.001578 0.334721
0.058248 -0.001578 0.336499
0.059275 -0.001578 0.338277
0.060301 -0.001578 0.340054
0.061327 -0.001578 0.341832
0.062354 -0.001578 0.343610
0.063380 -0.001578 0.345387
0.064406 -0.001578 0.347165
0.065433 -0.001578 0.348943
0.066459 -0.001578 0.350720
0.067485 -0.001578 0.352498
0.068512 -0.001578 0.354276
0.069538 -0.001578 0.356053
0.070564 -0.001578 0.357831
0.071591 -0.001578 0.359609
0.072617 -0.001578 0.361386
0.073643 -0.001578 0.363164
0.076553 -0.001579 0.364294
0.077581 -0.001579 0.366073
0.078608 -0.001579 0.367853
0.081526 -0.001580 0.368988
0.082555 -0.001580 0.370770
0.083583 -0.001580 0.372551
0.084612 -0.001580 0.374333
0.085640 -0.001580 0.376114
0.086669 -0.001580 0.377896
0.087698 -0.001580 0.379677
0.088726 -0.001580 0.381459
0.089755 -0.001580 0.383240
0.090783 -0.001580 0.385022
0.091812 -0.001580 0.386803
0.092840 -0.001580 0.388585
0.093869 -0.001580 0.390366
0.094897 -0.001580 0.392148
0.095926 -0.001580 0.393929
0.096954 -0.001580 0.395711
0.097983 -0.001580 0.397492
0.099012 -0.001580 0.399274
0.100040 -0.001580 0.401055
0.101069 -0.001580 0.402837
0.102097 -0.001580 0.404618
0.103126 -0.001580 0.406400
0.104154 -0.001580 0.408181
0.107103 -0.001581 0.409362
0.110059 -0.001582 0.410544
0.116894 -0.001585 0.410526
-0.429067 -0.003528 -0.386704
-0.438369 -0.003504 -0.373846
-0.443739 -0.003488 -0.365281
-0.446543 -0.003479 -0.359507
-0.448079 -0.003474 -0.355115
-0.448358 -0.003471 -0.352083
-0.449885 -0.003465 -0.347720
-0.451406 -0.003459 -0.343374
-0.451681 -0.003456 -0.340370
-0.453193 -0.003450 -0.336052
-0.454700 -0.003444 -0.331752
-0.454970 -0.003441 -0.328774
-0.456468 -0.003435 -0.324501
-0.455507 -0.003435 -0.322836
-0.454546 -0.003435 -0.321171
-0.454814 -0.003432 -0.318213
-0.453854 -0.003432 -0.316549
-0.452894 -0.003432 -0.314886
-0.453164 -0.003430 -0.311937
-0.452204 -0.003430 -0.310275
-0.451245 -0.003430 -0.308613
-0.451517 -0.003427 -0.305674
-0.450558 -0.003427 -0.304014
-0.450830 -0.003424 -0.301081
-0.449873 -0.003424 -0.299423
-0.448915 -0.003424 -0.297764
-0.447958 -0.003424 -0.296106
-0.448232 -0.003421 -0.293185
-0.447275 -0.003421 -0.291528
-0.446319 -0.003421 -0.289871
-0.445362 -0.003421 -0.288214
-0.445639 -0.003418 -0.285304
-0.444683 -0.003418 -0.283649
-0.443728 -0.003418 -0.281993
-0.444006 -0.003415 -0.279092
-0.443051 -0.003415 -0.277438
-0.442097 -0.003415 -0.275785
-0.441142 -0.003415 -0.274132
-0.440187 -0.003415 -0.272478
-0.439233 -0.003415 -0.270825
-0.438278 -0.003415 -0.269171
-0.437323 -0.003415 -0.267518
-0.435127 -0.003418 -0.267097
-0.434172 -0.003418 -0.265442
-0.433216 -0.003418 -0.263787
-0.432261 -0.003418 -0.262132
-0.431305 -0.003418 -0.260477
