ply
format ascii 1.0
element vertex 1694
property float x
property float y
property float z
end_header
0.315292 0.337800 0.068712
0.317085 0.337800 0.069929
0.317376 0.338245 0.072744
0.319167 0.338245 0.073960
0.319456 0.338690 0.076767
0.321244 0.338690 0.077982
0.321530 0.339134 0.080781
0.323317 0.339134 0.081994
0.323600 0.339576 0.084786
0.325384 0.339576 0.085998
0.325665 0.340018 0.088782
0.327448 0.340018 0.089992
0.327726 0.340458 0.092769
0.329506 0.340458 0.093978
0.329781 0.340898 0.096747
0.331560 0.340898 0.097954
0.333338 0.340898 0.099162
0.333609 0.341337 0.101922
0.335386 0.341337 0.103128
0.338674 0.340898 0.102783
0.340452 0.340898 0.103991
0.340715 0.341337 0.106746
0.340977 0.341774 0.109494
0.342752 0.341774 0.110699
0.344526 0.341774 0.111904
0.346301 0.341774 0.113108
0.346556 0.342211 0.115847
0.348329 0.342211 0.117050
0.350101 0.342211 0.118253
0.351874 0.342211 0.119456
0.353646 0.342211 0.120660
0.353894 0.342647 0.123387
0.355664 0.342647 0.124589
0.357435 0.342647 0.125791
0.359205 0.342647 0.126992
0.360976 0.342647 0.128194
0.362746 0.342647 0.129396
0.362983 0.343082 0.132110
0.364751 0.343082 0.133311
0.366520 0.343082 0.134512
0.368288 0.343082 0.135712
0.368519 0.343515 0.138416
0.370285 0.343515 0.139615
0.370513 0.343948 0.142312
0.372278 0.343948 0.143510
0.374042 0.343948 0.144708
0.375807 0.343948 0.145906
0.377571 0.343948 0.147104
0.379336 0.343948 0.148302
0.381101 0.343948 0.149500
0.384418 0.343515 0.149209
0.387742 0.343082 0.148918
0.389511 0.343082 0.150119
0.392845 0.342647 0.149829
0.396186 0.342211 0.149538
0.397959 0.342211 0.150741
0.402892 0.341337 0.148954
0.407847 0.340458 0.147159
0.416036 0.338690 0.142330
-0.200544 0.313033 -0.413427
-0.202508 0.315029 -0.403099
-0.204453 0.317006 -0.392870
-0.215737 0.323781 -0.360954
-0.220325 0.327087 -0.344762
-0.221226 0.328487 -0.337194
-0.221216 0.329415 -0.331766
-0.222108 0.330799 -0.324287
-0.221196 0.331258 -0.320984
-0.221186 0.332174 -0.315630
-0.221176 0.333085 -0.310301
-0.221166 0.333992 -0.304996
-0.221156 0.334895 -0.299715
-0.220254 0.335345 -0.296474
-0.220246 0.336242 -0.291230
-0.220238 0.337134 -0.286010
-0.220230 0.338023 -0.280813
-0.220223 0.338908 -0.275639
-0.220215 0.339789 -0.270489
-0.219325 0.340228 -0.267321
-0.219319 0.341102 -0.262207
-0.219314 0.341973 -0.257115
-0.219308 0.342840 -0.252046
-0.218426 0.343273 -0.248923
-0.218422 0.344134 -0.243889
-0.217544 0.344563 -0.240786
-0.217542 0.345419 -0.235787
-0.219280 0.347119 -0.227036
-0.221865 0.349223 -0.216500
-0.222711 0.350474 -0.209765
-0.221842 0.350889 -0.206749
-0.220976 0.351304 -0.203740
-0.219253 0.351304 -0.202571
-0.218391 0.351717 -0.199569
-0.216670 0.351717 -0.198401
-0.215811 0.352130 -0.195408
-0.214954 0.352542 -0.192421
-0.213237 0.352542 -0.191256
-0.212383 0.352953 -0.188276
-0.210668 0.352953 -0.187112
-0.209819 0.353363 -0.184141
-0.208970 0.353772 -0.181176
-0.207259 0.353772 -0.180014
-0.206415 0.354180 -0.177056
-0.204706 0.354180 -0.175896
-0.203865 0.354587 -0.172946
-0.203026 0.354993 -0.170003
-0.202189 0.355399 -0.167066
-0.200485 0.355399 -0.165909
-0.199652 0.355804 -0.162979
-0.197950 0.355804 -0.161824
-0.197120 0.356207 -0.158902
-0.196292 0.356610 -0.155986
-0.194594 0.356610 -0.154833
-0.193769 0.357012 -0.151925
-0.192073 0.357012 -0.150773
-0.191252 0.357414 -0.147872
-0.190433 0.357814 -0.144978
-0.188740 0.357814 -0.143829
-0.187924 0.358213 -0.140941
-0.186233 0.358213 -0.139793
-0.185421 0.358612 -0.136914
-0.183732 0.358612 -0.135767
-0.182923 0.359010 -0.132894
-0.181236 0.359010 -0.131749
-0.179548 0.359010 -0.130603
-0.177861 0.359010 -0.129458
-0.176174 0.359010 -0.128312
-0.174486 0.359010 -0.127167
-0.172799 0.359010 -0.126021
-0.171111 0.359010 -0.124876
-0.169424 0.359010 -0.123730
-0.167736 0.359010 -0.122585
-0.166049 0.359010 -0.121439
-0.164361 0.359010 -0.120294
-0.162674 0.359010 -0.119148
-0.160986 0.359010 -0.118002
-0.159299 0.359010 -0.116857
-0.156704 0.358612 -0.117419
-0.155014 0.358612 -0.116272
-0.153325 0.358612 -0.115125
-0.151636 0.358612 -0.113979
-0.149947 0.358612 -0.112832
-0.148257 0.358612 -0.111685
-0.146568 0.358612 -0.110538
-0.144879 0.358612 -0.109392
-0.143190 0.358612 -0.108245
-0.141500 0.358612 -0.107098
-0.139811 0.358612 -0.105951
-0.138122 0.358612 -0.104805
-0.136432 0.358612 -0.103658
-0.134743 0.358612 -0.102511
-0.133054 0.358612 -0.101364
-0.131365 0.358612 -0.100218
-0.129675 0.358612 -0.099071
-0.127986 0.358612 -0.097924
-0.125355 0.358213 -0.098466
-0.123664 0.358213 -0.097318
-0.121972 0.358213 -0.096170
-0.120281 0.358213 -0.095022
-0.118590 0.358213 -0.093874
-0.116899 0.358213 -0.092726
-0.114253 0.357814 -0.093264
-0.112560 0.357814 -0.092114
-0.110867 0.357814 -0.090965
-0.108212 0.357414 -0.091501
-0.106517 0.357414 -0.090351
-0.104823 0.357414 -0.089200
-0.102158 0.357012 -0.089735
-0.099487 0.356610 -0.090271
-0.097789 0.356610 -0.089118
-0.095111 0.356207 -0.089653
-0.093411 0.356207 -0.088499
-0.091711 0.356207 -0.087345
-0.089023 0.355804 -0.087880
-0.087321 0.355804 -0.086724
-0.085619 0.355804 -0.085569
-0.082922 0.355399 -0.086102
-0.081218 0.355399 -0.084945
-0.079515 0.355399 -0.083789
-0.077811 0.355399 -0.082632
-0.075103 0.354993 -0.083162
-0.072388 0.354587 -0.083694
-0.070681 0.354587 -0.082535
-0.067959 0.354180 -0.083066
-0.065232 0.353772 -0.083599
-0.062498 0.353363 -0.084133
-0.059758 0.352953 -0.084668
-0.058044 0.352953 -0.083503
-0.055296 0.352542 -0.084038
-0.052543 0.352130 -0.084574
-0.050824 0.352130 -0.083408
-0.048063 0.351717 -0.083943
-0.045296 0.351304 -0.084480
-0.043574 0.351304 -0.083311
-0.040799 0.350889 -0.083848
-0.039074 0.350889 -0.082678
-0.036291 0.350474 -0.083215
-0.032437 0.349641 -0.085466
-0.029638 0.349223 -0.086008
-0.027906 0.349223 -0.084832
-0.025099 0.348804 -0.085374
-0.022285 0.348384 -0.085916
-0.019465 0.347963 -0.086460
-0.016639 0.347541 -0.087005
-0.013807 0.347119 -0.087552
-0.010969 0.346695 -0.088099
-0.008124 0.346271 -0.088648
-0.005273 0.345845 -0.089198
-0.002416 0.345419 -0.089749
0.000447 0.344991 -0.090301
0.003317 0.344563 -0.090855
0.005070 0.344563 -0.089665
0.009076 0.343704 -0.091966
0.011965 0.343273 -0.092523
0.014861 0.342840 -0.093082
0.017763 0.342407 -0.093642
0.020671 0.341973 -0.094203
0.024739 0.341102 -0.096529
0.026507 0.341102 -0.095328
0.029435 0.340665 -0.095893
0.032370 0.340228 -0.096459
0.036482 0.339349 -0.098801
0.040613 0.338466 -0.101154
0.043576 0.338023 -0.101729
0.048930 0.336688 -0.105890
0.053117 0.335794 -0.108275
0.057323 0.334895 -0.110670
0.061549 0.333992 -0.113076
0.065793 0.333085 -0.115493
0.070057 0.332174 -0.117922
0.078073 0.329877 -0.125894
0.267600 0.260554 -0.402181
0.273187 0.259281 -0.405827
0.278804 0.258000 -0.409493
0.282698 0.257358 -0.410604
0.295459 0.253464 -0.424686
0.318228 0.329877 0.037135
0.317001 0.330799 0.041686
0.315780 0.331717 0.046216
0.314564 0.332630 0.050725
0.313353 0.333539 0.055214
0.313651 0.333992 0.058062
0.312446 0.334895 0.062519
0.311248 0.335794 0.066956
0.313040 0.335794 0.068173
0.314833 0.335794 0.069390
0.315127 0.336242 0.072205
0.316917 0.336242 0.073421
0.317208 0.336688 0.076229
0.318997 0.336688 0.077443
0.319285 0.337134 0.080244
0.321072 0.337134 0.081456
0.321358 0.337579 0.084249
0.323142 0.337579 0.085460
0.323425 0.338023 0.088245
0.325208 0.338023 0.089456
0.325488 0.338466 0.092233
0.327269 0.338466 0.093442
0.327547 0.338908 0.096212
0.329325 0.338908 0.097419
0.329601 0.339349 0.100181
0.331377 0.339349 0.101387
0.333154 0.339349 0.102593
0.334930 0.339349 0.103799
0.335199 0.339789 0.106551
0.336973 0.339789 0.107756
0.338748 0.339789 0.108960
0.340522 0.339789 0.110165
0.342297 0.339789 0.111369
0.344071 0.339789 0.112574
0.345846 0.339789 0.113779
0.346102 0.340228 0.116516
0.346357 0.340665 0.119248
0.348128 0.340665 0.120450
0.349898 0.340665 0.121652
0.351669 0.340665 0.122854
0.353439 0.340665 0.124056
0.355210 0.340665 0.125258
0.355455 0.341102 0.127976
0.357224 0.341102 0.129177
0.358992 0.341102 0.130378
0.360761 0.341102 0.131578
0.362529 0.341102 0.132779
0.362766 0.341538 0.135486
0.364533 0.341538 0.136685
0.364767 0.341973 0.139385
0.366531 0.341973 0.140583
0.366763 0.342407 0.143276
0.368526 0.342407 0.144472
0.370288 0.342407 0.145669
0.372051 0.342407 0.146866
0.373814 0.342407 0.148062
0.375576 0.342407 0.149259
0.377339 0.342407 0.150455
0.379101 0.342407 0.151652
0.380864 0.342407 0.152848
0.384177 0.341973 0.152562
0.387498 0.341538 0.152275
0.389264 0.341538 0.153474
0.392594 0.341102 0.153188
0.395932 0.340665 0.152901
0.399277 0.340228 0.152614
0.402629 0.339789 0.152326
0.407578 0.338908 0.150540
0.415756 0.337134 0.145733
-0.202892 0.309901 -0.419845
-0.205809 0.312418 -0.407202
-0.206789 0.313914 -0.399178
-0.208709 0.315892 -0.388992
-0.222641 0.324093 -0.350805
-0.224442 0.325976 -0.341088
-0.225326 0.327377 -0.333551
-0.225306 0.328305 -0.328144
-0.225287 0.329229 -0.322761
-0.225268 0.330149 -0.317403
-0.224354 0.330608 -0.314120
-0.224337 0.331521 -0.308800
-0.224320 0.332431 -0.303504
-0.224303 0.333337 -0.298232
-0.224286 0.334238 -0.292984
-0.223383 0.334687 -0.289762
-0.223369 0.335582 -0.284551
-0.223354 0.336473 -0.279364
-0.223339 0.337361 -0.274199
-0.223324 0.338244 -0.269058
-0.223310 0.339123 -0.263940
-0.222419 0.339561 -0.260790
-0.222407 0.340435 -0.255707
-0.222394 0.341304 -0.250647
-0.221510 0.341738 -0.247529
-0.221499 0.342602 -0.242504
-0.221489 0.343462 -0.237500
-0.221479 0.344318 -0.232520
-0.224056 0.346442 -0.221930
-0.224897 0.347705 -0.215162
-0.225733 0.348960 -0.208439
-0.224862 0.349376 -0.205428
-0.223140 0.349376 -0.204258
-0.222273 0.349792 -0.201255
-0.221408 0.350207 -0.198259
-0.219689 0.350207 -0.197092
-0.218827 0.350621 -0.194103
-0.217111 0.350621 -0.192938
-0.216253 0.351034 -0.189957
-0.215397 0.351445 -0.186982
-0.213684 0.351445 -0.185819
-0.212832 0.351857 -0.182852
-0.211121 0.351857 -0.181691
-0.210272 0.352267 -0.178731
-0.209425 0.352676 -0.175778
-0.207718 0.352676 -0.174619
-0.206875 0.353085 -0.171674
-0.205169 0.353085 -0.170516
-0.204330 0.353492 -0.167578
-0.203492 0.353899 -0.164647
-0.202656 0.354305 -0.161722
-0.200956 0.354305 -0.160568
-0.200124 0.354710 -0.157650
-0.198426 0.354710 -0.156497
-0.197597 0.355114 -0.153587
-0.196770 0.355517 -0.150683
-0.195076 0.355517 -0.149533
-0.194253 0.355920 -0.146637
-0.192560 0.355920 -0.145487
-0.191740 0.356321 -0.142598
-0.190922 0.356722 -0.139716
-0.189233 0.356722 -0.138569
-0.188419 0.357121 -0.135693
-0.186731 0.357121 -0.134548
-0.185920 0.357520 -0.131680
-0.184235 0.357520 -0.130535
-0.182549 0.357520 -0.129391
-0.180863 0.357520 -0.128247
-0.179178 0.357520 -0.127103
-0.177492 0.357520 -0.125958
-0.175806 0.357520 -0.124814
-0.174121 0.357520 -0.123670
-0.172435 0.357520 -0.122525
-0.170749 0.357520 -0.121381
-0.169064 0.357520 -0.120237
-0.167378 0.357520 -0.119092
-0.165692 0.357520 -0.117948
-0.164007 0.357520 -0.116804
-0.162321 0.357520 -0.115659
-0.160635 0.357520 -0.114515
-0.158044 0.357121 -0.115074
-0.156357 0.357121 -0.113928
-0.154669 0.357121 -0.112783
-0.152982 0.357121 -0.111637
-0.151294 0.357121 -0.110492
-0.149607 0.357121 -0.109346
-0.147919 0.357121 -0.108201
-0.146232 0.357121 -0.107055
-0.144545 0.357121 -0.105910
-0.142857 0.357121 -0.104764
-0.141170 0.357121 -0.103619
-0.139482 0.357121 -0.102473
-0.137795 0.357121 -0.101328
-0.136107 0.357121 -0.100182
-0.134420 0.357121 -0.099036
-0.132732 0.357121 -0.097891
-0.131045 0.357121 -0.096745
-0.129357 0.357121 -0.095600
-0.126730 0.356722 -0.096139
-0.125041 0.356722 -0.094992
-0.123352 0.356722 -0.093846
-0.121662 0.356722 -0.092699
-0.119024 0.356321 -0.093236
-0.117333 0.356321 -0.092088
-0.115642 0.356321 -0.090940
-0.113951 0.356321 -0.089792
-0.112260 0.356321 -0.088644
-0.109609 0.355920 -0.089176
-0.107916 0.355920 -0.088027
-0.105257 0.355517 -0.088560
-0.103563 0.355517 -0.087410
-0.100896 0.355114 -0.087942
-0.099200 0.355114 -0.086791
-0.096526 0.354710 -0.087323
-0.094828 0.354710 -0.086170
-0.093130 0.354710 -0.085017
-0.090447 0.354305 -0.085549
-0.088746 0.354305 -0.084395
-0.087046 0.354305 -0.083240
-0.084354 0.353899 -0.083770
-0.082652 0.353899 -0.082615
-0.079952 0.353492 -0.083145
-0.079248 0.353899 -0.080304
-0.076544 0.353492 -0.080832
-0.073834 0.353085 -0.081360
-0.072129 0.353085 -0.080202
-0.069411 0.352676 -0.080731
-0.066688 0.352267 -0.081260
-0.063959 0.351857 -0.081791
-0.061224 0.351445 -0.082323
-0.059511 0.351445 -0.081160
-0.056768 0.351034 -0.081691
-0.054020 0.350621 -0.082224
-0.052303 0.350621 -0.081059
-0.049547 0.350207 -0.081592
-0.046784 0.349792 -0.082125
-0.045064 0.349792 -0.080957
-0.042293 0.349376 -0.081491
-0.040571 0.349376 -0.080322
-0.037792 0.348960 -0.080856
-0.035008 0.348543 -0.081391
-0.031151 0.347705 -0.083638
-0.029421 0.347705 -0.082464
-0.026618 0.347285 -0.083002
-0.023810 0.346864 -0.083542
-0.020995 0.346442 -0.084082
-0.018174 0.346019 -0.084624
-0.015346 0.345595 -0.085167
-0.012513 0.345170 -0.085712
-0.009673 0.344744 -0.086257
-0.006827 0.344318 -0.086804
-0.003974 0.343890 -0.087352
-0.001116 0.343462 -0.087901
0.001749 0.343032 -0.088451
0.004621 0.342602 -0.089003
0.007498 0.342170 -0.089556
0.009253 0.342170 -0.088364
0.012139 0.341738 -0.088917
0.015032 0.341304 -0.089471
0.019073 0.340435 -0.091779
0.021983 0.339999 -0.092338
0.024899 0.339561 -0.092898
0.027822 0.339123 -0.093460
0.030752 0.338684 -0.094022
0.033688 0.338244 -0.094586
0.037803 0.337361 -0.096924
0.040757 0.336918 -0.097493
0.044902 0.336028 -0.099845
0.049065 0.335135 -0.102208
0.053248 0.334238 -0.104582
0.057450 0.333337 -0.106966
0.061670 0.332431 -0.109361
0.065910 0.331521 -0.111767
0.071402 0.330149 -0.116010
0.075688 0.329229 -0.118445
0.272638 0.256887 -0.405019
0.278254 0.255600 -0.408683
0.282148 0.254954 -0.409793
0.289578 0.253006 -0.416070
0.236068 0.295229 -0.207098
0.236488 0.295770 -0.203667
0.235366 0.296850 -0.198159
0.235785 0.297387 -0.194752
0.236203 0.297923 -0.191352
0.235088 0.298992 -0.185902
0.235505 0.299524 -0.182527
0.235922 0.300055 -0.179159
0.237866 0.300055 -0.177839
0.239811 0.300055 -0.176519
0.241755 0.300055 -0.175199
0.243700 0.300055 -0.173879
0.245644 0.300055 -0.172559
0.247589 0.300055 -0.171239
0.249533 0.300055 -0.169919
0.249932 0.300585 -0.166571
0.251874 0.300585 -0.165253
0.253817 0.300585 -0.163934
0.255759 0.300585 -0.162616
0.257701 0.300585 -0.161297
0.259643 0.300585 -0.159979
0.261585 0.300585 -0.158661
0.263527 0.300585 -0.157342
0.265469 0.300585 -0.156024
0.267411 0.300585 -0.154705
0.269354 0.300585 -0.153387
0.271296 0.300585 -0.152069
0.273238 0.300585 -0.150750
0.275180 0.300585 -0.149432
0.277122 0.300585 -0.148113
0.279064 0.300585 -0.146795
0.279426 0.301113 -0.143479
0.281366 0.301113 -0.142163
0.284891 0.300585 -0.142840
0.286833 0.300585 -0.141521
0.290368 0.300055 -0.142198
0.292313 0.300055 -0.140878
0.294257 0.300055 -0.139558
0.297806 0.299524 -0.140234
0.299753 0.299524 -0.138912
0.303313 0.298992 -0.139588
0.305263 0.298992 -0.138264
0.317170 0.326911 0.032014
0.315942 0.327841 0.036587
0.314720 0.328768 0.041139
0.313504 0.329690 0.045671
0.313803 0.330149 0.048542
0.312592 0.331065 0.053041
0.311388 0.331977 0.057520
0.310189 0.332884 0.061978
0.311985 0.332884 0.063198
0.310788 0.333788 0.067633
0.312580 0.333788 0.068850
0.312877 0.334238 0.071666
0.314667 0.334238 0.072882
0.314961 0.334687 0.075691
0.316750 0.334687 0.076905
0.317041 0.335135 0.079706
0.318827 0.335135 0.080919
0.319115 0.335582 0.083712
0.320900 0.335582 0.084923
0.321186 0.336028 0.087709
0.322968 0.336028 0.088919
0.323251 0.336473 0.091697
0.323534 0.336918 0.094469
0.325312 0.336918 0.095676
0.327091 0.336918 0.096884
0.327368 0.337361 0.099646
0.329145 0.337361 0.100852
0.330921 0.337361 0.102058
0.331195 0.337803 0.104812
0.332969 0.337803 0.106017
0.334744 0.337803 0.107221
0.335012 0.338244 0.109967
0.336785 0.338244 0.111170
0.338557 0.338244 0.112373
0.338821 0.338684 0.115109
0.340592 0.338684 0.116311
0.342362 0.338684 0.117513
0.344133 0.338684 0.118715
0.345903 0.338684 0.119917
0.347674 0.338684 0.121119
0.349444 0.338684 0.122321
0.351215 0.338684 0.123523
0.352985 0.338684 0.124725
0.353233 0.339123 0.127444
0.355002 0.339123 0.128645
0.355247 0.339561 0.131357
0.357013 0.339561 0.132556
0.358780 0.339561 0.133755
0.360546 0.339561 0.134954
0.362313 0.339561 0.136153
0.361023 0.340435 0.140352
0.362786 0.340435 0.141549
0.364548 0.340435 0.142745
0.366311 0.340435 0.143942
0.366543 0.340870 0.146628
0.368303 0.340870 0.147823
0.370064 0.340870 0.149018
0.371825 0.340870 0.150213
0.373585 0.340870 0.151409
0.375346 0.340870 0.152604
0.377107 0.340870 0.153799
0.378867 0.340870 0.154994
0.380628 0.340870 0.156190
0.383937 0.340435 0.155907
0.387254 0.339999 0.155625
0.390578 0.339561 0.155341
0.392344 0.339561 0.156540
0.395678 0.339123 0.156258
0.399019 0.338684 0.155974
0.402367 0.338244 0.155690
0.407310 0.337361 0.153914
0.415478 0.335582 0.149127
-0.204285 0.306243 -0.428595
-0.207203 0.308790 -0.415855
-0.209135 0.310807 -0.405516
-0.211049 0.312804 -0.395275
-0.222225 0.319648 -0.363320
-0.226761 0.322986 -0.347109
-0.228539 0.324870 -0.337432
-0.228512 0.325805 -0.332009
-0.228485 0.326736 -0.326612
-0.228458 0.327663 -0.321239
-0.228432 0.328586 -0.315890
-0.228405 0.329504 -0.310566
-0.227492 0.329962 -0.307302
-0.227467 0.330874 -0.302016
-0.227443 0.331782 -0.296753
-0.227419 0.332686 -0.291515
-0.227395 0.333585 -0.286300
-0.226492 0.334034 -0.283096
-0.226470 0.334927 -0.277917
-0.226449 0.335817 -0.272762
-0.226427 0.336703 -0.267630
-0.226406 0.337585 -0.262521
-0.226384 0.338462 -0.257434
-0.225493 0.338900 -0.254302
-0.225474 0.339772 -0.249250
-0.225455 0.340640 -0.244221
-0.224570 0.341073 -0.241121
-0.224552 0.341935 -0.236126
-0.226258 0.343648 -0.227384
-0.227094 0.344924 -0.220583
-0.227071 0.345769 -0.215683
-0.227900 0.347030 -0.208958
-0.227876 0.347867 -0.204109
-0.227004 0.348284 -0.201109
-0.225286 0.348284 -0.199943
-0.224418 0.348699 -0.196951
-0.222701 0.348699 -0.195785
-0.221837 0.349114 -0.192801
-0.220123 0.349114 -0.191637
-0.219262 0.349529 -0.188661
-0.218404 0.349942 -0.185691
-0.216693 0.349942 -0.184529
-0.215838 0.350354 -0.181567
-0.214129 0.350354 -0.180406
-0.213278 0.350765 -0.177451
-0.212429 0.351176 -0.174503
-0.210724 0.351176 -0.173345
-0.209878 0.351586 -0.170405
-0.208174 0.351586 -0.169248
-0.207333 0.351994 -0.166315
-0.206493 0.352402 -0.163388
-0.205655 0.352809 -0.160467
-0.203956 0.352809 -0.159314
-0.203122 0.353215 -0.156401
-0.201425 0.353215 -0.155250
-0.200594 0.353621 -0.152344
-0.199765 0.354025 -0.149445
-0.198073 0.354025 -0.148295
-0.197247 0.354429 -0.145403
-0.195556 0.354429 -0.144255
-0.194734 0.354831 -0.141371
-0.193045 0.354831 -0.140224
-0.192226 0.355233 -0.137347
-0.190539 0.355233 -0.136201
-0.188851 0.355233 -0.135056
-0.188911 0.356034 -0.130468
-0.187227 0.356034 -0.129325
-0.185543 0.356034 -0.128181
-0.183859 0.356034 -0.127038
-0.182175 0.356034 -0.125895
-0.180491 0.356034 -0.124752
-0.178808 0.356034 -0.123609
-0.177124 0.356034 -0.122466
-0.175440 0.356034 -0.121323
-0.173756 0.356034 -0.120180
-0.171182 0.355634 -0.120744
-0.169496 0.355634 -0.119600
-0.167810 0.355634 -0.118455
-0.166125 0.355634 -0.117311
-0.164439 0.355634 -0.116167
-0.162753 0.355634 -0.115023
-0.161068 0.355634 -0.113878
-0.159382 0.355634 -0.112734
-0.157696 0.355634 -0.111590
-0.156011 0.355634 -0.110445
-0.154325 0.355634 -0.109301
-0.152639 0.355634 -0.108157
-0.150954 0.355634 -0.107012
-0.149268 0.355634 -0.105868
-0.147582 0.355634 -0.104724
-0.145897 0.355634 -0.103579
-0.144211 0.355634 -0.102435
-0.142525 0.355634 -0.101291
-0.139915 0.355233 -0.101836
-0.138227 0.355233 -0.100690
-0.136540 0.355233 -0.099544
-0.134853 0.355233 -0.098399
-0.133165 0.355233 -0.097253
-0.132411 0.355634 -0.094425
-0.130726 0.355634 -0.093281
-0.128103 0.355233 -0.093817
-0.126415 0.355233 -0.092671
-0.124728 0.355233 -0.091526
-0.122096 0.354831 -0.092061
-0.120406 0.354831 -0.090914
-0.118717 0.354831 -0.089767
-0.117028 0.354831 -0.088620
-0.115339 0.354831 -0.087474
-0.112694 0.354429 -0.088005
-0.111002 0.354429 -0.086857
-0.108350 0.354025 -0.087388
-0.106657 0.354025 -0.086238
-0.104964 0.354025 -0.085089
-0.102303 0.353621 -0.085619
-0.100608 0.353621 -0.084468
-0.097938 0.353215 -0.084998
-0.096242 0.353215 -0.083846
-0.093565 0.352809 -0.084376
-0.091867 0.352809 -0.083223
-0.090169 0.352809 -0.082070
-0.087482 0.352402 -0.082598
-0.085782 0.352402 -0.081444
-0.084082 0.352402 -0.080290
-0.081386 0.351994 -0.080817
-0.079684 0.351994 -0.079661
-0.077982 0.351994 -0.078506
-0.075277 0.351586 -0.079031
-0.073573 0.351586 -0.077875
-0.070861 0.351176 -0.078400
-0.068142 0.350765 -0.078926
-0.065417 0.350354 -0.079454
-0.062687 0.349942 -0.079983
-0.060976 0.349942 -0.078821
-0.058238 0.349529 -0.079350
-0.055493 0.349114 -0.079879
-0.053779 0.349114 -0.078715
-0.051027 0.348699 -0.079245
-0.048269 0.348284 -0.079776
-0.046550 0.348284 -0.078609
-0.043784 0.347867 -0.079140
-0.042064 0.347867 -0.077972
-0.039290 0.347449 -0.078502
-0.036510 0.347030 -0.079034
-0.034786 0.347030 -0.077863
-0.031999 0.346611 -0.078395
-0.028135 0.345769 -0.080636
-0.025331 0.345347 -0.081172
-0.022521 0.344924 -0.081710
-0.019704 0.344499 -0.082249
-0.016882 0.344074 -0.082788
-0.014053 0.343648 -0.083329
-0.012314 0.343648 -0.082149
-0.009477 0.343222 -0.082690
-0.006633 0.342794 -0.083232
-0.003784 0.342365 -0.083775
-0.000928 0.341935 -0.084320
0.001934 0.341504 -0.084866
0.004802 0.341073 -0.085413
0.007677 0.340640 -0.085961
0.010558 0.340206 -0.086510
0.013445 0.339772 -0.087061
0.016339 0.339336 -0.087613
0.020384 0.338462 -0.089917
0.023295 0.338024 -0.090473
0.026213 0.337585 -0.091032
0.029137 0.337144 -0.091591
0.032068 0.336703 -0.092152
0.035006 0.336260 -0.092713
0.037950 0.335817 -0.093277
0.042079 0.334927 -0.095614
0.046227 0.334034 -0.097962
0.049200 0.333585 -0.098534
0.053378 0.332686 -0.100896
0.057576 0.331782 -0.103270
0.061792 0.330874 -0.105654
0.066027 0.329962 -0.108048
0.071513 0.328586 -0.112274
0.075795 0.327663 -0.114698
0.085111 0.324870 -0.124512
0.283349 0.251900 -0.411553
0.289025 0.250592 -0.415255
0.219150 0.289734 -0.236532
0.219594 0.290287 -0.233038
0.218506 0.291387 -0.227416
0.218950 0.291936 -0.223947
0.217867 0.293029 -0.218368
0.218310 0.293573 -0.214923
0.218751 0.294116 -0.211486
0.219192 0.294657 -0.208058
0.218115 0.295737 -0.202553
0.218555 0.296274 -0.199149
0.218993 0.296810 -0.195752
0.219431 0.297345 -0.192364
0.219867 0.297879 -0.188985
0.220302 0.298411 -0.185613
0.219232 0.299472 -0.180211
0.219667 0.300001 -0.176863
0.220100 0.300528 -0.173523
0.220532 0.301054 -0.170191
0.220964 0.301578 -0.166867
0.222892 0.301578 -0.165558
0.224820 0.301578 -0.164250
0.225245 0.302101 -0.160937
0.227171 0.302101 -0.159630
0.229096 0.302101 -0.158323
0.231022 0.302101 -0.157016
0.232947 0.302101 -0.155708
0.234873 0.302101 -0.154401
0.236799 0.302101 -0.153094
0.238724 0.302101 -0.151787
0.240650 0.302101 -0.150480
0.242575 0.302101 -0.149172
0.244501 0.302101 -0.147865
0.246427 0.302101 -0.146558
0.248352 0.302101 -0.145251
0.250278 0.302101 -0.143944
0.252203 0.302101 -0.142637
0.254129 0.302101 -0.141329
0.257595 0.301578 -0.142000
0.259522 0.301578 -0.140692
0.261450 0.301578 -0.139383
0.263378 0.301578 -0.138074
0.265306 0.301578 -0.136765
0.267234 0.301578 -0.135456
0.269162 0.301578 -0.134148
0.271090 0.301578 -0.132839
0.273018 0.301578 -0.131530
0.274946 0.301578 -0.130221
0.278441 0.301054 -0.130880
0.280371 0.301054 -0.129569
0.282302 0.301054 -0.128259
0.285810 0.300528 -0.128916
0.287743 0.300528 -0.127604
0.289675 0.300528 -0.126292
0.293197 0.300001 -0.126947
0.296727 0.299472 -0.127604
0.300266 0.298942 -0.128262
0.305426 0.297879 -0.130903
0.310611 0.296810 -0.133558
0.314879 0.324870 0.031465
0.315177 0.325338 0.034373
0.312440 0.326736 0.040593
0.312740 0.327200 0.043477
0.311530 0.328125 0.047998
0.310325 0.329045 0.052498
0.309125 0.329962 0.056978
0.307931 0.330874 0.061437
0.309728 0.330874 0.062657
0.310028 0.331328 0.065487
0.310328 0.331782 0.068310
0.310627 0.332234 0.071127
0.312418 0.332234 0.072343
0.312714 0.332686 0.075152
0.314502 0.332686 0.076366
0.314796 0.333136 0.079168
0.316582 0.333136 0.080381
0.316873 0.333585 0.083175
0.318658 0.333585 0.084386
0.320442 0.333585 0.085598
0.320729 0.334034 0.088382
0.322511 0.334034 0.089592
0.321299 0.334927 0.093934
0.323077 0.334927 0.095141
0.324856 0.334927 0.096348
0.325136 0.335373 0.099112
0.326913 0.335373 0.100318
0.328689 0.335373 0.101523
0.328965 0.335817 0.104278
0.330739 0.335817 0.105483
0.332514 0.335817 0.106687
0.332785 0.336260 0.109433
0.334558 0.336260 0.110636
0.336330 0.336260 0.111840
0.336597 0.336703 0.114576
0.338367 0.336703 0.115778
0.340138 0.336703 0.116980
0.340400 0.337144 0.119708
0.342168 0.337144 0.120909
0.343937 0.337144 0.122109
0.344194 0.337585 0.124829
0.345961 0.337585 0.126028
0.347727 0.337585 0.127227
0.349494 0.337585 0.128426
0.351260 0.337585 0.129626
0.353027 0.337585 0.130825
0.354794 0.337585 0.132024
0.356560 0.337585 0.133223
0.358327 0.337585 0.134422
0.360093 0.337585 0.135622
0.357288 0.338900 0.141317
0.359048 0.338900 0.142512
0.360809 0.338900 0.143707
0.362570 0.338900 0.144902
0.364330 0.338900 0.146098
0.366091 0.338900 0.147293
0.367852 0.338900 0.148488
0.368081 0.339336 0.151166
0.369840 0.339336 0.152360
0.371599 0.339336 0.153554
0.373358 0.339336 0.154748
0.375116 0.339336 0.155942
0.376875 0.339336 0.157136
0.378634 0.339336 0.158329
0.381937 0.338900 0.158050
0.383698 0.338900 0.159245
0.387010 0.338462 0.158966
0.390330 0.338024 0.158687
0.392095 0.338024 0.159885
0.395424 0.337585 0.159606
0.398761 0.337144 0.159327
0.402106 0.336703 0.159047
0.407042 0.335817 0.157281
0.415200 0.334034 0.152514
-0.205687 0.302557 -0.437409
-0.209568 0.305649 -0.422279
-0.211493 0.307685 -0.411884
-0.212454 0.309199 -0.403834
-0.214350 0.311202 -0.393613
-0.229994 0.320460 -0.351028
-0.230862 0.321885 -0.343430
-0.232617 0.323769 -0.333792
-0.232581 0.324705 -0.328390
-0.231656 0.325171 -0.325083
-0.231622 0.326101 -0.319720
-0.231589 0.327026 -0.314381
-0.231555 0.327947 -0.309067
-0.231521 0.328863 -0.303776
-0.230607 0.329320 -0.300531
-0.230576 0.330230 -0.295278
-0.230545 0.331137 -0.290048
-0.230514 0.332039 -0.284843
-0.230483 0.332937 -0.279660
-0.229580 0.333385 -0.276475
-0.230422 0.334722 -0.269365
-0.229523 0.335165 -0.266205
-0.229494 0.336049 -0.261104
-0.229466 0.336930 -0.256027
-0.229438 0.337806 -0.250971
-0.228547 0.338243 -0.247857
-0.228521 0.339113 -0.242836
-0.228495 0.339980 -0.237838
-0.228469 0.340843 -0.232862
-0.230153 0.342557 -0.224153
-0.230124 0.343409 -0.219240
-0.230944 0.344679 -0.212495
-0.230913 0.345522 -0.207634
-0.230037 0.345941 -0.204627
-0.230009 0.346778 -0.199798
-0.228292 0.346778 -0.198633
-0.226575 0.346778 -0.197468
-0.225707 0.347195 -0.194482
-0.224841 0.347612 -0.191502
-0.223128 0.347612 -0.190339
-0.222265 0.348027 -0.187367
-0.220554 0.348027 -0.186206
-0.219695 0.348441 -0.183242
-0.218839 0.348855 -0.180284
-0.217131 0.348855 -0.179125
-0.216278 0.349267 -0.176175
-0.214572 0.349267 -0.175017
-0.213723 0.349679 -0.172074
-0.212875 0.350090 -0.169138
-0.211173 0.350090 -0.167982
-0.210329 0.350500 -0.165054
-0.208629 0.350500 -0.163900
-0.207789 0.350909 -0.160978
-0.206950 0.351317 -0.158064
-0.206113 0.351724 -0.155155
-0.204419 0.351724 -0.154005
-0.203585 0.352131 -0.151103
-0.201892 0.352131 -0.149954
-0.201063 0.352536 -0.147060
-0.200235 0.352941 -0.144173
-0.198546 0.352941 -0.143026
-0.196857 0.352941 -0.141879
-0.196034 0.353345 -0.139000
-0.195213 0.353748 -0.136128
-0.193528 0.353748 -0.134983
-0.191842 0.353748 -0.133839
-0.191027 0.354150 -0.130975
-0.189343 0.354150 -0.129831
-0.188531 0.354551 -0.126975
-0.186849 0.354551 -0.125833
-0.185167 0.354551 -0.124691
-0.182607 0.354150 -0.125259
-0.180923 0.354150 -0.124116
-0.179239 0.354150 -0.122973
-0.177556 0.354150 -0.121830
-0.175872 0.354150 -0.120687
-0.174188 0.354150 -0.119544
-0.172504 0.354150 -0.118401
-0.170820 0.354150 -0.117257
-0.169136 0.354150 -0.116114
-0.167452 0.354150 -0.114971
-0.165769 0.354150 -0.113828
-0.164085 0.354150 -0.112685
-0.162401 0.354150 -0.111542
-0.160717 0.354150 -0.110399
-0.159033 0.354150 -0.109256
-0.157349 0.354150 -0.108113
-0.154757 0.353748 -0.108664
-0.153072 0.353748 -0.107520
-0.151386 0.353748 -0.106376
-0.149700 0.353748 -0.105231
-0.148015 0.353748 -0.104087
-0.146329 0.353748 -0.102943
-0.144643 0.353748 -0.101798
-0.142958 0.353748 -0.100654
-0.141272 0.353748 -0.099510
-0.139586 0.353748 -0.098365
-0.137901 0.353748 -0.097221
-0.136215 0.353748 -0.096077
-0.134529 0.353748 -0.094932
-0.133775 0.354150 -0.092110
-0.131158 0.353748 -0.092644
-0.129472 0.353748 -0.091500
-0.127787 0.353748 -0.090355
-0.125161 0.353345 -0.090888
-0.123473 0.353345 -0.089743
-0.121786 0.353345 -0.088597
-0.120098 0.353345 -0.087452
-0.117461 0.352941 -0.087982
-0.115772 0.352941 -0.086835
-0.114083 0.352941 -0.085689
-0.111436 0.352536 -0.086218
-0.109745 0.352536 -0.085070
-0.108054 0.352536 -0.083922
-0.105398 0.352131 -0.084450
-0.103706 0.352131 -0.083300
-0.101042 0.351724 -0.083828
-0.099348 0.351724 -0.082678
-0.097653 0.351724 -0.081527
-0.094981 0.351317 -0.082054
-0.093284 0.351317 -0.080902
-0.091588 0.351317 -0.079750
-0.088906 0.350909 -0.080275
-0.087207 0.350909 -0.079122
-0.085509 0.350909 -0.077970
-0.082818 0.350500 -0.078493
-0.081118 0.350500 -0.077339
-0.079418 0.350500 -0.076185
-0.076717 0.350090 -0.076707
-0.075015 0.350090 -0.075552
-0.072307 0.349679 -0.076074
-0.069592 0.349267 -0.076598
-0.066872 0.348855 -0.077122
-0.064146 0.348441 -0.077648
-0.062437 0.348441 -0.076487
-0.059703 0.348027 -0.077013
-0.056964 0.347612 -0.077539
-0.055251 0.347612 -0.076377
-0.052504 0.347195 -0.076903
-0.049750 0.346778 -0.077431
-0.048033 0.346778 -0.076265
-0.045272 0.346360 -0.076793
-0.043554 0.346360 -0.075626
-0.040785 0.345941 -0.076154
-0.038010 0.345522 -0.076682
-0.036287 0.345522 -0.075513
-0.033504 0.345101 -0.076041
-0.030715 0.344679 -0.076571
-0.028989 0.344679 -0.075399
-0.025119 0.343833 -0.077634
-0.022311 0.343409 -0.078167
-0.019498 0.342984 -0.078701
-0.016678 0.342557 -0.079236
-0.013852 0.342130 -0.079773
-0.011020 0.341702 -0.080311
-0.008182 0.341273 -0.080850
-0.005337 0.340843 -0.081390
-0.002486 0.340412 -0.081931
0.000371 0.339980 -0.082474
0.003234 0.339547 -0.083017
0.006104 0.339113 -0.083562
0.008980 0.338678 -0.084109
0.011863 0.338243 -0.084656
0.014752 0.337806 -0.085204
0.018788 0.336930 -0.087501
0.021694 0.336490 -0.088054
0.024607 0.336049 -0.088609
0.027526 0.335608 -0.089165
0.030452 0.335165 -0.089722
0.032221 0.335165 -0.088522
0.036323 0.334277 -0.090840
0.039269 0.333831 -0.091402
0.042221 0.333385 -0.091964
0.046365 0.332489 -0.094301
0.050527 0.331588 -0.096648
0.053509 0.331137 -0.097220
0.058908 0.329776 -0.101375
0.063128 0.328863 -0.103755
0.067366 0.327947 -0.106146
0.071624 0.327026 -0.108547
0.075901 0.326101 -0.110959
0.081446 0.324705 -0.115215
0.288472 0.248179 -0.414440
0.301333 0.244194 -0.428611
0.204569 0.282456 -0.274419
0.205036 0.283025 -0.270838
0.203973 0.284156 -0.265057
0.204439 0.284720 -0.261500
0.203381 0.285843 -0.255764
0.203847 0.286402 -0.252233
0.202794 0.287517 -0.246542
0.203259 0.288072 -0.243036
0.202211 0.289179 -0.237389
0.202675 0.289730 -0.233907
0.201633 0.290828 -0.228304
0.202095 0.291375 -0.224846
0.202557 0.291921 -0.221397
0.201520 0.293008 -0.215852
0.201981 0.293550 -0.212427
0.202440 0.294090 -0.209010
0.202899 0.294629 -0.205602
0.203356 0.295167 -0.202202
0.202325 0.296238 -0.196745
0.202781 0.296772 -0.193369
0.203236 0.297304 -0.190000
0.203690 0.297835 -0.186640
0.204143 0.298365 -0.183288
0.203118 0.299421 -0.177918
0.203570 0.299947 -0.174589
0.204020 0.300471 -0.171267
0.204470 0.300995 -0.167955
0.203450 0.302038 -0.162653
0.203899 0.302557 -0.159363
0.202884 0.303593 -0.154102
0.203332 0.304108 -0.150834
0.205239 0.304108 -0.149539
0.207146 0.304108 -0.148244
0.209053 0.304108 -0.146950
0.210960 0.304108 -0.145655
0.212867 0.304108 -0.144361
0.214774 0.304108 -0.143066
0.216681 0.304108 -0.141772
0.218588 0.304108 -0.140477
0.220495 0.304108 -0.139182
0.223887 0.303593 -0.139844
0.225796 0.303593 -0.138548
0.227705 0.303593 -0.137252
0.229615 0.303593 -0.135956
0.233021 0.303076 -0.136615
0.234933 0.303076 -0.135317
0.236845 0.303076 -0.134019
0.238756 0.303076 -0.132722
0.240668 0.303076 -0.131424
0.242579 0.303076 -0.130126
0.244491 0.303076 -0.128828
0.246403 0.303076 -0.127531
0.248314 0.303076 -0.126233
0.250226 0.303076 -0.124935
0.252138 0.303076 -0.123638
0.254049 0.303076 -0.122340
0.257490 0.302557 -0.122983
0.259404 0.302557 -0.121684
0.259784 0.303076 -0.118447
0.261696 0.303076 -0.117149
0.265145 0.302557 -0.117786
0.267059 0.302557 -0.116487
0.268973 0.302557 -0.115187
0.270887 0.302557 -0.113888
0.274352 0.302038 -0.114522
0.279386 0.300995 -0.117098
0.282874 0.300471 -0.117738
0.286370 0.299947 -0.118380
0.288296 0.299947 -0.117073
0.291803 0.299421 -0.117714
0.295319 0.298894 -0.118357
0.300441 0.297835 -0.120961
0.305588 0.296772 -0.123579
0.310761 0.295703 -0.126209
0.314111 0.322358 0.029240
0.312889 0.323300 0.033825
0.311673 0.324238 0.038388
0.310462 0.325171 0.042931
0.309257 0.326101 0.047453
0.308057 0.327026 0.051955
0.308361 0.327487 0.054810
0.308664 0.327947 0.057658
0.308966 0.328405 0.060500
0.309267 0.328863 0.063336
0.308076 0.329776 0.067771
0.309868 0.329776 0.068988
0.310168 0.330230 0.071804
0.311958 0.330230 0.073019
0.312255 0.330684 0.075828
0.314044 0.330684 0.077042
0.314338 0.331137 0.079843
0.316124 0.331137 0.081056
0.316416 0.331588 0.083849
0.318200 0.331588 0.085060
0.318489 0.332039 0.087846
0.320271 0.332039 0.089056
0.320557 0.332489 0.091834
0.320843 0.332937 0.094605
0.322621 0.332937 0.095813
0.322904 0.333385 0.098577
0.324681 0.333385 0.099783
0.326457 0.333385 0.100989
0.326735 0.333831 0.103744
0.328510 0.333831 0.104948
0.330284 0.333831 0.106153
0.330558 0.334277 0.108899
0.332330 0.334277 0.110103
0.332601 0.334722 0.112841
0.334372 0.334722 0.114043
0.336143 0.334722 0.115245
0.337913 0.334722 0.116447
0.338177 0.335165 0.119176
0.339946 0.335165 0.120376
0.341715 0.335165 0.121577
0.341974 0.335608 0.124297
0.343741 0.335608 0.125496
0.345508 0.335608 0.126695
0.345763 0.336049 0.129407
0.347528 0.336049 0.130604
0.349292 0.336049 0.131802
0.349543 0.336490 0.134505
0.351306 0.336490 0.135701
0.353068 0.336490 0.136898
0.354831 0.336490 0.138094
0.355076 0.336930 0.140787
0.356836 0.336930 0.141982
0.357078 0.337368 0.144667
0.358837 0.337368 0.145861
0.360596 0.337368 0.147055
0.362354 0.337368 0.148249
0.364113 0.337368 0.149443
0.365872 0.337368 0.150637
0.367630 0.337368 0.151831
0.367860 0.337806 0.154502
0.369617 0.337806 0.155694
0.371374 0.337806 0.156887
0.373130 0.337806 0.158080
0.374887 0.337806 0.159272
0.376644 0.337806 0.160465
0.379941 0.337368 0.160188
0.381700 0.337368 0.161382
0.385007 0.336930 0.161106
0.386768 0.336930 0.162301
0.390084 0.336490 0.162025
0.391846 0.336490 0.163222
0.395172 0.336049 0.162947
0.400076 0.335165 0.161196
0.403422 0.334722 0.160918
0.406775 0.334277 0.160639
0.414923 0.332489 0.155893
-0.207100 0.298845 -0.446287
-0.212900 0.303007 -0.426434
-0.213862 0.304548 -0.418283
-0.214817 0.306077 -0.410190
-0.216707 0.308099 -0.399915
-0.217643 0.309603 -0.391955
-0.234093 0.319364 -0.347335
-0.234945 0.320789 -0.339768
-0.235791 0.322204 -0.332252
-0.235748 0.323142 -0.326860
-0.235704 0.324076 -0.321493
-0.235661 0.325006 -0.316150
-0.234738 0.325469 -0.312876
-0.234698 0.326393 -0.307571
-0.234657 0.327312 -0.302290
-0.234617 0.328227 -0.297032
-0.233702 0.328683 -0.293806
-0.233664 0.329591 -0.288585
-0.233626 0.330496 -0.283389
-0.233588 0.331397 -0.278215
-0.233551 0.332293 -0.273065
-0.232647 0.332740 -0.269898
-0.233476 0.334075 -0.262834
-0.232576 0.334517 -0.259692
-0.232541 0.335400 -0.254623
-0.232506 0.336279 -0.249576
-0.232471 0.337154 -0.244552
-0.231580 0.337590 -0.241455
-0.231547 0.338459 -0.236465
-0.232368 0.339755 -0.229612
-0.232334 0.340615 -0.224676
-0.232300 0.341471 -0.219761
-0.233112 0.342748 -0.213015
-0.233077 0.343594 -0.208152
-0.233042 0.344437 -0.203311
-0.232166 0.344857 -0.200315
-0.231292 0.345276 -0.197326
-0.230419 0.345695 -0.194343
-0.228706 0.345695 -0.193181
-0.226993 0.345695 -0.192018
-0.226127 0.346112 -0.189044
-0.225262 0.346528 -0.186077
-0.223553 0.346528 -0.184916
-0.222692 0.346944 -0.181957
-0.220984 0.346944 -0.180798
-0.220127 0.347358 -0.177846
-0.219271 0.347772 -0.174900
-0.217567 0.347772 -0.173744
-0.216716 0.348185 -0.170806
-0.215014 0.348185 -0.169650
-0.214166 0.348597 -0.166720
-0.213319 0.349008 -0.163796
-0.211621 0.349008 -0.162643
-0.210778 0.349418 -0.159726
-0.209937 0.349828 -0.156816
-0.208243 0.349828 -0.155665
-0.207405 0.350236 -0.152762
-0.206570 0.350644 -0.149865
-0.204879 0.350644 -0.148717
-0.204047 0.351050 -0.145828
-0.202358 0.351050 -0.144681
-0.201529 0.351456 -0.141799
-0.199842 0.351456 -0.140654
-0.199017 0.351861 -0.137779
-0.197331 0.351861 -0.136635
-0.195646 0.351861 -0.135491
-0.194826 0.352265 -0.132625
-0.194009 0.352669 -0.129765
-0.192326 0.352669 -0.128623
-0.190644 0.352669 -0.127481
-0.188962 0.352669 -0.126339
-0.187280 0.352669 -0.125197
-0.185598 0.352669 -0.124055
-0.183916 0.352669 -0.122913
-0.182234 0.352669 -0.121771
-0.180552 0.352669 -0.120630
-0.178870 0.352669 -0.119488
-0.177188 0.352669 -0.118346
-0.175506 0.352669 -0.117204
-0.173824 0.352669 -0.116062
-0.172141 0.352669 -0.114920
-0.170459 0.352669 -0.113778
-0.168777 0.352669 -0.112636
-0.167095 0.352669 -0.111495
-0.165413 0.352669 -0.110353
-0.163731 0.352669 -0.109211
-0.161149 0.352265 -0.109763
-0.159465 0.352265 -0.108620
-0.157781 0.352265 -0.107477
-0.156097 0.352265 -0.106333
-0.154413 0.352265 -0.105190
-0.152729 0.352265 -0.104047
-0.151046 0.352265 -0.102904
-0.149362 0.352265 -0.101761
-0.147678 0.352265 -0.100618
-0.145994 0.352265 -0.099475
-0.144310 0.352265 -0.098332
-0.142626 0.352265 -0.097189
-0.140942 0.352265 -0.096046
-0.139258 0.352265 -0.094903
-0.137575 0.352265 -0.093759
-0.135891 0.352265 -0.092616
-0.134207 0.352265 -0.091473
-0.132523 0.352265 -0.090330
-0.130839 0.352265 -0.089187
-0.128219 0.351861 -0.089718
-0.126533 0.351861 -0.088574
-0.124848 0.351861 -0.087430
-0.123162 0.351861 -0.086285
-0.120531 0.351456 -0.086814
-0.118844 0.351456 -0.085669
-0.117156 0.351456 -0.084523
-0.115469 0.351456 -0.083378
-0.112827 0.351050 -0.083904
-0.111137 0.351050 -0.082757
-0.109448 0.351050 -0.081610
-0.106797 0.350644 -0.082135
-0.105106 0.350644 -0.080987
-0.102447 0.350236 -0.081512
-0.100754 0.350236 -0.080362
-0.098088 0.349828 -0.080887
-0.096393 0.349828 -0.079737
-0.094698 0.349828 -0.078586
-0.092023 0.349418 -0.079109
-0.090326 0.349418 -0.077958
-0.088630 0.349418 -0.076806
-0.085945 0.349008 -0.077328
-0.084246 0.349008 -0.076175
-0.082548 0.349008 -0.075022
-0.080850 0.349008 -0.073869
-0.078153 0.348597 -0.074389
-0.076453 0.348597 -0.073234
-0.073749 0.348185 -0.073754
-0.071040 0.347772 -0.074274
-0.068324 0.347358 -0.074795
-0.065603 0.346944 -0.075318
-0.063895 0.346944 -0.074159
-0.061166 0.346528 -0.074681
-0.058431 0.346112 -0.075205
-0.056720 0.346112 -0.074043
-0.053977 0.345695 -0.074566
-0.051228 0.345276 -0.075091
-0.049514 0.345276 -0.073927
-0.046757 0.344857 -0.074451
-0.045040 0.344857 -0.073286
-0.042276 0.344437 -0.073810
-0.039505 0.344016 -0.074336
-0.037785 0.344016 -0.073168
-0.035007 0.343594 -0.073693
-0.032222 0.343171 -0.074220
-0.030498 0.343171 -0.073049
-0.027706 0.342748 -0.073575
-0.023833 0.341897 -0.075806
-0.021024 0.341471 -0.076337
-0.018209 0.341043 -0.076869
-0.015388 0.340615 -0.077403
-0.012560 0.340186 -0.077937
-0.009727 0.339755 -0.078473
-0.006887 0.339324 -0.079010
-0.004041 0.338892 -0.079548
-0.001189 0.338459 -0.080087
0.001670 0.338025 -0.080628
0.004535 0.337590 -0.081169
0.007406 0.337154 -0.081712
0.010283 0.336717 -0.082256
0.013167 0.336279 -0.082802
0.016058 0.335840 -0.083348
0.018955 0.335400 -0.083896
0.021858 0.334959 -0.084445
0.025919 0.334075 -0.086744
0.028840 0.333631 -0.087298
0.031767 0.333186 -0.087853
0.034701 0.332740 -0.088410
0.036471 0.332740 -0.087208
0.039414 0.332293 -0.087764
0.043542 0.331397 -0.090087
0.047689 0.330496 -0.092419
0.050660 0.330044 -0.092985
0.054837 0.329138 -0.095332
0.059033 0.328227 -0.097690
0.063247 0.327312 -0.100059
0.067481 0.326393 -0.102438
0.071734 0.325469 -0.104828
0.076007 0.324542 -0.107229
0.081546 0.323142 -0.111467
0.090913 0.320315 -0.121269
0.184944 0.285858 -0.254376
0.185431 0.286415 -0.250865
0.185916 0.286970 -0.247361
0.186400 0.287524 -0.243867
0.186883 0.288077 -0.240381
0.185881 0.289178 -0.234769
0.186363 0.289726 -0.231308
0.186843 0.290273 -0.227855
0.187323 0.290819 -0.224411
0.187801 0.291363 -0.220975
0.186804 0.292448 -0.215452
0.187281 0.292988 -0.212040
0.186290 0.294065 -0.206559
0.186765 0.294601 -0.203170
0.187240 0.295136 -0.199790
0.187714 0.295670 -0.196418
0.188186 0.296202 -0.193054
0.187200 0.297263 -0.187659
0.187671 0.297792 -0.184318
0.188141 0.298319 -0.180986
0.188610 0.298845 -0.177661
0.190531 0.298845 -0.176357
0.189545 0.299893 -0.171035
0.190010 0.300415 -0.167735
0.190475 0.300936 -0.164442
0.190938 0.301456 -0.161157
0.191401 0.301974 -0.157881
0.193308 0.301974 -0.156586
0.193766 0.302492 -0.153319
0.195671 0.302492 -0.152026
0.196127 0.303007 -0.148768
0.198029 0.303007 -0.147476
0.199932 0.303007 -0.146185
0.201834 0.303007 -0.144893
0.203736 0.303007 -0.143602
0.205639 0.303007 -0.142310
0.207541 0.303007 -0.141019
0.209444 0.303007 -0.139727
0.211346 0.303007 -0.138436
0.213249 0.303007 -0.137144
0.215151 0.303007 -0.135853
0.217054 0.303007 -0.134561
0.218956 0.303007 -0.133270
0.220859 0.303007 -0.131978
0.222761 0.303007 -0.130687
0.224663 0.303007 -0.129396
0.226566 0.303007 -0.128104
0.228468 0.303007 -0.126813
0.230371 0.303007 -0.125521
0.232273 0.303007 -0.124230
0.234176 0.303007 -0.122938
0.236078 0.303007 -0.121647
0.237981 0.303007 -0.120355
0.239883 0.303007 -0.119064
0.241785 0.303007 -0.117772
0.243688 0.303007 -0.116481
0.245590 0.303007 -0.115189
0.247493 0.303007 -0.113898
0.249395 0.303007 -0.112606
0.251298 0.303007 -0.111315
0.254718 0.302492 -0.111942
0.256623 0.302492 -0.110649
0.258528 0.302492 -0.109356
0.260432 0.302492 -0.108063
0.262337 0.302492 -0.106770
0.265775 0.301974 -0.107392
0.267682 0.301974 -0.106097
0.271130 0.301456 -0.106719
0.274587 0.300936 -0.107343
0.278052 0.300415 -0.107968
0.279966 0.300415 -0.106669
0.283442 0.299893 -0.107294
0.285358 0.299893 -0.105993
0.290419 0.298845 -0.108548
0.295504 0.297792 -0.111116
0.300614 0.296733 -0.113697
0.307358 0.295136 -0.118249
0.314151 0.293527 -0.122834
0.319357 0.292448 -0.125469
0.311817 0.320315 0.028690
0.310600 0.321262 0.033276
0.309389 0.322204 0.037841
0.309693 0.322674 0.040732
0.306984 0.324076 0.046909
0.307289 0.324542 0.049776
0.306095 0.325469 0.054267
0.306401 0.325931 0.057116
0.306706 0.326393 0.059959
0.307010 0.326853 0.062795
0.307313 0.327312 0.065625
0.306127 0.328227 0.070049
0.307918 0.328227 0.071265
0.309709 0.328227 0.072480
0.310008 0.328683 0.075290
0.311796 0.328683 0.076504
0.312093 0.329138 0.079305
0.313879 0.329138 0.080518
0.314173 0.329591 0.083312
0.315958 0.329591 0.084523
0.316249 0.330044 0.087309
0.318032 0.330044 0.088519
0.318320 0.330496 0.091298
0.320101 0.330496 0.092506
0.320387 0.330947 0.095277
0.320672 0.331397 0.098042
0.322449 0.331397 0.099248
0.324225 0.331397 0.100454
0.324506 0.331846 0.103210
0.326280 0.331846 0.104414
0.328055 0.331846 0.105619
0.328331 0.332293 0.108366
0.330103 0.332293 0.109569
0.330377 0.332740 0.112309
0.332147 0.332740 0.113510
0.333918 0.332740 0.114712
0.334187 0.333186 0.117443
0.335955 0.333186 0.118644
0.337724 0.333186 0.119844
0.337988 0.333631 0.122566
0.339755 0.333631 0.123765
0.341521 0.333631 0.124964
0.341781 0.334075 0.127677
0.343546 0.334075 0.128875
0.345310 0.334075 0.130073
0.347075 0.334075 0.131271
0.347328 0.334517 0.133974
0.349091 0.334517 0.135171
0.350854 0.334517 0.136367
0.351103 0.334959 0.139062
0.352863 0.334959 0.140257
0.353110 0.335400 0.142944
0.354868 0.335400 0.144138
0.356627 0.335400 0.145332
0.356869 0.335840 0.148010
0.358626 0.335840 0.149203
0.360382 0.335840 0.150395
0.362139 0.335840 0.151588
0.363896 0.335840 0.152780
0.365653 0.335840 0.153973
0.367410 0.335840 0.155166
0.367639 0.336279 0.157830
0.369394 0.336279 0.159021
0.371149 0.336279 0.160213
0.372904 0.336279 0.161404
0.376193 0.335840 0.161128
0.377950 0.335840 0.162321
0.379707 0.335840 0.163514
0.383008 0.335400 0.163240
0.384766 0.335400 0.164434
0.386525 0.335400 0.165628
0.389837 0.334959 0.165356
0.391598 0.334959 0.166552
0.396484 0.334075 0.164812
0.399818 0.333631 0.164539
0.403160 0.333186 0.164265
0.406509 0.332740 0.163990
0.416246 0.330496 0.157774
-0.208523 0.295106 -0.455230
-0.214331 0.299319 -0.435219
-0.216243 0.301396 -0.424713
-0.218137 0.303452 -0.414306
-0.219074 0.304982 -0.406247
-0.220939 0.307004 -0.396015
-0.236437 0.316355 -0.353377
-0.238173 0.318272 -0.343660
-0.239009 0.319697 -0.336123
-0.238958 0.320643 -0.330715
-0.238907 0.321583 -0.325333
-0.238856 0.322520 -0.319975
-0.238806 0.323452 -0.314642
-0.237881 0.323916 -0.311373
-0.237833 0.324842 -0.306078
-0.237785 0.325764 -0.300806
-0.237738 0.326681 -0.295558
-0.237691 0.327594 -0.290334
-0.236776 0.328050 -0.287126
-0.236731 0.328957 -0.281938
-0.236686 0.329860 -0.276774
-0.236642 0.330759 -0.271633
-0.236598 0.331654 -0.266514
-0.236554 0.332545 -0.261419
-0.235651 0.332989 -0.258282
-0.235609 0.333874 -0.253222
-0.235568 0.334755 -0.248184
-0.235526 0.335633 -0.243168
-0.234632 0.336070 -0.240076
-0.235444 0.337376 -0.233203
-0.235403 0.338241 -0.228254
-0.235362 0.339103 -0.223326
-0.235322 0.339962 -0.218419
-0.236123 0.341242 -0.211685
-0.235241 0.341667 -0.208671
-0.235201 0.342514 -0.203828
-0.234323 0.342936 -0.200832
-0.233446 0.343357 -0.197842
-0.233410 0.344197 -0.193044
-0.231699 0.344197 -0.191882
-0.229988 0.344197 -0.190721
-0.229119 0.344615 -0.187752
-0.227410 0.344615 -0.186591
-0.226544 0.345033 -0.183630
-0.225681 0.345450 -0.180675
-0.223975 0.345450 -0.179517
-0.223116 0.345866 -0.176570
-0.221412 0.345866 -0.175413
-0.220556 0.346281 -0.172473
-0.219702 0.346695 -0.169540
-0.218002 0.346695 -0.168386
-0.217151 0.347108 -0.165460
-0.215453 0.347108 -0.164307
-0.214606 0.347520 -0.161388
-0.213761 0.347931 -0.158476
-0.212067 0.347931 -0.157326
-0.211225 0.348342 -0.154421
-0.210386 0.348751 -0.151522
-0.209548 0.349160 -0.148630
-0.207859 0.349160 -0.147483
-0.207024 0.349568 -0.144598
-0.205337 0.349568 -0.143453
-0.204506 0.349975 -0.140575
-0.202821 0.349975 -0.139431
-0.201994 0.350381 -0.136561
-0.200310 0.350381 -0.135418
-0.199486 0.350786 -0.132555
-0.197804 0.350786 -0.131413
-0.196122 0.350786 -0.130271
-0.195304 0.351191 -0.127416
-0.193624 0.351191 -0.126276
-0.191943 0.351191 -0.125135
-0.190263 0.351191 -0.123994
-0.188583 0.351191 -0.122854
-0.186902 0.351191 -0.121713
-0.185222 0.351191 -0.120572
-0.183542 0.351191 -0.119432
-0.181861 0.351191 -0.118291
-0.180181 0.351191 -0.117150
-0.178501 0.351191 -0.116010
-0.176821 0.351191 -0.114869
-0.175140 0.351191 -0.113728
-0.173460 0.351191 -0.112588
-0.171780 0.351191 -0.111447
-0.170099 0.351191 -0.110307
-0.168419 0.351191 -0.109166
-0.166739 0.351191 -0.108025
-0.165059 0.351191 -0.106885
-0.163378 0.351191 -0.105744
-0.161698 0.351191 -0.104603
-0.160018 0.351191 -0.103463
-0.158337 0.351191 -0.102322
-0.156657 0.351191 -0.101181
-0.154977 0.351191 -0.100041
-0.153296 0.351191 -0.098900
-0.151616 0.351191 -0.097759
-0.149936 0.351191 -0.096619
-0.148256 0.351191 -0.095478
-0.146575 0.351191 -0.094337
-0.144895 0.351191 -0.093197
-0.143215 0.351191 -0.092056
-0.141534 0.351191 -0.090915
-0.138931 0.350786 -0.091447
-0.137249 0.350786 -0.090305
-0.135567 0.350786 -0.089163
-0.133885 0.350786 -0.088022
