ply
format ascii 1.0
element vertex 1705
property float x
property float y
property float z
end_header
0.403747 0.342790 0.146911
-0.033447 0.339371 -0.471426
-0.035235 0.340875 -0.466267
-0.037016 0.342372 -0.461131
-0.040314 0.344604 -0.454373
-0.042072 0.346084 -0.449295
-0.045333 0.348291 -0.442616
-0.047070 0.349753 -0.437594
-0.048799 0.351209 -0.432594
-0.050520 0.352659 -0.427618
-0.050744 0.353381 -0.424251
-0.049477 0.353381 -0.422475
-0.049702 0.354102 -0.419117
-0.049926 0.354821 -0.415767
-0.050150 0.355538 -0.412424
-0.050374 0.356254 -0.409089
-0.050596 0.356968 -0.405762
-0.049337 0.356968 -0.403996
-0.048077 0.356968 -0.402231
-0.045328 0.356254 -0.402019
-0.044067 0.356254 -0.400252
-0.042805 0.356254 -0.398484
-0.041544 0.356254 -0.396716
-0.040282 0.356254 -0.394949
-0.037522 0.355538 -0.394729
-0.034755 0.354821 -0.394508
-0.031982 0.354102 -0.394287
-0.029202 0.353381 -0.394065
-0.026417 0.352659 -0.393843
-0.023624 0.351935 -0.393620
-0.019294 0.350482 -0.394957
-0.016484 0.349753 -0.394734
-0.013667 0.349023 -0.394512
-0.010845 0.348291 -0.394288
-0.008015 0.347557 -0.394064
-0.005179 0.346821 -0.393840
-0.002337 0.346084 -0.393615
0.000512 0.345345 -0.393390
0.004944 0.343862 -0.394740
0.007811 0.343118 -0.394515
0.010685 0.342372 -0.394290
0.013566 0.341624 -0.394064
0.016453 0.340875 -0.393838
0.019347 0.340124 -0.393611
0.023859 0.338616 -0.394972
0.026772 0.337860 -0.394746
0.029691 0.337102 -0.394519
0.032618 0.336342 -0.394292
0.035551 0.335580 -0.394064
0.038492 0.334817 -0.393835
0.041439 0.334052 -0.393606
0.044393 0.333284 -0.393376
0.047354 0.332516 -0.393146
0.050322 0.331745 -0.392916
0.053297 0.330972 -0.392684
0.056279 0.330198 -0.392453
0.059268 0.329422 -0.392220
0.062265 0.328644 -0.391987
0.065268 0.327864 -0.391754
0.068279 0.327082 -0.391520
0.072998 0.325513 -0.392904
0.076028 0.324726 -0.392671
0.080783 0.323146 -0.394063
0.083834 0.322353 -0.393830
0.086892 0.321558 -0.393596
0.089957 0.320761 -0.393362
0.093030 0.319963 -0.393128
0.097860 0.318359 -0.394531
0.100954 0.317555 -0.394297
0.104054 0.316749 -0.394062
0.107162 0.315940 -0.393827
0.110278 0.315130 -0.393591
0.113402 0.314318 -0.393355
0.120116 0.311869 -0.396427
0.123267 0.311049 -0.396193
0.126425 0.310227 -0.395959
0.129591 0.309403 -0.395724
0.134587 0.307748 -0.397155
0.137775 0.306918 -0.396921
0.140970 0.306086 -0.396686
0.144173 0.305251 -0.396450
0.149236 0.303577 -0.397892
0.152461 0.302736 -0.397657
0.155694 0.301894 -0.397422
0.158935 0.301049 -0.397185
0.164066 0.299353 -0.398638
0.167330 0.298502 -0.398403
0.170601 0.297649 -0.398167
0.173881 0.296794 -0.397930
0.179081 0.295077 -0.399394
0.182383 0.294216 -0.399158
0.185694 0.293352 -0.398921
0.189013 0.292486 -0.398684
0.194284 0.290748 -0.400159
0.197626 0.289876 -0.399922
0.200977 0.289001 -0.399685
0.204336 0.288124 -0.399447
0.209679 0.286364 -0.400933
0.213061 0.285481 -0.400696
0.216453 0.284595 -0.400458
0.219853 0.283707 -0.400220
0.225268 0.281924 -0.401718
0.230712 0.280133 -0.403223
0.234152 0.279233 -0.402986
0.237600 0.278332 -0.402750
0.241058 0.277428 -0.402512
0.244524 0.276522 -0.402274
0.250058 0.274703 -0.403792
0.253549 0.273789 -0.403555
0.259129 0.271956 -0.405082
0.264736 0.270113 -0.406617
0.268269 0.269188 -0.406382
0.280290 0.264527 -0.413296
0.340485 0.334052 0.025435
0.335819 0.336342 0.030572
0.333159 0.337860 0.034582
0.330512 0.339371 0.038574
0.327877 0.340875 0.042547
0.327209 0.341624 0.045431
0.326543 0.342372 0.048308
0.325878 0.343118 0.051179
0.327166 0.343118 0.052984
0.326501 0.343862 0.055846
0.327788 0.343862 0.057648
0.327123 0.344604 0.060501
0.326460 0.345345 0.063348
0.327744 0.345345 0.065146
0.327081 0.346084 0.067984
0.328362 0.346084 0.069780
0.329644 0.346084 0.071576
0.330926 0.346084 0.073372
0.330260 0.346821 0.076197
0.331541 0.346821 0.077991
0.332821 0.346821 0.079785
0.332154 0.347557 0.082600
0.333433 0.347557 0.084392
0.334711 0.347557 0.086184
0.335990 0.347557 0.087976
0.337269 0.347557 0.089768
0.338548 0.347557 0.091560
0.339827 0.347557 0.093352
0.341105 0.347557 0.095144
0.342384 0.347557 0.096936
0.343663 0.347557 0.098728
0.346904 0.346821 0.099520
0.348185 0.346821 0.101314
0.349465 0.346821 0.103108
0.350745 0.346821 0.104902
0.352025 0.346821 0.106696
0.353306 0.346821 0.108490
0.354586 0.346821 0.110284
0.355866 0.346821 0.112078
0.357147 0.346821 0.113872
0.358427 0.346821 0.115666
0.359707 0.346821 0.117460
0.360988 0.346821 0.119254
0.362268 0.346821 0.121048
0.363548 0.346821 0.122842
0.364828 0.346821 0.124636
0.366109 0.346821 0.126430
0.367389 0.346821 0.128224
0.368669 0.346821 0.130019
0.369950 0.346821 0.131813
0.371230 0.346821 0.133607
0.372510 0.346821 0.135401
0.373791 0.346821 0.137195
0.377070 0.346084 0.138032
0.376351 0.346821 0.140783
0.377632 0.346821 0.142577
0.380915 0.346084 0.143420
0.384207 0.345345 0.144266
0.385490 0.345345 0.146064
0.388791 0.344604 0.146913
0.392099 0.343862 0.147765
0.393385 0.343862 0.149567
0.396703 0.343118 0.150423
0.404117 0.340875 0.149380
0.415723 0.337102 0.146411
-0.037206 0.338207 -0.470904
-0.040514 0.340461 -0.464088
-0.042278 0.341956 -0.458970
-0.044034 0.343443 -0.453875
-0.047292 0.345662 -0.447173
-0.049027 0.347132 -0.442134
-0.052249 0.349325 -0.435511
-0.053962 0.350779 -0.430528
-0.055668 0.352226 -0.425567
-0.055885 0.352947 -0.422210
-0.054621 0.352947 -0.420438
-0.054840 0.353667 -0.417090
-0.055058 0.354385 -0.413750
-0.055275 0.355101 -0.410417
-0.055492 0.355815 -0.407092
-0.055709 0.356528 -0.403775
-0.054452 0.356528 -0.402013
-0.053195 0.356528 -0.400251
-0.051937 0.356528 -0.398490
-0.050680 0.356528 -0.396728
-0.049423 0.356528 -0.394967
-0.048166 0.356528 -0.393205
-0.045424 0.355815 -0.392984
-0.042675 0.355101 -0.392762
-0.039921 0.354385 -0.392539
-0.037160 0.353667 -0.392316
-0.034392 0.352947 -0.392093
-0.031619 0.352226 -0.391869
-0.028839 0.351503 -0.391644
-0.026053 0.350779 -0.391419
-0.023260 0.350053 -0.391194
-0.018929 0.348596 -0.392525
-0.016118 0.347865 -0.392300
-0.013302 0.347132 -0.392074
-0.010478 0.346398 -0.391848
-0.007649 0.345662 -0.391622
-0.004812 0.344924 -0.391394
-0.001969 0.344185 -0.391167
0.000880 0.343443 -0.390939
0.005312 0.341956 -0.392283
0.008180 0.341210 -0.392055
0.011055 0.340461 -0.391827
0.013936 0.339712 -0.391598
0.016824 0.338960 -0.391369
0.019718 0.338207 -0.391139
0.022619 0.337452 -0.390909
0.025527 0.336695 -0.390678
0.030064 0.335176 -0.392036
0.032991 0.334414 -0.391806
0.035925 0.333650 -0.391575
0.038866 0.332884 -0.391343
0.041813 0.332117 -0.391111
0.044768 0.331347 -0.390879
0.047729 0.330576 -0.390646
0.050698 0.329803 -0.390412
0.055342 0.328252 -0.391784
0.058330 0.327473 -0.391551
0.061325 0.326693 -0.391317
0.064328 0.325911 -0.391083
0.067337 0.325127 -0.390848
0.070354 0.324341 -0.390613
0.075084 0.322763 -0.391997
0.078120 0.321972 -0.391762
0.081164 0.321179 -0.391526
0.084215 0.320383 -0.391291
0.087274 0.319586 -0.391054
0.090339 0.318787 -0.390817
0.093413 0.317986 -0.390579
0.096493 0.317183 -0.390341
0.101337 0.315571 -0.391739
0.104439 0.314762 -0.391502
0.109320 0.313139 -0.392907
0.112442 0.312324 -0.392670
0.117360 0.310689 -0.394084
0.120504 0.309868 -0.393848
0.125460 0.308221 -0.395270
0.128624 0.307394 -0.395034
0.131796 0.306566 -0.394797
0.134977 0.305735 -0.394560
0.139998 0.304068 -0.395992
0.143200 0.303231 -0.395756
0.146410 0.302392 -0.395519
0.149628 0.301551 -0.395281
0.154717 0.299863 -0.396724
0.157957 0.299016 -0.396487
0.161204 0.298167 -0.396249
0.164460 0.297315 -0.396011
0.169618 0.295606 -0.397465
0.172896 0.294749 -0.397227
0.176183 0.293889 -0.396989
0.179478 0.293027 -0.396750
0.184705 0.291296 -0.398215
0.188022 0.290428 -0.397977
0.191349 0.289557 -0.397738
0.194683 0.288684 -0.397498
0.199981 0.286932 -0.398974
0.203339 0.286053 -0.398735
0.206705 0.285171 -0.398496
0.210080 0.284287 -0.398256
0.215451 0.282513 -0.399743
0.218849 0.281623 -0.399504
0.222257 0.280730 -0.399264
0.227685 0.278937 -0.400761
0.233142 0.277136 -0.402266
0.236589 0.276231 -0.402028
0.238007 0.276231 -0.400042
0.243510 0.274416 -0.401550
0.246984 0.273505 -0.401311
0.252532 0.271676 -0.402828
0.258108 0.269837 -0.404354
0.261623 0.268914 -0.404116
0.267245 0.267061 -0.405651
0.272896 0.265198 -0.407194
0.338248 0.332117 0.024270
0.335573 0.333650 0.028310
0.330935 0.335936 0.033424
0.328293 0.337452 0.037418
0.325663 0.338960 0.041394
0.324998 0.339712 0.044280
0.324334 0.340461 0.047158
0.323672 0.341210 0.050030
0.323011 0.341956 0.052896
0.324298 0.341956 0.054698
0.323637 0.342700 0.057554
0.324922 0.342700 0.059355
0.324262 0.343443 0.062203
0.325545 0.343443 0.064001
0.324885 0.344185 0.066840
0.326166 0.344185 0.068636
0.327448 0.344185 0.070432
0.326786 0.344924 0.073261
0.328067 0.344924 0.075055
0.329347 0.344924 0.076849
0.328684 0.345662 0.079667
0.329963 0.345662 0.081459
0.331242 0.345662 0.083251
0.330577 0.346398 0.086058
0.331854 0.346398 0.087848
0.333132 0.346398 0.089638
0.334409 0.346398 0.091428
0.335686 0.346398 0.093218
0.336964 0.346398 0.095008
0.338241 0.346398 0.096798
0.341472 0.345662 0.097587
0.342751 0.345662 0.099379
0.344030 0.345662 0.101171
0.345309 0.345662 0.102963
0.346587 0.345662 0.104755
0.347866 0.345662 0.106547
0.349145 0.345662 0.108339
0.350424 0.345662 0.110131
0.351703 0.345662 0.111923
0.352982 0.345662 0.113715
0.354260 0.345662 0.115507
0.355539 0.345662 0.117299
0.356818 0.345662 0.119091
0.358097 0.345662 0.120883
0.359376 0.345662 0.122674
0.360655 0.345662 0.124466
0.363915 0.344924 0.125288
0.365196 0.344924 0.127082
0.364491 0.345662 0.129842
0.365770 0.345662 0.131634
0.367049 0.345662 0.133426
0.368328 0.345662 0.135218
0.369606 0.345662 0.137010
0.372877 0.344924 0.137846
0.374158 0.344924 0.139640
0.375438 0.344924 0.141434
0.376718 0.344924 0.143229
0.377999 0.344924 0.145023
0.379279 0.344924 0.146817
0.382565 0.344185 0.147665
0.385858 0.343443 0.148515
0.387141 0.343443 0.150314
0.390444 0.342700 0.151168
0.393754 0.341956 0.152024
0.397072 0.341210 0.152883
0.402440 0.339712 0.152797
0.411955 0.336695 0.150807
-0.042486 0.337799 -0.468712
-0.044247 0.339301 -0.463577
-0.047516 0.341542 -0.456818
-0.049256 0.343027 -0.451740
-0.052489 0.345242 -0.445060
-0.054207 0.346710 -0.440038
-0.055918 0.348171 -0.435039
-0.059102 0.350351 -0.428470
-0.060792 0.351795 -0.423526
-0.061003 0.352515 -0.420178
-0.059742 0.352515 -0.418411
-0.061424 0.353950 -0.413506
-0.060166 0.353950 -0.411742
-0.060377 0.354665 -0.408419
-0.062052 0.356091 -0.403554
-0.060798 0.356091 -0.401796
-0.061008 0.356801 -0.398496
-0.059755 0.356801 -0.396740
-0.058502 0.356801 -0.394984
-0.055781 0.356091 -0.394766
-0.054527 0.356091 -0.393008
-0.053272 0.356091 -0.391250
-0.050542 0.355379 -0.391027
-0.049286 0.355379 -0.389268
-0.046548 0.354665 -0.389042
-0.043804 0.353950 -0.388816
-0.039559 0.352515 -0.390130
-0.036798 0.351795 -0.389904
-0.034030 0.351074 -0.389678
-0.031256 0.350351 -0.389451
-0.028476 0.349626 -0.389224
-0.025689 0.348899 -0.388996
-0.022896 0.348171 -0.388767
-0.020097 0.347441 -0.388539
-0.015753 0.345977 -0.389865
-0.012936 0.345242 -0.389637
-0.008561 0.343767 -0.390971
-0.005725 0.343027 -0.390743
-0.002884 0.342285 -0.390514
-0.001602 0.342285 -0.388718
0.001248 0.341542 -0.388487
0.005681 0.340050 -0.389826
0.008549 0.339301 -0.389595
0.011424 0.338551 -0.389364
0.014306 0.337799 -0.389133
0.017194 0.337045 -0.388901
0.020089 0.336290 -0.388668
0.022991 0.335532 -0.388435
0.025899 0.334773 -0.388201
0.028814 0.334013 -0.387967
0.031736 0.333250 -0.387732
0.036298 0.331719 -0.389086
0.039240 0.330951 -0.388852
0.042188 0.330182 -0.388617
0.045143 0.329410 -0.388381
0.048105 0.328636 -0.388145
0.052737 0.327084 -0.389510
0.055719 0.326305 -0.389275
0.058707 0.325524 -0.389039
0.061703 0.324742 -0.388802
0.064706 0.323957 -0.388565
0.069411 0.322383 -0.389940
0.072434 0.321593 -0.389704
0.075463 0.320801 -0.389466
0.078500 0.320007 -0.389228
0.081545 0.319211 -0.388990
0.086324 0.317614 -0.390377
0.089389 0.316812 -0.390139
0.092461 0.316009 -0.389900
0.097290 0.314396 -0.391295
0.100382 0.313587 -0.391058
0.103482 0.312776 -0.390819
0.106590 0.311963 -0.390580
0.109705 0.311148 -0.390340
0.116398 0.308691 -0.393398
0.119540 0.307867 -0.393160
0.122690 0.307042 -0.392922
0.125848 0.306215 -0.392684
0.130829 0.304555 -0.394106
0.134008 0.303722 -0.393868
0.137194 0.302887 -0.393630
0.140389 0.302050 -0.393391
0.145436 0.300369 -0.394824
0.148653 0.299526 -0.394585
0.151877 0.298680 -0.394346
0.156978 0.296983 -0.395788
0.160225 0.296131 -0.395550
0.163479 0.295277 -0.395311
0.166742 0.294421 -0.395071
0.170013 0.293563 -0.394831
0.175197 0.291841 -0.396285
0.178491 0.290976 -0.396046
0.181792 0.290109 -0.395805
0.185102 0.289241 -0.395564
0.190356 0.287496 -0.397030
0.193690 0.286621 -0.396790
0.197031 0.285743 -0.396549
0.200381 0.284864 -0.396307
0.205707 0.283097 -0.397784
0.209081 0.282211 -0.397543
0.212463 0.281322 -0.397301
0.217846 0.279538 -0.398788
0.221252 0.278643 -0.398547
0.226678 0.276845 -0.400042
0.230109 0.275943 -0.399802
0.233548 0.275038 -0.399562
0.236995 0.274131 -0.399320
0.240452 0.273222 -0.399078
0.245969 0.271396 -0.400586
0.000368 0.381344 -0.188276
0.001572 0.381344 -0.186589
0.002776 0.381344 -0.184902
0.003980 0.381344 -0.183215
0.006663 0.380688 -0.182775
0.009351 0.380031 -0.182334
0.336011 0.330182 0.023105
0.333341 0.331719 0.027147
0.330684 0.333250 0.031170
0.326073 0.335532 0.036263
0.323449 0.337045 0.040241
0.322786 0.337799 0.043128
0.324077 0.337799 0.044937
0.323414 0.338551 0.047814
0.322753 0.339301 0.050686
0.322094 0.340050 0.053550
0.321436 0.340797 0.056408
0.322721 0.340797 0.058208
0.322063 0.341542 0.061058
0.323346 0.341542 0.062856
0.322689 0.342285 0.065697
0.322032 0.343027 0.068531
0.323313 0.343027 0.070325
0.324593 0.343027 0.072119
0.325873 0.343027 0.073913
0.327154 0.343027 0.075707
0.326493 0.343767 0.078526
0.327772 0.343767 0.080318
0.329051 0.343767 0.082110
0.328388 0.344505 0.084919
0.329666 0.344505 0.086709
0.329004 0.345242 0.089509
0.332221 0.344505 0.090289
0.333498 0.344505 0.092078
0.334775 0.344505 0.093868
0.336053 0.344505 0.095658
0.337330 0.344505 0.097448
0.338607 0.344505 0.099238
0.339885 0.344505 0.101028
0.341162 0.344505 0.102818
0.342439 0.344505 0.104608
0.343717 0.344505 0.106398
0.344994 0.344505 0.108188
0.346271 0.344505 0.109978
0.347549 0.344505 0.111767
0.348826 0.344505 0.113557
0.350104 0.344505 0.115347
0.351381 0.344505 0.117137
0.354627 0.343767 0.117950
0.355906 0.343767 0.119742
0.357185 0.343767 0.121533
0.358464 0.343767 0.123325
0.359742 0.343767 0.125117
0.361021 0.343767 0.126909
0.362300 0.343767 0.128701
0.363579 0.343767 0.130493
0.364858 0.343767 0.132285
0.366137 0.343767 0.134077
0.367415 0.343767 0.135869
0.368694 0.343767 0.137661
0.369973 0.343767 0.139453
0.371252 0.343767 0.141245
0.372531 0.343767 0.143037
0.373810 0.343767 0.144829
0.375088 0.343767 0.146621
0.376367 0.343767 0.148413
0.379646 0.343027 0.149262
0.380926 0.343027 0.151056
0.384214 0.342285 0.151910
0.387509 0.341542 0.152765
0.388793 0.341542 0.154563
0.392097 0.340797 0.155422
0.397441 0.339301 0.155343
0.402810 0.337799 0.155263
0.406150 0.337045 0.156128
-0.044462 0.335131 -0.473347
-0.047741 0.337393 -0.466530
-0.049486 0.338893 -0.461412
-0.051224 0.340386 -0.456318
-0.054453 0.342612 -0.449615
-0.056169 0.344088 -0.444577
-0.059364 0.346289 -0.437952
-0.061059 0.347748 -0.432969
-0.062746 0.349201 -0.428009
-0.064426 0.350646 -0.423071
-0.066098 0.352086 -0.418156
-0.066302 0.352803 -0.414826
-0.066506 0.353518 -0.411503
-0.066710 0.354232 -0.408188
-0.066913 0.354944 -0.404880
-0.065660 0.354944 -0.403125
-0.065864 0.355655 -0.399826
-0.066068 0.356364 -0.396536
-0.064818 0.356364 -0.394784
-0.063568 0.356364 -0.393032
-0.062318 0.356364 -0.391281
-0.061068 0.356364 -0.389529
-0.059818 0.356364 -0.387777
-0.057104 0.355655 -0.387551
-0.054384 0.354944 -0.387324
-0.051658 0.354232 -0.387097
-0.048926 0.353518 -0.386869
-0.046188 0.352803 -0.386641
-0.043444 0.352086 -0.386412
-0.040693 0.351367 -0.386182
-0.036436 0.349924 -0.387491
-0.033667 0.349201 -0.387262
-0.030893 0.348475 -0.387033
-0.028112 0.347748 -0.386803
-0.025325 0.347020 -0.386572
-0.021004 0.345557 -0.387891
-0.018199 0.344824 -0.387661
-0.015388 0.344088 -0.387431
-0.012570 0.343351 -0.387200
-0.009746 0.342612 -0.386968
-0.006915 0.341872 -0.386736
-0.004078 0.341130 -0.386503
-0.001234 0.340386 -0.386270
0.001616 0.339640 -0.386036
0.004473 0.338893 -0.385801
0.007336 0.338144 -0.385566
0.010206 0.337393 -0.385331
-0.053517 0.368180 -0.319359
-0.053730 0.368861 -0.316223
-0.053943 0.369541 -0.313093
-0.054155 0.370219 -0.309970
-0.054367 0.370896 -0.306854
-0.053146 0.370896 -0.305142
-0.053358 0.371571 -0.302035
-0.053571 0.372245 -0.298935
-0.052352 0.372245 -0.297227
-0.049699 0.371571 -0.296907
-0.044151 0.369541 -0.299373
-0.041477 0.368861 -0.299054
0.053114 0.325140 -0.387004
0.056096 0.324359 -0.386765
0.059085 0.323576 -0.386526
0.062080 0.322791 -0.386287
0.065084 0.322004 -0.386046
0.069790 0.320425 -0.387416
0.072813 0.319632 -0.387176
0.077555 0.318042 -0.388553
0.080598 0.317244 -0.388314
0.083648 0.316444 -0.388074
0.086706 0.315642 -0.387834
0.091509 0.314032 -0.389221
0.094588 0.313224 -0.388981
0.097673 0.312415 -0.388741
0.100766 0.311603 -0.388500
0.105633 0.309974 -0.389897
0.108746 0.309157 -0.389656
0.111868 0.308337 -0.389415
0.116785 0.306692 -0.390821
0.121726 0.305039 -0.392234
0.124882 0.304210 -0.391995
0.128046 0.303378 -0.391755
0.131218 0.302545 -0.391514
0.136224 0.300871 -0.392937
0.139417 0.300032 -0.392697
0.142619 0.299190 -0.392457
0.145828 0.298346 -0.392216
0.150901 0.296652 -0.393649
0.154132 0.295802 -0.393409
0.157371 0.294950 -0.393168
0.160618 0.294096 -0.392926
0.165760 0.292381 -0.394370
0.169029 0.291520 -0.394129
0.172307 0.290657 -0.393887
0.175593 0.289793 -0.393645
0.180804 0.288056 -0.395100
0.184113 0.287185 -0.394858
0.187430 0.286311 -0.394616
0.190755 0.285435 -0.394373
-0.024811 0.383477 -0.201988
-0.023615 0.383477 -0.200311
-0.022419 0.383477 -0.198635
-0.019782 0.382828 -0.198215
-0.018584 0.382828 -0.196537
-0.017387 0.382828 -0.194859
-0.016189 0.382828 -0.193181
-0.013543 0.382177 -0.192754
-0.013794 0.382828 -0.189825
-0.011145 0.382177 -0.189394
-0.009946 0.382177 -0.187714
-0.008747 0.382177 -0.186035
-0.006090 0.381525 -0.185600
-0.004890 0.381525 -0.183918
-0.002225 0.380871 -0.183480
-0.001024 0.380871 -0.181797
0.001648 0.380216 -0.181356
0.002851 0.380216 -0.179671
0.004053 0.380216 -0.177986
0.006733 0.379560 -0.177541
0.009419 0.378902 -0.177095
0.010624 0.378902 -0.175406
0.013317 0.378243 -0.174957
0.016016 0.377582 -0.174507
0.333773 0.328247 0.021940
0.331109 0.329789 0.025985
0.328457 0.331324 0.030011
0.323854 0.333613 0.035107
0.323190 0.334373 0.038006
0.322527 0.335131 0.040899
0.321865 0.335887 0.043785
0.321206 0.336641 0.046664
0.320547 0.337393 0.049537
0.319890 0.338144 0.052403
0.321177 0.338144 0.054205
0.318581 0.339640 0.058115
0.319865 0.339640 0.059913
0.319211 0.340386 0.062757
0.320493 0.340386 0.064553
0.319839 0.341130 0.067388
0.321119 0.341130 0.069182
0.322399 0.341130 0.070976
0.323680 0.341130 0.072770
0.323023 0.341872 0.075593
0.324302 0.341872 0.077385
0.325581 0.341872 0.079177
0.324923 0.342612 0.081989
0.326200 0.342612 0.083779
0.327477 0.342612 0.085569
0.326818 0.343351 0.088371
0.328094 0.343351 0.090158
0.329370 0.343351 0.091946
0.330646 0.343351 0.093734
0.331921 0.343351 0.095522
0.333197 0.343351 0.097310
0.334473 0.343351 0.099098
0.335749 0.343351 0.100886
0.337025 0.343351 0.102673
0.340251 0.342612 0.103468
0.341528 0.342612 0.105258
0.342806 0.342612 0.107048
0.344083 0.342612 0.108838
0.345360 0.342612 0.110628
0.346638 0.342612 0.112418
0.347915 0.342612 0.114208
0.349192 0.342612 0.115998
0.350470 0.342612 0.117787
0.351747 0.342612 0.119577
0.353025 0.342612 0.121367
0.354302 0.342612 0.123157
0.355579 0.342612 0.124947
0.358830 0.341872 0.125768
0.360109 0.341872 0.127560
0.361388 0.341872 0.129352
0.362667 0.341872 0.131144
0.363946 0.341872 0.132936
0.365224 0.341872 0.134728
0.366503 0.341872 0.136520
0.367782 0.341872 0.138312
0.369061 0.341872 0.140104
0.370340 0.341872 0.141896
0.371619 0.341872 0.143688
0.372897 0.341872 0.145480
0.374176 0.341872 0.147272
0.375455 0.341872 0.149064
0.376734 0.341872 0.150856
0.378013 0.341872 0.152648
0.381293 0.341130 0.153502
0.382574 0.341130 0.155296
0.385863 0.340386 0.156154
0.389161 0.339640 0.157015
0.390444 0.339640 0.158813
0.395778 0.338144 0.158741
0.401137 0.336641 0.158669
0.406521 0.335131 0.158596
-0.049719 0.334730 -0.471152
-0.051462 0.336238 -0.466017
-0.054702 0.338487 -0.459257
-0.056423 0.339977 -0.454180
-0.058136 0.341461 -0.449125
-0.061328 0.343673 -0.442477
-0.063020 0.345140 -0.437479
-0.066176 0.347327 -0.430909
-0.067848 0.348777 -0.425964
-0.070970 0.350940 -0.419470
-0.071169 0.351658 -0.416142
-0.071368 0.352374 -0.412822
-0.070113 0.352374 -0.411065
-0.071763 0.353801 -0.406204
-0.071960 0.354512 -0.402906
-0.072157 0.355222 -0.399615
-0.072353 0.355930 -0.396332
-0.071106 0.355930 -0.394585
-0.071303 0.356636 -0.391311
-0.070057 0.356636 -0.389565
-0.067364 0.355930 -0.389341
-0.066117 0.355930 -0.387594
-0.064869 0.355930 -0.385846
-0.062168 0.355222 -0.385618
-0.059459 0.354512 -0.385389
-0.056745 0.353801 -0.385160
-0.054025 0.353088 -0.384931
-0.051299 0.352374 -0.384701
-0.048566 0.351658 -0.384470
-0.045828 0.350940 -0.384239
-0.043083 0.350221 -0.384007
-0.040332 0.349500 -0.383775
-0.036073 0.348053 -0.385079
-0.033305 0.347327 -0.384847
-0.030530 0.346600 -0.384615
-0.026230 0.345140 -0.385927
-0.023438 0.344407 -0.385695
-0.020639 0.343673 -0.385462
-0.017834 0.342937 -0.385230
-0.015022 0.342200 -0.384996
-0.012204 0.341461 -0.384762
-0.009380 0.340720 -0.384528
-0.063181 0.367045 -0.327617
-0.061955 0.367045 -0.325900
-0.062159 0.367727 -0.322760
-0.062362 0.368407 -0.319626
-0.062565 0.369086 -0.316499
-0.062768 0.369763 -0.313380
-0.062970 0.370439 -0.310267
-0.063171 0.371113 -0.307160
-0.063372 0.371786 -0.304061
-0.063573 0.372457 -0.300968
-0.065185 0.373796 -0.296502
-0.065383 0.374463 -0.293427
-0.065580 0.375128 -0.290360
-0.065777 0.375792 -0.287299
-0.065974 0.376455 -0.284245
-0.066170 0.377116 -0.281197
-0.066366 0.377776 -0.278156
-0.066562 0.378434 -0.275121
-0.066757 0.379091 -0.272094
-0.066951 0.379746 -0.269072
-0.067146 0.380400 -0.266057
-0.065947 0.380400 -0.264377
-0.064748 0.380400 -0.262698
-0.060750 0.379091 -0.263676
-0.058143 0.378434 -0.263324
-0.054117 0.377116 -0.264307
-0.051495 0.376455 -0.263955
-0.047442 0.375128 -0.264943
-0.044803 0.374463 -0.264590
-0.039282 0.372457 -0.266931
-0.036623 0.371786 -0.266579
-0.032506 0.370439 -0.267580
-0.029831 0.369763 -0.267227
-0.025686 0.368407 -0.268233
-0.022994 0.367727 -0.267880
-0.018820 0.366362 -0.268890
0.115823 0.304694 -0.390135
0.118964 0.303866 -0.389893
0.122113 0.303036 -0.389652
0.127079 0.301370 -0.391065
0.130250 0.300534 -0.390823
0.133428 0.299696 -0.390582
0.136614 0.298856 -0.390339
0.141646 0.297169 -0.391763
-0.048266 0.384940 -0.216791
-0.047076 0.384940 -0.215123
-0.045886 0.384940 -0.213456
-0.043289 0.384295 -0.213054
-0.043507 0.384940 -0.210122
-0.040906 0.384295 -0.209716
-0.039715 0.384295 -0.208047
-0.038524 0.384295 -0.206378
-0.037333 0.384295 -0.204709
-0.036142 0.384295 -0.203040
-0.033531 0.383650 -0.202626
-0.032339 0.383650 -0.200955
-0.031146 0.383650 -0.199284
-0.029954 0.383650 -0.197613
-0.028762 0.383650 -0.195942
-0.026140 0.383003 -0.195520
-0.024946 0.383003 -0.193848
-0.023753 0.383003 -0.192175
-0.022559 0.383003 -0.190503
-0.019928 0.382354 -0.190074
-0.018733 0.382354 -0.188400
-0.017538 0.382354 -0.186725
-0.016343 0.382354 -0.185051
-0.013702 0.381704 -0.184616
-0.012506 0.381704 -0.182940
-0.009858 0.381053 -0.182503
-0.008661 0.381053 -0.180825
-0.006006 0.380400 -0.180385
-0.004807 0.380400 -0.178705
-0.003608 0.380400 -0.177025
-0.000945 0.379746 -0.176580
0.000255 0.379746 -0.174899
0.002925 0.379091 -0.174451
0.004126 0.379091 -0.172768
0.006803 0.378434 -0.172318
0.008006 0.378434 -0.170632
0.012175 0.377116 -0.171414
0.013381 0.377116 -0.169725
0.016076 0.376455 -0.169270
0.018778 0.375792 -0.168814
0.021486 0.375128 -0.168357
0.024200 0.374463 -0.167899
0.331536 0.326311 0.020775
0.328877 0.327858 0.024822
0.326230 0.329398 0.028851
0.323595 0.330930 0.032861
0.320973 0.332456 0.036852
0.320313 0.333216 0.039746
0.319654 0.333974 0.042633
0.318997 0.334730 0.045514
0.320286 0.334730 0.047320
0.319629 0.335485 0.050192
0.318973 0.336238 0.053057
0.318319 0.336989 0.055916
0.317666 0.337739 0.058768
0.317015 0.338487 0.061613
0.318296 0.338487 0.063409
0.317645 0.339233 0.066246
0.318926 0.339233 0.068040
0.320206 0.339233 0.069834
0.319553 0.339977 0.072660
0.320832 0.339977 0.074452
0.322111 0.339977 0.076244
0.321457 0.340720 0.079060
0.322734 0.340720 0.080849
0.324011 0.340720 0.082639
0.323356 0.341461 0.085444
0.324632 0.341461 0.087232
0.325908 0.341461 0.089020
0.327184 0.341461 0.090808
0.326525 0.342200 0.093600
0.327800 0.342200 0.095386
0.329074 0.342200 0.097172
0.332287 0.341461 0.097959
0.333563 0.341461 0.099747
0.334839 0.341461 0.101535
0.334172 0.342200 0.104315
0.337391 0.341461 0.105111
0.338667 0.341461 0.106899
0.339943 0.341461 0.108686
0.341218 0.341461 0.110474
0.344449 0.340720 0.111278
0.345727 0.340720 0.113068
0.347004 0.340720 0.114858
0.348281 0.340720 0.116648
0.349559 0.340720 0.118438
0.350836 0.340720 0.120228
0.352113 0.340720 0.122017
0.353391 0.340720 0.123807
0.354668 0.340720 0.125597
0.355945 0.340720 0.127387
0.357223 0.340720 0.129177
0.358500 0.340720 0.130967
0.359778 0.340720 0.132757
0.361055 0.340720 0.134547
0.362332 0.340720 0.136337
0.363610 0.340720 0.138127
0.364887 0.340720 0.139917
0.366164 0.340720 0.141707
0.367442 0.340720 0.143496
0.368719 0.340720 0.145286
0.369996 0.340720 0.147076
0.371274 0.340720 0.148866
0.372551 0.340720 0.150656
0.373829 0.340720 0.152446
0.377101 0.339977 0.153299
0.378379 0.339977 0.155091
0.379658 0.339977 0.156883
0.382941 0.339233 0.157742
0.384221 0.339233 0.159536
0.387513 0.338487 0.160399
0.390812 0.337739 0.161264
0.396147 0.336238 0.161198
0.401507 0.334730 0.161131
0.404841 0.333974 0.162002
-0.054952 0.334332 -0.468967
-0.056678 0.335837 -0.463849
-0.058397 0.337336 -0.458755
-0.061598 0.339570 -0.452051
-0.063296 0.341051 -0.447013
-0.064986 0.342525 -0.441998
-0.068139 0.344724 -0.435405
-0.069808 0.346182 -0.430445
-0.072927 0.348356 -0.423929
-0.074576 0.349797 -0.419022
-0.076218 0.351232 -0.414138
-0.076410 0.351946 -0.410828
-0.076602 0.352660 -0.407525
-0.076793 0.353371 -0.404229
-0.076984 0.354081 -0.400941
-0.077175 0.354790 -0.397660
-0.077365 0.355497 -0.394386
-0.076121 0.355497 -0.392642
-0.076312 0.356202 -0.389378
-0.075069 0.356202 -0.387636
-0.073825 0.356202 -0.385894
-0.072582 0.356202 -0.384152
-0.071339 0.356202 -0.382410
-0.068654 0.355497 -0.382179
-0.065962 0.354790 -0.381948
-0.063264 0.354081 -0.381716
-0.059101 0.352660 -0.383001
-0.056387 0.351946 -0.382770
-0.053666 0.351232 -0.382537
-0.050939 0.350515 -0.382305
-0.046724 0.349077 -0.383599
-0.043980 0.348356 -0.383367
-0.041230 0.347633 -0.383134
-0.038474 0.346908 -0.382901
-0.035711 0.346182 -0.382667
-0.032943 0.345454 -0.382432
-0.030167 0.344724 -0.382197
-0.069986 0.364545 -0.338736
-0.071599 0.365914 -0.334142
-0.071792 0.366596 -0.330996
-0.070570 0.366596 -0.329283
-0.070764 0.367277 -0.326145
-0.070957 0.367956 -0.323015
-0.072560 0.369310 -0.318480
-0.072751 0.369985 -0.315368
-0.072941 0.370658 -0.312263
-0.074532 0.372000 -0.307772
-0.074720 0.372669 -0.304685
-0.074908 0.373336 -0.301605
-0.075095 0.374002 -0.298532
-0.075281 0.374667 -0.295466
-0.075467 0.375330 -0.292406
-0.075653 0.375992 -0.289353
-0.075839 0.376652 -0.286306
-0.076024 0.377311 -0.283266
-0.076208 0.377968 -0.280233
-0.075008 0.377968 -0.278551
-0.075194 0.378624 -0.275526
-0.075379 0.379279 -0.272508
-0.076943 0.380584 -0.268164
-0.077125 0.381234 -0.265163
-0.077308 0.381883 -0.262169
-0.077489 0.382530 -0.259181
-0.077671 0.383177 -0.256199
-0.077852 0.383821 -0.253224
-0.078032 0.384465 -0.250255
-0.078213 0.385107 -0.247293
-0.077027 0.385107 -0.245631
-0.078572 0.386387 -0.241386
-0.077389 0.386387 -0.239728
-0.076205 0.386387 -0.238070
-0.076387 0.387025 -0.235129
-0.073838 0.386387 -0.234753
-0.069911 0.385107 -0.235659
-0.072840 0.387025 -0.230159
-0.070288 0.386387 -0.229778
-0.069104 0.386387 -0.228119
-0.067921 0.386387 -0.226461
-0.066737 0.386387 -0.224802
-0.065554 0.386387 -0.223144
-0.062991 0.385747 -0.222754
-0.061806 0.385747 -0.221094
-0.060621 0.385747 -0.219434
-0.059437 0.385747 -0.217774
-0.058252 0.385747 -0.216114
-0.055678 0.385107 -0.215716
-0.054492 0.385107 -0.214054
-0.053306 0.385107 -0.212392
-0.052120 0.385107 -0.210730
-0.049538 0.384465 -0.210326
-0.048350 0.384465 -0.208663
-0.047163 0.384465 -0.206999
-0.045976 0.384465 -0.205335
-0.044788 0.384465 -0.203672
-0.043601 0.384465 -0.202008
-0.042414 0.384465 -0.200344
-0.039818 0.383821 -0.199929
-0.038629 0.383821 -0.198263
-0.037441 0.383821 -0.196598
-0.036252 0.383821 -0.194932
-0.033647 0.383177 -0.194511
-0.032457 0.383177 -0.192843
-0.031267 0.383177 -0.191176
-0.028654 0.382530 -0.190750
-0.027463 0.382530 -0.189081
-0.026272 0.382530 -0.187412
-0.025081 0.382530 -0.185743
-0.023889 0.382530 -0.184074
-0.021265 0.381883 -0.183639
-0.018636 0.381234 -0.183204
-0.017442 0.381234 -0.181532
-0.016248 0.381234 -0.179859
-0.013610 0.380584 -0.179419
-0.012415 0.380584 -0.177745
-0.009770 0.379932 -0.177303
-0.008574 0.379932 -0.175626
-0.007378 0.379932 -0.173950
-0.004725 0.379279 -0.173503
-0.003527 0.379279 -0.171825
-0.002330 0.379279 -0.170147
0.000332 0.378624 -0.169695
0.001531 0.378624 -0.168016
0.004199 0.377968 -0.167561
0.006874 0.377311 -0.167106
0.009554 0.376652 -0.166650
0.012240 0.375992 -0.166192
0.013444 0.375992 -0.164505
0.016137 0.375330 -0.164045
0.018836 0.374667 -0.163584
0.021540 0.374002 -0.163122
0.022748 0.374002 -0.161429
0.028478 0.372000 -0.163427
0.300189 0.293449 -0.176057
0.299517 0.294300 -0.172738
0.300882 0.294300 -0.170825
0.300210 0.295149 -0.167516
0.299540 0.295996 -0.164216
0.300902 0.295996 -0.162307
0.300231 0.296840 -0.159017
0.301591 0.296840 -0.157111
0.300921 0.297683 -0.153832
0.302279 0.297683 -0.151928
0.301609 0.298523 -0.148659
0.302965 0.298523 -0.146757
0.302295 0.299362 -0.143498
0.303650 0.299362 -0.141599
0.305005 0.299362 -0.139700
0.308393 0.298523 -0.139152
0.331284 0.323598 0.018493
0.326645 0.325928 0.023660
0.324003 0.327472 0.027691
0.321374 0.329009 0.031704
0.318757 0.330539 0.035698
0.318099 0.331301 0.038593
0.319391 0.331301 0.040404
0.318733 0.332061 0.043290
0.318077 0.332820 0.046170
0.317422 0.333577 0.049043
0.316769 0.334332 0.051910
0.316118 0.335086 0.054770
0.317402 0.335086 0.056570
0.316751 0.335837 0.059421
0.314171 0.337336 0.063310
0.315452 0.337336 0.065104
0.316732 0.337336 0.066898
0.316083 0.338082 0.069727
0.317362 0.338082 0.071519
0.318641 0.338082 0.073311
0.319920 0.338082 0.075103
0.319268 0.338827 0.077920
0.320546 0.338827 0.079710
0.321823 0.338827 0.081500
0.321170 0.339570 0.084306
0.322446 0.339570 0.086094
0.323722 0.339570 0.087882
0.324998 0.339570 0.089669
0.324342 0.340311 0.092463
0.325616 0.340311 0.094249
0.326891 0.340311 0.096035
0.328165 0.340311 0.097820
0.329439 0.340311 0.099606
0.330714 0.340311 0.101392
0.331988 0.340311 0.103178
0.333263 0.340311 0.104964
0.334537 0.340311 0.106750
0.335812 0.340311 0.108535
0.337086 0.340311 0.110321
0.340308 0.339570 0.111124
0.341584 0.339570 0.112912
0.342860 0.339570 0.114699
0.344136 0.339570 0.116487
0.345412 0.339570 0.118275
0.346688 0.339570 0.120063
0.347964 0.339570 0.121851
0.349240 0.339570 0.123639
0.352480 0.338827 0.124458
0.353757 0.338827 0.126248
0.355034 0.338827 0.128037
0.356312 0.338827 0.129827
0.357589 0.338827 0.131617
0.358866 0.338827 0.133407
0.360144 0.338827 0.135197
0.361421 0.338827 0.136987
0.362699 0.338827 0.138777
0.363976 0.338827 0.140567
0.365253 0.338827 0.142357
0.366531 0.338827 0.144147
0.367808 0.338827 0.145937
0.369085 0.338827 0.147726
0.370363 0.338827 0.149516
0.371640 0.338827 0.151306
0.372917 0.338827 0.153096
0.374195 0.338827 0.154886
0.375472 0.338827 0.156676
0.376749 0.338827 0.158466
0.380025 0.338082 0.159326
0.381304 0.338082 0.161118
0.384588 0.337336 0.161982
0.385868 0.337336 0.163776
0.389162 0.336587 0.164644
0.394487 0.335086 0.164585
0.399837 0.333577 0.164527
0.405211 0.332061 0.164468
0.410611 0.330539 0.164409
-0.056935 0.331669 -0.473586
-0.058659 0.333182 -0.468452
-0.061871 0.335439 -0.461691
-0.063574 0.336934 -0.456614
-0.065269 0.338423 -0.451559
-0.068432 0.340643 -0.444911
-0.070106 0.342115 -0.439912
-0.071773 0.343580 -0.434936
-0.074889 0.345766 -0.428397
-0.076535 0.347214 -0.423475
-0.079617 0.349375 -0.417012
-0.081244 0.350807 -0.412143
-0.081430 0.351521 -0.408842
-0.081616 0.352233 -0.405549
-0.081801 0.352944 -0.402263
-0.081986 0.353653 -0.398984
-0.082171 0.354360 -0.395712
-0.082355 0.355066 -0.392448
-0.082538 0.355770 -0.389191
-0.081298 0.355770 -0.387453
-0.081483 0.356473 -0.384206
-0.080244 0.356473 -0.382470
-0.077577 0.355770 -0.382240
-0.076337 0.355770 -0.380502
-0.073663 0.355066 -0.380269
-0.070983 0.354360 -0.380036
-0.068297 0.353653 -0.379802
-0.065605 0.352944 -0.379568
-0.062907 0.352233 -0.379333
-0.058743 0.350807 -0.380613
-0.056028 0.350092 -0.380379
-0.053307 0.349375 -0.380144
-0.050580 0.348656 -0.379909
-0.076806 0.362038 -0.349880
-0.078406 0.363414 -0.345256
-0.080000 0.364784 -0.340652
-0.080183 0.365467 -0.337502
-0.080366 0.366148 -0.334359
-0.080549 0.366828 -0.331223
-0.080731 0.367506 -0.328094
-0.080913 0.368183 -0.324972
-0.081095 0.368858 -0.321856
-0.082668 0.370204 -0.317344
-0.082847 0.370875 -0.314247
-0.083026 0.371545 -0.311157
-0.083204 0.372212 -0.308073
-0.083382 0.372879 -0.304996
-0.083559 0.373544 -0.301926
-0.083736 0.374208 -0.298863
-0.083913 0.374870 -0.295806
-0.084089 0.375531 -0.292756
-0.084265 0.376190 -0.289712
-0.084440 0.376848 -0.286675
-0.084616 0.377504 -0.283644
-0.084790 0.378159 -0.280620
-0.084965 0.378813 -0.277603
-0.085139 0.379465 -0.274592
-0.085312 0.380116 -0.271587
-0.085486 0.380765 -0.268589
-0.085658 0.381414 -0.265597
-0.085831 0.382060 -0.262612
-0.084642 0.382060 -0.260946
-0.084816 0.382705 -0.257969
-0.086346 0.383992 -0.253694
-0.085162 0.383992 -0.252034
-0.085334 0.384633 -0.249076
-0.085506 0.385273 -0.246124
-0.084324 0.385273 -0.244467
-0.084496 0.385911 -0.241523
-0.084669 0.386548 -0.238586
-0.083489 0.386548 -0.236933
-0.082309 0.386548 -0.235280
-0.082484 0.387184 -0.232352
-0.081306 0.387184 -0.230700
-0.080127 0.387184 -0.229049
-0.078949 0.387184 -0.227398
-0.077770 0.387184 -0.225746
-0.075231 0.386548 -0.225361
-0.074051 0.386548 -0.223708
-0.072872 0.386548 -0.222055
-0.071692 0.386548 -0.220402
-0.069144 0.385911 -0.220010
-0.067963 0.385911 -0.218355
-0.066782 0.385911 -0.216701
-0.065601 0.385911 -0.215046
-0.064420 0.385911 -0.213391
-0.061861 0.385273 -0.212991
-0.060679 0.385273 -0.211335
-0.059497 0.385273 -0.209678
-0.058314 0.385273 -0.208022
-0.057132 0.385273 -0.206365
-0.054563 0.384633 -0.205958
-0.053379 0.384633 -0.204299
-0.052196 0.384633 -0.202641
-0.051012 0.384633 -0.200983
-0.049829 0.384633 -0.199324
-0.047249 0.383992 -0.198909
-0.046065 0.383992 -0.197249
-0.044880 0.383992 -0.195589
-0.042292 0.383349 -0.195169
-0.041106 0.383349 -0.193507
-0.039920 0.383349 -0.191845
-0.038734 0.383349 -0.190183
-0.036137 0.382705 -0.189758
-0.034950 0.382705 -0.188094
-0.033762 0.382705 -0.186430
-0.032575 0.382705 -0.184766
-0.029969 0.382060 -0.184334
-0.028780 0.382060 -0.182669
-0.026167 0.381414 -0.182234
-0.024977 0.381414 -0.180567
-0.022357 0.380765 -0.180129
-0.021166 0.380765 -0.178460
-0.019975 0.380765 -0.176791
-0.017346 0.380116 -0.176349
-0.016154 0.380116 -0.174678
-0.014962 0.380116 -0.173007
-0.012325 0.379465 -0.172561
-0.011131 0.379465 -0.170888
-0.009938 0.379465 -0.169216
-0.007293 0.378813 -0.168765
-0.006098 0.378813 -0.167090
-0.004903 0.378813 -0.165416
-0.002250 0.378159 -0.164960
-0.001054 0.378159 -0.163284
0.001606 0.377504 -0.162825
0.004272 0.376848 -0.162366
0.006944 0.376190 -0.161905
0.009621 0.375531 -0.161444
0.012304 0.374870 -0.160981
0.013507 0.374870 -0.159296
0.016197 0.374208 -0.158831
0.018893 0.373544 -0.158364
0.021595 0.372879 -0.157897
0.025807 0.371545 -0.158654
0.034594 0.368183 -0.163116
0.288938 0.290568 -0.194030
0.288279 0.291424 -0.190684
0.285602 0.293129 -0.185929
0.282938 0.294825 -0.181197
0.282290 0.295670 -0.177888
0.281644 0.296513 -0.174587
0.283001 0.296513 -0.172686
0.282355 0.297354 -0.169395
0.283710 0.297354 -0.167496
0.283064 0.298193 -0.164216
0.284417 0.298193 -0.162319
0.283771 0.299029 -0.159049
0.285123 0.299029 -0.157154
0.286475 0.299029 -0.155260
0.287827 0.299029 -0.153366
0.287177 0.299864 -0.150110
0.288527 0.299864 -0.148218
0.289877 0.299864 -0.146326
0.291228 0.299864 -0.144434
0.292578 0.299864 -0.142542
0.293928 0.299864 -0.140650
0.295279 0.299864 -0.138757
0.296629 0.299864 -0.136865
0.297979 0.299864 -0.134973
0.301346 0.299029 -0.134421
0.304721 0.298193 -0.133868
0.308105 0.297354 -0.133313
0.313537 0.295670 -0.134103
0.329044 0.321661 0.017327
0.326387 0.323220 0.021387
0.321776 0.325546 0.026532
0.319152 0.327088 0.030547
0.316540 0.328622 0.034544
0.317834 0.328622 0.036356
0.317177 0.329386 0.039251
0.316522 0.330149 0.042139
0.315868 0.330910 0.045020
0.315216 0.331669 0.047894
0.314566 0.332426 0.050762
0.315852 0.332426 0.052565
0.315201 0.333182 0.055424
0.314552 0.333936 0.058276
0.313904 0.334688 0.061122
0.313258 0.335439 0.063961
0.312613 0.336187 0.066794
0.313892 0.336187 0.068586
0.315171 0.336187 0.070378
0.316450 0.336187 0.072170
0.315802 0.336934 0.074990
0.317080 0.336934 0.076780
0.318357 0.336934 0.078570
0.319634 0.336934 0.080360
0.318984 0.337679 0.083168
0.320260 0.337679 0.084955
0.321536 0.337679 0.086743
0.322812 0.337679 0.088531
0.322158 0.338423 0.091326
0.323433 0.338423 0.093112
0.324707 0.338423 0.094898
0.325982 0.338423 0.096683
0.327256 0.338423 0.098469
0.328530 0.338423 0.100255
0.327871 0.339165 0.103033
0.331079 0.338423 0.103827
0.332354 0.338423 0.105612
0.333628 0.338423 0.107398
0.334903 0.338423 0.109184
0.336177 0.338423 0.110970
0.337451 0.338423 0.112756
0.338726 0.338423 0.114541
0.340000 0.338423 0.116327
0.341275 0.338423 0.118113
0.342549 0.338423 0.119899
0.343824 0.338423 0.121685
0.345098 0.338423 0.123471
0.348330 0.337679 0.124288
0.349605 0.337679 0.126076
0.350881 0.337679 0.127864
0.352157 0.337679 0.129652
0.353433 0.337679 0.131440
0.354709 0.337679 0.133228
0.355985 0.337679 0.135015
0.357261 0.337679 0.136803
0.358537 0.337679 0.138591
0.359813 0.337679 0.140379
0.361088 0.337679 0.142167
0.362364 0.337679 0.143955
0.363640 0.337679 0.145743
0.364916 0.337679 0.147530
0.366192 0.337679 0.149318
0.367468 0.337679 0.151106
0.368744 0.337679 0.152894
0.370020 0.337679 0.154682
0.371296 0.337679 0.156470
0.372572 0.337679 0.158258
0.375838 0.336934 0.159116
0.377116 0.336934 0.160906
0.380391 0.336187 0.161769
0.381670 0.336187 0.163561
0.382949 0.336187 0.165353
0.386236 0.335439 0.166222
0.387516 0.335439 0.168016
0.394855 0.333182 0.167040
0.398171 0.332426 0.167914
0.403535 0.330910 0.167864
0.408924 0.329386 0.167812
-0.062145 0.331278 -0.471398
-0.063853 0.332789 -0.466281
-0.065554 0.334292 -0.461187
-0.068727 0.336535 -0.454482
-0.070406 0.338021 -0.449444
-0.072078 0.339500 -0.444429
-0.075203 0.341707 -0.437836
-0.076854 0.343170 -0.432876
-0.079946 0.345352 -0.426358
-0.081577 0.346798 -0.421452
-0.083201 0.348238 -0.416568
-0.086247 0.350385 -0.410157
-0.086427 0.351098 -0.406866
-0.086607 0.351809 -0.403582
-0.086786 0.352518 -0.400305
-0.086965 0.353226 -0.397036
-0.087144 0.353932 -0.393774
-0.087322 0.354637 -0.390519
-0.087500 0.355340 -0.387272
-0.086262 0.355340 -0.385538
-0.086441 0.356042 -0.382300
-0.085205 0.356042 -0.380567
-0.083969 0.356042 -0.378835
-0.081312 0.355340 -0.378601
-0.080075 0.355340 -0.376867
-0.075981 0.353932 -0.378132
-0.073307 0.353226 -0.377897
-0.070627 0.352518 -0.377661
-0.083641 0.359526 -0.361048
-0.085228 0.360910 -0.356394
-0.086808 0.362286 -0.351761
-0.088382 0.363657 -0.347148
-0.088556 0.364341 -0.343994
-0.088729 0.365022 -0.340848
-0.088903 0.365703 -0.337708
-0.089076 0.366381 -0.334575
-0.089248 0.367058 -0.331449
-0.090804 0.368409 -0.326916
-0.090974 0.369081 -0.323809
-0.091144 0.369753 -0.320708
-0.091313 0.370423 -0.317614
-0.091482 0.371091 -0.314527
-0.091651 0.371758 -0.311447
-0.091819 0.372424 -0.308373
-0.091987 0.373088 -0.305306
-0.092154 0.373750 -0.302245
-0.092322 0.374412 -0.299191
-0.092488 0.375071 -0.296144
-0.092655 0.375730 -0.293103
-0.092821 0.376387 -0.290069
-0.092987 0.377042 -0.287041
-0.093152 0.377696 -0.284020
-0.093317 0.378349 -0.281005
-0.093482 0.379001 -0.277997
-0.093646 0.379650 -0.274995
-0.093810 0.380299 -0.272000
-0.093974 0.380946 -0.269011
-0.092786 0.380946 -0.267347
-0.092951 0.381592 -0.264366
-0.093115 0.382236 -0.261392
-0.091930 0.382236 -0.259732
-0.092096 0.382879 -0.256765
-0.092260 0.383521 -0.253805
-0.092425 0.384161 -0.250851
-0.091244 0.384161 -0.249197
-0.091409 0.384800 -0.246251
-0.090229 0.384800 -0.244598
-0.090396 0.385438 -0.241660
-0.090561 0.386074 -0.238729
-0.089384 0.386074 -0.237079
-0.088207 0.386074 -0.235429
-0.088375 0.386709 -0.232508
-0.088543 0.387343 -0.229592
-0.087368 0.387343 -0.227946
-0.086193 0.387343 -0.226300
-0.085018 0.387343 -0.224654
-0.083844 0.387343 -0.223007
-0.082669 0.387343 -0.221361
-0.080143 0.386709 -0.220973
-0.078967 0.386709 -0.219325
-0.077791 0.386709 -0.217677
-0.075257 0.386074 -0.217284
-0.074080 0.386074 -0.215634
-0.072903 0.386074 -0.213984
-0.071726 0.386074 -0.212335
-0.070548 0.386074 -0.210685
-0.068004 0.385438 -0.210284
-0.066826 0.385438 -0.208633
-0.065648 0.385438 -0.206982
-0.064469 0.385438 -0.205330
-0.061916 0.384800 -0.204923
-0.060736 0.384800 -0.203270
-0.059556 0.384800 -0.201617
-0.058377 0.384800 -0.199964
-0.055814 0.384161 -0.199551
-0.054633 0.384161 -0.197896
-0.053452 0.384161 -0.196241
-0.052271 0.384161 -0.194586
-0.049700 0.383521 -0.194167
-0.048518 0.383521 -0.192510
-0.047335 0.383521 -0.190854
-0.046153 0.383521 -0.189197
-0.043572 0.382879 -0.188771
-0.042389 0.382879 -0.187113
-0.041205 0.382879 -0.185455
-0.040022 0.382879 -0.183796
-0.037432 0.382236 -0.183365
-0.036247 0.382236 -0.181704
-0.033650 0.381592 -0.181270
-0.032464 0.381592 -0.179608
-0.029860 0.380946 -0.179171
-0.028673 0.380946 -0.177507
-0.027485 0.380946 -0.175844
-0.024874 0.380299 -0.175402
-0.023685 0.380299 -0.173736
-0.022497 0.380299 -0.172071
-0.019877 0.379650 -0.171625
-0.018687 0.379650 -0.169958
-0.016060 0.379001 -0.169509
-0.014869 0.379001 -0.167840
-0.013678 0.379001 -0.166171
-0.011043 0.378349 -0.165717
-0.009850 0.378349 -0.164046
-0.008658 0.378349 -0.162375
-0.006014 0.377696 -0.161917
-0.004821 0.377696 -0.160245
-0.003627 0.377696 -0.158572
-0.000976 0.377042 -0.158110
0.001682 0.376387 -0.157646
0.004345 0.375730 -0.157182
0.007013 0.375071 -0.156716
0.009688 0.374412 -0.156249
0.010888 0.374412 -0.154568
0.013570 0.373750 -0.154098
0.016257 0.373088 -0.153628
0.018950 0.372424 -0.153156
0.023147 0.371091 -0.153901
0.028872 0.369081 -0.155873
0.277659 0.287680 -0.212047
0.277013 0.288541 -0.208675
0.274361 0.290254 -0.203870
0.271721 0.291960 -0.199088
0.271086 0.292809 -0.195753
0.268464 0.294502 -0.191009
0.265855 0.296187 -0.186287
0.265231 0.297026 -0.182988
0.264609 0.297863 -0.179697
0.265959 0.297863 -0.177805
0.265337 0.298698 -0.174524
0.266685 0.298698 -0.172634
0.268034 0.298698 -0.170744
0.269383 0.298698 -0.168854
0.270731 0.298698 -0.166965
0.268132 0.300363 -0.162330
0.269478 0.300363 -0.160445
0.270823 0.300363 -0.158560
0.272169 0.300363 -0.156674
0.273514 0.300363 -0.154789
0.272885 0.301192 -0.151548
0.274228 0.301192 -0.149665
0.277550 0.300363 -0.149133
0.276916 0.301192 -0.145899
0.278260 0.301192 -0.144016
0.279603 0.301192 -0.142133
0.280947 0.301192 -0.140250
0.282291 0.301192 -0.138367
0.283635 0.301192 -0.136484
0.284979 0.301192 -0.134601
0.286322 0.301192 -0.132718
0.287666 0.301192 -0.130835
0.289010 0.301192 -0.128952
0.292350 0.300363 -0.128395
0.297705 0.298698 -0.129168
0.299053 0.298698 -0.127278
0.300402 0.298698 -0.125388
0.305790 0.297026 -0.126155
0.311204 0.295345 -0.126926
0.316644 0.293657 -0.127700
0.326240 0.290254 -0.131174
0.326804 0.319723 0.016160
0.324153 0.321288 0.020224
0.319549 0.323620 0.025372
0.316930 0.325166 0.029390
0.314324 0.326705 0.033389
0.315618 0.326705 0.035202
0.314963 0.327471 0.038098
0.314311 0.328236 0.040987
0.313660 0.329000 0.043870
0.314949 0.329000 0.045676
0.314298 0.329761 0.048550
0.313648 0.330521 0.051417
0.313000 0.331278 0.054277
0.312353 0.332034 0.057131
0.311708 0.332789 0.059978
0.312990 0.332789 0.061775
0.312345 0.333541 0.064613
0.311701 0.334292 0.067445
0.312980 0.334292 0.069237
0.314259 0.334292 0.071029
0.315538 0.334292 0.072821
0.314891 0.335041 0.075641
0.316169 0.335041 0.077430
0.317446 0.335041 0.079220
0.318723 0.335041 0.081010
0.318074 0.335789 0.083817
0.319350 0.335789 0.085605
0.320626 0.335789 0.087393
0.321902 0.335789 0.089181
0.321249 0.336535 0.091975
0.322524 0.336535 0.093761
0.323798 0.336535 0.095546
0.323144 0.337279 0.098330
0.324417 0.337279 0.100114
0.325690 0.337279 0.101898
0.326963 0.337279 0.103681
0.328236 0.337279 0.105465
0.329509 0.337279 0.107249
0.330782 0.337279 0.109033
0.332055 0.337279 0.110816
0.333328 0.337279 0.112600
0.336542 0.336535 0.113404
0.337817 0.336535 0.115190
0.339091 0.336535 0.116976
0.340366 0.336535 0.118762
0.341640 0.336535 0.120548
0.342915 0.336535 0.122333
0.344189 0.336535 0.124119
0.345463 0.336535 0.125905
0.346738 0.336535 0.127691
0.348012 0.336535 0.129477
0.349287 0.336535 0.131262
0.350561 0.336535 0.133048
0.351836 0.336535 0.134834
0.353110 0.336535 0.136620
0.354384 0.336535 0.138406
0.355659 0.336535 0.140192
0.356933 0.336535 0.141977
0.360178 0.335789 0.142816
0.361454 0.335789 0.144604
0.362730 0.335789 0.146392
0.364006 0.335789 0.148180
0.365282 0.335789 0.149968
0.366558 0.335789 0.151756
0.367834 0.335789 0.153543
0.369110 0.335789 0.155331
0.370386 0.335789 0.157119
0.371661 0.335789 0.158907
0.372937 0.335789 0.160695
0.374213 0.335789 0.162483
0.377482 0.335041 0.163346
0.378759 0.335041 0.165136
0.382037 0.334292 0.166004
0.383316 0.334292 0.167796
0.384595 0.334292 0.169588
0.387883 0.333541 0.170461
0.393199 0.332034 0.170417
0.398539 0.330521 0.170372
0.403905 0.329000 0.170326
0.409295 0.327471 0.170281
-0.065841 0.330133 -0.470880
-0.069024 0.332397 -0.464120
-0.070708 0.333898 -0.459042
-0.072385 0.335392 -0.453988
-0.075520 0.337621 -0.447339
-0.077176 0.339098 -0.442340
-0.078825 0.340568 -0.437364
-0.081913 0.342761 -0.430825
-0.083542 0.344215 -0.425903
-0.086597 0.346383 -0.419438
-0.088206 0.347821 -0.414570
-0.089808 0.349252 -0.409723
-0.091402 0.350676 -0.404898
-0.091576 0.351386 -0.401624
-0.091750 0.352095 -0.398357
-0.091923 0.352801 -0.395097
-0.092095 0.353507 -0.391844
-0.092267 0.354210 -0.388599
-0.092439 0.354912 -0.385361
-0.092611 0.355613 -0.382130
-0.091378 0.355613 -0.380402
-0.091550 0.356312 -0.377180
-0.090318 0.356312 -0.375453
-0.090491 0.357009 -0.372241
-0.092065 0.358399 -0.367557
-0.093632 0.359783 -0.362894
-0.096580 0.361848 -0.356794
-0.096745 0.362533 -0.353630
-0.096910 0.363217 -0.350473
-0.097074 0.363899 -0.347322
-0.097238 0.364580 -0.344179
-0.097402 0.365259 -0.341043
-0.098940 0.366613 -0.336488
-0.099101 0.367288 -0.333371
-0.099262 0.367961 -0.330259
-0.099422 0.368633 -0.327155
-0.099583 0.369303 -0.324058
-0.099742 0.369972 -0.320967
-0.099902 0.370640 -0.317883
-0.100061 0.371306 -0.314805
-0.100220 0.371970 -0.311734
-0.100378 0.372633 -0.308670
-0.100537 0.373295 -0.305613
-0.100694 0.373955 -0.302562
