ply
format ascii 1.0
element vertex 1673
property float x
property float y
property float z
end_header
0.186925 0.121260 -0.494543
0.185300 0.121260 -0.494065
0.183040 0.121497 -0.494761
0.181417 0.121497 -0.494284
0.179794 0.121497 -0.493806
0.177540 0.121733 -0.494502
0.175919 0.121733 -0.494024
0.173670 0.121969 -0.494719
0.172051 0.121969 -0.494242
0.170431 0.121969 -0.493765
0.168189 0.122205 -0.494460
0.166571 0.122205 -0.493984
0.164334 0.122440 -0.494677
0.162717 0.122440 -0.494201
0.161100 0.122440 -0.493725
0.158871 0.122674 -0.494419
0.157255 0.122674 -0.493943
0.155640 0.122674 -0.493467
0.153417 0.122909 -0.494160
0.151803 0.122909 -0.493685
0.150189 0.122909 -0.493210
0.147973 0.123143 -0.493903
0.146360 0.123143 -0.493428
0.144149 0.123376 -0.494120
0.142538 0.123376 -0.493645
0.140927 0.123376 -0.493171
0.138722 0.123609 -0.493862
0.137113 0.123609 -0.493388
0.135503 0.123609 -0.492914
0.133305 0.123842 -0.493605
0.131697 0.123842 -0.493132
0.129505 0.124074 -0.493822
0.127898 0.124074 -0.493349
0.126291 0.124074 -0.492876
0.124105 0.124306 -0.493566
0.122500 0.124306 -0.493093
0.120894 0.124306 -0.492620
0.118715 0.124537 -0.493310
0.117111 0.124537 -0.492837
0.114937 0.124769 -0.493526
0.113334 0.124769 -0.493054
0.111732 0.124769 -0.492582
0.109564 0.124999 -0.493271
0.107963 0.124999 -0.492799
0.106362 0.124999 -0.492328
0.104201 0.125229 -0.493016
0.102601 0.125229 -0.492545
0.100446 0.125459 -0.493232
0.098847 0.125459 -0.492761
0.097249 0.125459 -0.492291
0.095100 0.125689 -0.492977
0.093503 0.125689 -0.492507
0.091905 0.125689 -0.492037
0.089763 0.125918 -0.492723
0.088167 0.125918 -0.492253
0.086030 0.126146 -0.492939
0.084435 0.126146 -0.492470
0.082841 0.126146 -0.492000
0.080710 0.126375 -0.492686
0.079117 0.126375 -0.492216
0.077524 0.126375 -0.491747
0.075400 0.126602 -0.492432
0.073808 0.126602 -0.491964
0.071689 0.126830 -0.492648
0.070099 0.126830 -0.492180
0.068508 0.126830 -0.491711
0.066396 0.127057 -0.492395
0.064807 0.127057 -0.491927
0.063218 0.127057 -0.491459
0.061111 0.127284 -0.492143
0.059524 0.127284 -0.491675
0.057422 0.127510 -0.492358
0.055836 0.127510 -0.491891
0.054250 0.127510 -0.491424
0.052155 0.127736 -0.492106
0.050570 0.127736 -0.491640
0.048985 0.127736 -0.491173
0.046897 0.127961 -0.491855
0.045313 0.127961 -0.491389
0.043230 0.128186 -0.492070
0.041647 0.128186 -0.491604
0.040065 0.128186 -0.491138
0.037988 0.128411 -0.491819
0.036407 0.128411 -0.491353
0.034827 0.128411 -0.490888
0.032756 0.128636 -0.491568
0.031176 0.128636 -0.491103
0.029110 0.128859 -0.491783
0.027532 0.128859 -0.491318
0.025954 0.128859 -0.490854
0.023894 0.129083 -0.491533
0.022318 0.129083 -0.491069
0.020741 0.129083 -0.490605
0.018687 0.129306 -0.491283
0.017112 0.129306 -0.490820
0.015063 0.129529 -0.491498
0.013489 0.129529 -0.491034
0.011915 0.129529 -0.490571
0.009873 0.129751 -0.491249
0.008300 0.129751 -0.490786
0.006728 0.129751 -0.490323
0.004691 0.129973 -0.491000
0.003120 0.129973 -0.490537
0.001088 0.130195 -0.491214
-0.000482 0.130195 -0.490752
-0.002051 0.130195 -0.490289
-0.004077 0.130416 -0.490966
-0.005645 0.130416 -0.490504
-0.007214 0.130416 -0.490042
-0.008783 0.130416 -0.489580
-0.010351 0.130416 -0.489118
-0.012368 0.130637 -0.489795
-0.013935 0.130637 -0.489333
-0.015502 0.130637 -0.488872
-0.017513 0.130858 -0.489548
-0.019078 0.130858 -0.489087
-0.020644 0.130858 -0.488626
-0.022649 0.131078 -0.489302
-0.024213 0.131078 -0.488841
-0.026213 0.131298 -0.489517
-0.027776 0.131298 -0.489056
-0.029339 0.131298 -0.488596
-0.031333 0.131517 -0.489271
-0.032895 0.131517 -0.488811
-0.034457 0.131517 -0.488351
-0.036444 0.131736 -0.489026
-0.038005 0.131736 -0.488566
-0.039987 0.131955 -0.489240
-0.041547 0.131955 -0.488781
-0.043106 0.131955 -0.488321
-0.045083 0.132173 -0.488995
-0.046641 0.132173 -0.488536
-0.048198 0.132173 -0.488077
-0.050169 0.132391 -0.488750
-0.051726 0.132391 -0.488292
-0.053692 0.132609 -0.488964
-0.055247 0.132609 -0.488506
-0.056803 0.132609 -0.488048
-0.058763 0.132826 -0.488720
-0.060317 0.132826 -0.488263
-0.061871 0.132826 -0.487805
-0.063825 0.133043 -0.488477
-0.065377 0.133043 -0.488019
-0.067327 0.133259 -0.488690
-0.068878 0.133259 -0.488233
-0.070430 0.133259 -0.487777
-0.072373 0.133475 -0.488447
-0.073923 0.133475 -0.487991
-0.075473 0.133475 -0.487534
-0.077411 0.133691 -0.488204
-0.078960 0.133691 -0.487748
-0.081277 0.134121 -0.489541
-0.082823 0.134121 -0.489086
-0.084369 0.134121 -0.488630
-0.086295 0.134336 -0.489298
-0.087840 0.134336 -0.488843
-0.089384 0.134336 -0.488388
-0.091304 0.134550 -0.489055
-0.092847 0.134550 -0.488601
-0.094762 0.134764 -0.489267
-0.096305 0.134764 -0.488813
-0.097847 0.134764 -0.488359
-0.099756 0.134977 -0.489025
-0.101297 0.134977 -0.488571
-0.102838 0.134977 -0.488117
-0.104741 0.135191 -0.488783
-0.106281 0.135191 -0.488330
-0.108180 0.135403 -0.488994
-0.109718 0.135403 -0.488542
-0.111257 0.135403 -0.488089
-0.113150 0.135616 -0.488753
-0.114687 0.135616 -0.488300
-0.116224 0.135616 -0.487848
-0.118111 0.135828 -0.488512
-0.119647 0.135828 -0.488060
-0.121530 0.136040 -0.488723
-0.123065 0.136040 -0.488271
-0.124599 0.136040 -0.487820
-0.126476 0.136251 -0.488483
-0.128010 0.136251 -0.488031
-0.129543 0.136251 -0.487580
-0.131414 0.136462 -0.488243
-0.132946 0.136462 -0.487792
-0.134814 0.136673 -0.488454
-0.136344 0.136673 -0.488003
-0.137875 0.136673 -0.487552
-0.139736 0.136883 -0.488214
-0.141266 0.136883 -0.487763
-0.142795 0.136883 -0.487313
-0.144651 0.137093 -0.487974
-0.146179 0.137093 -0.487525
-0.148031 0.137303 -0.488185
-0.149557 0.137303 -0.487736
-0.151084 0.137303 -0.487286
-0.152930 0.137512 -0.487946
-0.154456 0.137512 -0.487497
-0.155981 0.137512 -0.487048
-0.157822 0.137721 -0.487708
-0.159346 0.137721 -0.487259
-0.161182 0.137930 -0.487918
-0.162705 0.137930 -0.487470
-0.164228 0.137930 -0.487021
-0.166058 0.138138 -0.487680
-0.167580 0.138138 -0.487232
-0.169406 0.138346 -0.487890
-0.170927 0.138346 -0.487442
-0.172447 0.138346 -0.486994
-0.174268 0.138553 -0.487652
-0.175787 0.138553 -0.487205
-0.177306 0.138553 -0.486758
-0.179121 0.138761 -0.487415
-0.180639 0.138761 -0.486968
-0.182450 0.138968 -0.487625
-0.183967 0.138968 -0.487178
-0.185484 0.138968 -0.486731
-0.187289 0.139174 -0.487388
-0.188804 0.139174 -0.486941
-0.190320 0.139174 -0.486495
-0.192120 0.139380 -0.487151
-0.193634 0.139380 -0.486705
-0.195430 0.139586 -0.487361
-0.197222 0.139792 -0.488015
-0.198734 0.139792 -0.487570
-0.200522 0.139997 -0.488223
-0.202033 0.139997 -0.487778
-0.203543 0.139997 -0.487334
-0.205326 0.140202 -0.487987
-0.206836 0.140202 -0.487542
-0.208615 0.140406 -0.488195
-0.210123 0.140406 -0.487751
-0.211631 0.140406 -0.487307
-0.213404 0.140610 -0.487959
-0.214911 0.140610 -0.487515
-0.216418 0.140610 -0.487071
-0.218186 0.140814 -0.487723
-0.219691 0.140814 -0.487280
-0.221455 0.141018 -0.487931
-0.222959 0.141018 -0.487488
-0.224464 0.141018 -0.487045
-0.226222 0.141221 -0.487696
-0.227725 0.141221 -0.487253
-0.229228 0.141221 -0.486811
-0.230982 0.141424 -0.487461
-0.232484 0.141424 -0.487019
-0.234233 0.141626 -0.487668
-0.235733 0.141626 -0.487227
-0.237234 0.141626 -0.486785
-0.238735 0.141626 -0.486343
-0.240235 0.141626 -0.485901
-0.241977 0.141828 -0.486551
-0.243476 0.141828 -0.486109
-0.244975 0.141828 -0.485668
-0.246475 0.141828 -0.485227
-0.247974 0.141828 -0.484785
-0.249708 0.142030 -0.485435
-0.251206 0.142030 -0.484994
-0.252704 0.142030 -0.484553
-0.254432 0.142232 -0.485203
-0.255929 0.142232 -0.484762
-0.257426 0.142232 -0.484322
-0.258923 0.142232 -0.483881
-0.260645 0.142433 -0.484531
-0.262141 0.142433 -0.484091
-0.263636 0.142433 -0.483650
-0.265132 0.142433 -0.483210
-0.266848 0.142634 -0.483860
-0.268342 0.142634 -0.483420
-0.269836 0.142634 -0.482980
-0.271331 0.142634 -0.482540
-0.273040 0.142834 -0.483190
-0.274746 0.143035 -0.483839
-0.276026 0.142834 -0.482310
-0.277520 0.142834 -0.481871
-0.279222 0.143035 -0.482521
-0.280714 0.143035 -0.482082
-0.282206 0.143035 -0.481642
-0.283698 0.143035 -0.481203
-0.285190 0.143035 -0.480763
-0.286683 0.143035 -0.480324
-0.288175 0.143035 -0.479885
-0.289667 0.143035 -0.479445
-0.291159 0.143035 -0.479006
-0.292651 0.143035 -0.478567
-0.294143 0.143035 -0.478127
-0.295635 0.143035 -0.477688
-0.296932 0.142834 -0.476155
-0.298425 0.142834 -0.475715
-0.299918 0.142834 -0.475275
-0.301412 0.142834 -0.474836
-0.302905 0.142834 -0.474396
-0.304398 0.142834 -0.473956
-0.305891 0.142834 -0.473516
-0.307384 0.142834 -0.473077
-0.308878 0.142834 -0.472637
-0.310371 0.142834 -0.472197
-0.311864 0.142834 -0.471758
-0.313357 0.142834 -0.471318
-0.314851 0.142834 -0.470878
-0.316165 0.142634 -0.469338
-0.317659 0.142634 -0.468898
-0.319153 0.142634 -0.468458
-0.320824 0.142834 -0.469119
-0.322317 0.142834 -0.468680
-0.323810 0.142834 -0.468240
-0.325303 0.142834 -0.467800
-0.326797 0.142834 -0.467361
-0.328290 0.142834 -0.466921
-0.329783 0.142834 -0.466481
-0.331276 0.142834 -0.466042
-0.332770 0.142834 -0.465602
-0.334263 0.142834 -0.465162
-0.335756 0.142834 -0.464723
-0.337249 0.142834 -0.464283
-0.338742 0.142834 -0.463843
-0.340076 0.142634 -0.462297
-0.341570 0.142634 -0.461857
-0.343065 0.142634 -0.461417
-0.344559 0.142634 -0.460977
-0.345898 0.142433 -0.459427
-0.347394 0.142433 -0.458987
-0.348890 0.142433 -0.458547
-0.350385 0.142433 -0.458106
-0.351730 0.142232 -0.456553
-0.353227 0.142232 -0.456112
-0.354724 0.142232 -0.455672
-0.356074 0.142030 -0.454115
-0.357572 0.142030 -0.453674
-0.359070 0.142030 -0.453233
-0.360568 0.142030 -0.452792
-0.362066 0.142030 -0.452350
-0.363423 0.141828 -0.450790
-0.365062 0.142030 -0.451468
-0.366422 0.141828 -0.449907
-0.367921 0.141828 -0.449466
-0.369420 0.141828 -0.449024
-0.370920 0.141828 -0.448583
-0.372419 0.141828 -0.448141
-0.373785 0.141626 -0.446576
-0.375286 0.141626 -0.446134
-0.376786 0.141626 -0.445692
-0.378287 0.141626 -0.445250
-0.379788 0.141626 -0.444809
-0.381288 0.141626 -0.444367
-0.382663 0.141424 -0.442797
-0.384165 0.141424 -0.442355
-0.385666 0.141424 -0.441913
-0.387168 0.141424 -0.441471
-0.388670 0.141424 -0.441028
-0.390052 0.141221 -0.439455
-0.391555 0.141221 -0.439012
-0.393058 0.141221 -0.438570
-0.394444 0.141018 -0.436993
-0.395949 0.141018 -0.436550
-0.397453 0.141018 -0.436107
-0.398957 0.141018 -0.435664
-0.400350 0.140814 -0.434083
-0.401855 0.140814 -0.433640
-0.403361 0.140814 -0.433197
-0.404866 0.140814 -0.432754
-0.406265 0.140610 -0.431169
-0.407772 0.140610 -0.430726
-0.409278 0.140610 -0.430282
-0.410785 0.140610 -0.429838
-0.412190 0.140406 -0.428250
-0.413698 0.140406 -0.427806
-0.415206 0.140406 -0.427362
-0.416615 0.140202 -0.425771
-0.418124 0.140202 -0.425327
-0.419633 0.140202 -0.424882
-0.421047 0.139997 -0.423288
-0.422558 0.139997 -0.422843
-0.423976 0.139792 -0.421245
-0.425487 0.139792 -0.420800
-0.426999 0.139792 -0.420355
-0.428422 0.139586 -0.418754
-0.429935 0.139586 -0.418309
-0.431447 0.139586 -0.417863
-0.432875 0.139380 -0.416259
-0.434389 0.139380 -0.415813
-0.435820 0.139174 -0.414206
-0.437335 0.139174 -0.413759
-0.438689 0.138761 -0.410983
-0.440207 0.138761 -0.410536
-0.441647 0.138553 -0.408920
-0.443088 0.138346 -0.407302
-0.444609 0.138346 -0.406854
-0.446054 0.138138 -0.405233
-0.447576 0.138138 -0.404785
-0.449025 0.137930 -0.403160
-0.450476 0.137721 -0.401533
-0.451930 0.137512 -0.399903
-0.453456 0.137512 -0.399454
-0.454914 0.137303 -0.397821
-0.456374 0.137093 -0.396185
-0.457902 0.137093 -0.395735
-0.459365 0.136883 -0.394096
-0.460831 0.136673 -0.392455
-0.462300 0.136462 -0.390811
-0.463771 0.136251 -0.389164
-0.465245 0.136040 -0.387514
-0.466721 0.135828 -0.385861
-0.468142 0.135403 -0.383001
-0.469624 0.135191 -0.381340
-0.471054 0.134764 -0.378465
-0.472542 0.134550 -0.376797
-0.474033 0.134336 -0.375125
-0.475526 0.134121 -0.373451
-0.476921 0.133475 -0.369325
-0.478324 0.132826 -0.365177
-0.479781 0.132391 -0.362248
-0.481244 0.131955 -0.359308
-0.482666 0.131298 -0.355110
-0.484139 0.130858 -0.352146
-0.485575 0.130195 -0.347912
-0.487060 0.129751 -0.344923
-0.488509 0.129083 -0.340652
-0.489965 0.128411 -0.336359
-0.491390 0.127510 -0.330756
-0.492825 0.126602 -0.325114
-0.494122 0.124769 -0.314184
-0.495473 0.123143 -0.304435
-0.496841 0.121497 -0.294565
0.342949 0.109198 -0.481389
0.339651 0.109712 -0.483353
0.336366 0.110224 -0.485310
0.333092 0.110733 -0.487259
0.331415 0.110733 -0.486766
0.328946 0.110988 -0.487491
0.325695 0.111495 -0.489432
0.324022 0.111495 -0.488939
0.321567 0.111747 -0.489661
0.319116 0.112000 -0.490381
0.317446 0.112000 -0.489890
0.315002 0.112252 -0.490609
0.313333 0.112252 -0.490118
0.310895 0.112503 -0.490837
0.309228 0.112503 -0.490346
0.306795 0.112754 -0.491064
0.305129 0.112754 -0.490574
0.302702 0.113005 -0.491291
0.301039 0.113005 -0.490801
0.298618 0.113255 -0.491517
0.296955 0.113255 -0.491028
0.294540 0.113504 -0.491743
0.292879 0.113504 -0.491254
0.290470 0.113754 -0.491968
0.288811 0.113754 -0.491480
0.286407 0.114002 -0.492194
0.284750 0.114002 -0.491705
0.282352 0.114251 -0.492418
0.280696 0.114251 -0.491931
0.278304 0.114498 -0.492643
0.276649 0.114498 -0.492155
0.274263 0.114746 -0.492866
0.272610 0.114746 -0.492380
0.270229 0.114993 -0.493090
0.268578 0.114993 -0.492604
0.266203 0.115239 -0.493313
0.264553 0.115239 -0.492827
0.262184 0.115485 -0.493536
0.260535 0.115485 -0.493050
0.258172 0.115731 -0.493758
0.256525 0.115731 -0.493273
0.254168 0.115976 -0.493980
0.252522 0.115976 -0.493495
0.250170 0.116221 -0.494201
0.248526 0.116221 -0.493717
0.246180 0.116465 -0.494422
0.244537 0.116465 -0.493939
0.242197 0.116709 -0.494643
0.239861 0.116952 -0.495346
0.238221 0.116952 -0.494863
0.236581 0.116952 -0.494380
0.234252 0.117195 -0.495083
0.232613 0.117195 -0.494601
0.230290 0.117438 -0.495303
0.228653 0.117438 -0.494821
0.227016 0.117438 -0.494339
0.224699 0.117680 -0.495040
0.223064 0.117680 -0.494559
0.221428 0.117680 -0.494077
0.219119 0.117922 -0.494778
0.217485 0.117922 -0.494297
0.215851 0.117922 -0.493816
0.213548 0.118163 -0.494517
0.211250 0.118404 -0.495216
0.209619 0.118404 -0.494736
0.207326 0.118644 -0.495435
0.205697 0.118644 -0.494955
0.204067 0.118644 -0.494475
0.201781 0.118884 -0.495173
0.200153 0.118884 -0.494694
0.198524 0.118884 -0.494214
0.196246 0.119124 -0.494912
0.194619 0.119124 -0.494433
0.192346 0.119363 -0.495130
0.190720 0.119363 -0.494652
0.189095 0.119363 -0.494173
0.186828 0.119601 -0.494870
0.185204 0.119601 -0.494392
0.183580 0.119601 -0.493913
0.181321 0.119840 -0.494610
0.179698 0.119840 -0.494132
0.177444 0.120078 -0.494828
0.175823 0.120078 -0.494350
0.174202 0.120078 -0.493873
0.171955 0.120315 -0.494568
0.170335 0.120315 -0.494091
0.168715 0.120315 -0.493614
0.166475 0.120552 -0.494309
0.164857 0.120552 -0.493832
0.162622 0.120789 -0.494526
0.161005 0.120789 -0.494050
0.159388 0.120789 -0.493574
0.157160 0.121025 -0.494268
0.155544 0.121025 -0.493792
0.153929 0.121025 -0.493316
0.151707 0.121261 -0.494010
0.150093 0.121261 -0.493534
0.147877 0.121496 -0.494227
0.146264 0.121496 -0.493752
0.144652 0.121496 -0.493277
0.142443 0.121731 -0.493969
0.140831 0.121731 -0.493495
0.139220 0.121731 -0.493020
0.137017 0.121965 -0.493712
0.135408 0.121965 -0.493238
0.133210 0.122199 -0.493929
0.131602 0.122199 -0.493455
0.129993 0.122199 -0.492982
0.127803 0.122433 -0.493672
0.126196 0.122433 -0.493199
0.124589 0.122433 -0.492726
0.122405 0.122666 -0.493416
0.120799 0.122666 -0.492943
0.118620 0.122899 -0.493632
0.117016 0.122899 -0.493160
0.115412 0.122899 -0.492688
0.113240 0.123132 -0.493377
0.111637 0.123132 -0.492905
0.110034 0.123132 -0.492433
0.107868 0.123364 -0.493121
0.106267 0.123364 -0.492650
0.104106 0.123596 -0.493338
0.102506 0.123596 -0.492866
0.100906 0.123596 -0.492395
0.098753 0.123827 -0.493083
0.097154 0.123827 -0.492612
0.095555 0.123827 -0.492141
0.093408 0.124058 -0.492828
0.091811 0.124058 -0.492358
0.089668 0.124288 -0.493044
0.088073 0.124288 -0.492574
0.086477 0.124288 -0.492104
0.084341 0.124518 -0.492790
0.082747 0.124518 -0.492321
0.081152 0.124518 -0.491851
0.079023 0.124748 -0.492537
0.077430 0.124748 -0.492068
0.075306 0.124977 -0.492752
0.073714 0.124977 -0.492284
0.072122 0.124977 -0.491815
0.070004 0.125206 -0.492499
0.068414 0.125206 -0.492031
0.066824 0.125206 -0.491563
0.064713 0.125434 -0.492247
0.063124 0.125434 -0.491779
0.061017 0.125663 -0.492462
0.059430 0.125663 -0.491995
0.057842 0.125663 -0.491527
0.055742 0.125890 -0.492210
0.054156 0.125890 -0.491743
0.052570 0.125890 -0.491276
0.050476 0.126117 -0.491958
0.048892 0.126117 -0.491492
0.046803 0.126344 -0.492173
0.045220 0.126344 -0.491707
0.043636 0.126344 -0.491241
0.041554 0.126571 -0.491922
0.039972 0.126571 -0.491456
0.038390 0.126571 -0.490990
0.036314 0.126797 -0.491671
0.034733 0.126797 -0.491206
0.032662 0.127023 -0.491886
0.031083 0.127023 -0.491421
0.029503 0.127023 -0.490956
0.027439 0.127248 -0.491636
0.025861 0.127248 -0.491171
0.024283 0.127248 -0.490706
0.022224 0.127473 -0.491386
0.020648 0.127473 -0.490921
0.018594 0.127698 -0.491600
0.017019 0.127698 -0.491136
0.015443 0.127698 -0.490672
0.013396 0.127922 -0.491351
0.011822 0.127922 -0.490887
0.010248 0.127922 -0.490424
0.008207 0.128146 -0.491102
0.006634 0.128146 -0.490639
0.004598 0.128369 -0.491316
0.003027 0.128369 -0.490853
0.001456 0.128369 -0.490390
-0.000575 0.128592 -0.491067
-0.002144 0.128592 -0.490605
-0.003714 0.128592 -0.490143
-0.005738 0.128815 -0.490819
-0.007307 0.128815 -0.490357
-0.008875 0.128815 -0.489895
-0.010444 0.128815 -0.489434
-0.012012 0.128815 -0.488972
-0.014028 0.129037 -0.489648
-0.015595 0.129037 -0.489187
-0.017162 0.129037 -0.488726
-0.019171 0.129259 -0.489402
-0.020737 0.129259 -0.488941
-0.022741 0.129480 -0.489617
-0.024306 0.129480 -0.489156
-0.025870 0.129480 -0.488695
-0.027869 0.129701 -0.489371
-0.029432 0.129701 -0.488910
-0.030995 0.129701 -0.488450
-0.032987 0.129922 -0.489125
-0.034549 0.129922 -0.488665
-0.036536 0.130143 -0.489339
-0.038097 0.130143 -0.488880
-0.039658 0.130143 -0.488420
-0.041639 0.130363 -0.489094
-0.043198 0.130363 -0.488635
-0.044757 0.130363 -0.488176
-0.046733 0.130582 -0.488849
-0.048291 0.130582 -0.488391
-0.050261 0.130801 -0.489063
-0.051818 0.130801 -0.488605
-0.053375 0.130801 -0.488147
-0.055339 0.131020 -0.488819
-0.056895 0.131020 -0.488361
-0.058450 0.131020 -0.487903
-0.060409 0.131239 -0.488575
-0.061963 0.131239 -0.488118
-0.063917 0.131457 -0.488789
-0.065469 0.131457 -0.488332
-0.067022 0.131457 -0.487874
-0.068970 0.131675 -0.488545
-0.070522 0.131675 -0.488088
-0.072073 0.131675 -0.487632
-0.074015 0.131892 -0.488302
-0.075565 0.131892 -0.487846
-0.077503 0.132109 -0.488516
-0.079052 0.132109 -0.488060
-0.080600 0.132109 -0.487604
-0.082915 0.132542 -0.489396
-0.084461 0.132542 -0.488941
-0.086007 0.132542 -0.488486
-0.087931 0.132758 -0.489154
-0.089476 0.132758 -0.488699
-0.091395 0.132974 -0.489365
-0.092939 0.132974 -0.488911
-0.094482 0.132974 -0.488457
-0.096396 0.133189 -0.489123
-0.097938 0.133189 -0.488669
-0.099480 0.133189 -0.488215
-0.101388 0.133404 -0.488881
-0.102929 0.133404 -0.488427
-0.104832 0.133618 -0.489092
-0.106372 0.133618 -0.488639
-0.107912 0.133618 -0.488186
-0.109809 0.133833 -0.488851
-0.111348 0.133833 -0.488398
-0.112886 0.133833 -0.487945
-0.114778 0.134046 -0.488609
-0.116315 0.134046 -0.488157
-0.118202 0.134260 -0.488821
-0.119738 0.134260 -0.488369
-0.121274 0.134260 -0.487916
-0.123155 0.134473 -0.488580
-0.124690 0.134473 -0.488128
-0.126224 0.134473 -0.487676
-0.128100 0.134686 -0.488340
-0.129633 0.134686 -0.487888
-0.131505 0.134898 -0.488551
-0.133037 0.134898 -0.488100
-0.134569 0.134898 -0.487648
-0.136435 0.135110 -0.488311
-0.137965 0.135110 -0.487860
-0.139496 0.135110 -0.487409
-0.141356 0.135322 -0.488071
-0.142885 0.135322 -0.487621
-0.144741 0.135533 -0.488282
-0.146269 0.135533 -0.487832
-0.147797 0.135533 -0.487382
-0.149648 0.135744 -0.488043
-0.151175 0.135744 -0.487593
-0.152701 0.135744 -0.487143
-0.154546 0.135954 -0.487804
-0.156071 0.135954 -0.487354
-0.157912 0.136165 -0.488014
-0.159436 0.136165 -0.487565
-0.160960 0.136165 -0.487116
-0.162795 0.136375 -0.487776
-0.164318 0.136375 -0.487327
-0.166148 0.136584 -0.487986
-0.167670 0.136584 -0.487538
-0.169192 0.136584 -0.487090
-0.171017 0.136793 -0.487748
-0.172537 0.136793 -0.487300
-0.174058 0.136793 -0.486852
-0.175877 0.137002 -0.487510
-0.177396 0.137002 -0.487063
-0.178915 0.137002 -0.486616
-0.180729 0.137211 -0.487273
-0.182247 0.137211 -0.486826
-0.184057 0.137419 -0.487483
-0.185573 0.137419 -0.487036
-0.187090 0.137419 -0.486590
-0.188894 0.137627 -0.487246
-0.190409 0.137627 -0.486800
-0.192209 0.137834 -0.487456
-0.193723 0.137834 -0.487010
-0.195238 0.137834 -0.486564
-0.197312 0.138248 -0.488319
-0.198823 0.138248 -0.487874
-0.200335 0.138248 -0.487428
-0.202122 0.138454 -0.488082
-0.203633 0.138454 -0.487637
-0.205143 0.138454 -0.487192
-0.206925 0.138661 -0.487846
-0.208434 0.138661 -0.487401
-0.210212 0.138866 -0.488054
-0.211720 0.138866 -0.487610
-0.213228 0.138866 -0.487166
-0.215000 0.139072 -0.487818
-0.216507 0.139072 -0.487374
-0.218275 0.139277 -0.488026
-0.219780 0.139277 -0.487583
-0.221286 0.139277 -0.487139
-0.223049 0.139482 -0.487790
-0.224553 0.139482 -0.487347
-0.226057 0.139482 -0.486905
-0.227814 0.139686 -0.487555
-0.229317 0.139686 -0.487113
-0.230820 0.139686 -0.486670
-0.232572 0.139890 -0.487321
-0.234074 0.139890 -0.486878
-0.235822 0.140094 -0.487528
-0.237323 0.140094 -0.487086
-0.238823 0.140094 -0.486644
-0.240324 0.140094 -0.486203
-0.241824 0.140094 -0.485761
-0.243565 0.140297 -0.486411
-0.245064 0.140297 -0.485969
-0.246563 0.140297 -0.485528
-0.248063 0.140297 -0.485086
-0.249796 0.140500 -0.485737
-0.251294 0.140500 -0.485295
-0.252793 0.140500 -0.484854
-0.254291 0.140500 -0.484413
-0.256018 0.140703 -0.485063
-0.257515 0.140703 -0.484623
-0.259012 0.140703 -0.484182
-0.260509 0.140703 -0.483741
-0.262229 0.140906 -0.484391
-0.263725 0.140906 -0.483951
-0.265221 0.140906 -0.483510
-0.266716 0.140906 -0.483070
-0.268430 0.141108 -0.483720
-0.269925 0.141108 -0.483280
-0.271419 0.141108 -0.482840
-0.273128 0.141310 -0.483490
-0.274835 0.141511 -0.484139
-0.276327 0.141511 -0.483699
-0.277608 0.141310 -0.482171
-0.279101 0.141310 -0.481731
-0.280803 0.141511 -0.482381
-0.282295 0.141511 -0.481942
-0.283787 0.141511 -0.481503
-0.285279 0.141511 -0.481063
-0.286771 0.141511 -0.480624
-0.288263 0.141511 -0.480185
-0.289755 0.141511 -0.479745
-0.291247 0.141511 -0.479306
-0.292739 0.141511 -0.478867
-0.294231 0.141511 -0.478427
-0.295723 0.141511 -0.477988
-0.297020 0.141310 -0.476455
-0.298513 0.141310 -0.476015
-0.300007 0.141310 -0.475575
-0.301500 0.141310 -0.475136
-0.302993 0.141310 -0.474696
-0.304486 0.141310 -0.474256
-0.305980 0.141310 -0.473817
-0.307473 0.141310 -0.473377
-0.308966 0.141310 -0.472937
-0.310459 0.141310 -0.472498
-0.311770 0.141108 -0.470959
-0.313264 0.141108 -0.470519
-0.314759 0.141108 -0.470079
-0.316253 0.141108 -0.469639
-0.317747 0.141108 -0.469198
-0.319242 0.141108 -0.468758
-0.320912 0.141310 -0.469420
-0.322405 0.141310 -0.468980
-0.323899 0.141310 -0.468540
-0.325392 0.141310 -0.468101
-0.326885 0.141310 -0.467661
-0.328378 0.141310 -0.467221
-0.329871 0.141310 -0.466781
-0.331365 0.141310 -0.466342
-0.332858 0.141310 -0.465902
-0.334351 0.141310 -0.465462
-0.335681 0.141108 -0.463918
-0.337175 0.141108 -0.463478
-0.338670 0.141108 -0.463038
-0.340164 0.141108 -0.462598
-0.341659 0.141108 -0.462158
-0.343153 0.141108 -0.461718
-0.344648 0.141108 -0.461278
-0.346142 0.141108 -0.460837
-0.347483 0.140906 -0.459288
-0.348978 0.140906 -0.458847
-0.350474 0.140906 -0.458407
-0.351970 0.140906 -0.457966
-0.353316 0.140703 -0.456413
-0.354813 0.140703 -0.455972
-0.356310 0.140703 -0.455532
-0.357661 0.140500 -0.453975
-0.359159 0.140500 -0.453534
-0.360657 0.140500 -0.453093
-0.362155 0.140500 -0.452652
-0.363653 0.140500 -0.452210
-0.365151 0.140500 -0.451769
-0.366510 0.140297 -0.450209
-0.368010 0.140297 -0.449767
-0.369509 0.140297 -0.449326
-0.371008 0.140297 -0.448884
-0.372508 0.140297 -0.448443
-0.374007 0.140297 -0.448001
-0.375375 0.140094 -0.446436
-0.376875 0.140094 -0.445994
-0.378376 0.140094 -0.445552
-0.379876 0.140094 -0.445110
-0.381377 0.140094 -0.444668
-0.382752 0.139890 -0.443099
-0.384254 0.139890 -0.442657
-0.385755 0.139890 -0.442215
-0.387257 0.139890 -0.441772
-0.388759 0.139890 -0.441330
-0.390141 0.139686 -0.439757
-0.391644 0.139686 -0.439314
-0.393147 0.139686 -0.438872
-0.394650 0.139686 -0.438429
-0.396038 0.139482 -0.436852
-0.397542 0.139482 -0.436409
-0.399046 0.139482 -0.435966
-0.400551 0.139482 -0.435523
-0.401944 0.139277 -0.433943
-0.403450 0.139277 -0.433500
-0.404955 0.139277 -0.433056
-0.406461 0.139277 -0.432613
-0.407861 0.139072 -0.431029
-0.409367 0.139072 -0.430585
-0.410874 0.139072 -0.430141
-0.412279 0.138866 -0.428554
-0.413787 0.138866 -0.428110
-0.415295 0.138866 -0.427666
-0.416704 0.138661 -0.426075
-0.418213 0.138661 -0.425630
-0.419723 0.138661 -0.425186
-0.421137 0.138454 -0.423591
-0.422647 0.138454 -0.423147
-0.424065 0.138248 -0.421549
-0.425577 0.138248 -0.421104
-0.427088 0.138248 -0.420659
-0.428511 0.138041 -0.419058
-0.430024 0.138041 -0.418613
-0.431537 0.138041 -0.418167
-0.432964 0.137834 -0.416563
-0.434479 0.137834 -0.416117
-0.435910 0.137627 -0.414510
-0.437425 0.137627 -0.414064
-0.438779 0.137211 -0.411288
-0.440297 0.137211 -0.410841
-0.441736 0.137002 -0.409226
-0.443178 0.136793 -0.407608
-0.444699 0.136793 -0.407160
-0.446144 0.136584 -0.405539
-0.447666 0.136584 -0.405091
-0.449115 0.136375 -0.403466
-0.450567 0.136165 -0.401840
-0.452021 0.135954 -0.400210
-0.453546 0.135954 -0.399761
-0.455004 0.135744 -0.398128
-0.456464 0.135533 -0.396492
-0.457927 0.135322 -0.394854
-0.459456 0.135322 -0.394404
-0.460922 0.135110 -0.392763
-0.462391 0.134898 -0.391119
-0.463862 0.134686 -0.389472
-0.465336 0.134473 -0.387822
-0.466812 0.134260 -0.386170
-0.468290 0.134046 -0.384515
-0.469715 0.133618 -0.381650
-0.471200 0.133404 -0.379987
-0.472687 0.133189 -0.378321
-0.474124 0.132758 -0.375436
-0.475618 0.132542 -0.373762
-0.477013 0.131892 -0.369636
-0.478465 0.131457 -0.366722
-0.479873 0.130801 -0.362561
-0.481336 0.130363 -0.359622
-0.482804 0.129922 -0.356673
-0.484232 0.129259 -0.352461
-0.485711 0.128815 -0.349487
-0.487153 0.128146 -0.345239
-0.488643 0.127698 -0.342240
-0.490059 0.126797 -0.336677
-0.491523 0.126117 -0.332362
-0.492957 0.125206 -0.326731
-0.494290 0.123596 -0.317135
-0.495604 0.121731 -0.306091
-0.496972 0.120078 -0.296240
0.347787 0.106437 -0.477281
0.342849 0.107476 -0.481728
0.339552 0.107993 -0.483692
0.336266 0.108507 -0.485648
0.333789 0.108764 -0.486376
0.331316 0.109020 -0.487103
0.328847 0.109276 -0.487828
0.327171 0.109276 -0.487335
0.323923 0.109786 -0.489275
0.321468 0.110041 -0.489997
0.319797 0.110041 -0.489505
0.317348 0.110295 -0.490225
0.315678 0.110295 -0.489734
0.313235 0.110548 -0.490453
0.311566 0.110548 -0.489962
0.309129 0.110801 -0.490681
0.307462 0.110801 -0.490190
0.305031 0.111054 -0.490908
0.303366 0.111054 -0.490418
0.300940 0.111306 -0.491135
0.299276 0.111306 -0.490645
0.296857 0.111557 -0.491362
0.295195 0.111557 -0.490872
0.292781 0.111808 -0.491588
0.291120 0.111808 -0.491099
0.288713 0.112059 -0.491813
0.287053 0.112059 -0.491325
0.284651 0.112309 -0.492039
0.282994 0.112309 -0.491551
0.280598 0.112559 -0.492264
0.278941 0.112559 -0.491776
0.276551 0.112809 -0.492488
0.274896 0.112809 -0.492001
0.272512 0.113057 -0.492712
0.270858 0.113057 -0.492225
0.268480 0.113306 -0.492936
0.266828 0.113306 -0.492449
0.264455 0.113554 -0.493159
0.262805 0.113554 -0.492673
0.260438 0.113801 -0.493382
0.258789 0.113801 -0.492896
0.256427 0.114049 -0.493604
0.254780 0.114049 -0.493119
0.252424 0.114295 -0.493826
0.250778 0.114295 -0.493341
0.248428 0.114541 -0.494048
0.246784 0.114541 -0.493563
0.244440 0.114787 -0.494269
0.242797 0.114787 -0.493785
0.240458 0.115033 -0.494490
0.238124 0.115278 -0.495193
0.236484 0.115278 -0.494710
0.234155 0.115522 -0.495413
0.232516 0.115522 -0.494930
0.230878 0.115522 -0.494448
0.228556 0.115766 -0.495150
0.226919 0.115766 -0.494668
0.224603 0.116010 -0.495369
0.223645 0.115766 -0.493704
0.221331 0.116010 -0.494406
0.219696 0.116010 -0.493924
0.217388 0.116253 -0.494626
0.215754 0.116253 -0.494144
0.213452 0.116496 -0.494845
0.211154 0.116738 -0.495544
0.209522 0.116738 -0.495064
0.207891 0.116738 -0.494583
0.205600 0.116980 -0.495282
0.203970 0.116980 -0.494802
0.202340 0.116980 -0.494323
0.200056 0.117221 -0.495021
0.198428 0.117221 -0.494542
0.196149 0.117462 -0.495239
0.194523 0.117462 -0.494760
0.192896 0.117462 -0.494281
0.190624 0.117703 -0.494978
0.188998 0.117703 -0.494500
0.187373 0.117703 -0.494021
0.185108 0.117943 -0.494718
0.183484 0.117943 -0.494240
0.181225 0.118183 -0.494936
0.179602 0.118183 -0.494458
0.177980 0.118183 -0.493980
0.175727 0.118422 -0.494676
0.174106 0.118422 -0.494199
0.172485 0.118422 -0.493721
0.170239 0.118661 -0.494417
0.168619 0.118661 -0.493940
0.166379 0.118899 -0.494634
0.164761 0.118899 -0.494158
0.163142 0.118899 -0.493681
0.160909 0.119137 -0.494375
0.159292 0.119137 -0.493899
0.157675 0.119137 -0.493423
0.155449 0.119375 -0.494117
0.153833 0.119375 -0.493641
0.151612 0.119612 -0.494334
0.149998 0.119612 -0.493859
0.148384 0.119612 -0.493384
0.146169 0.119849 -0.494076
0.144556 0.119849 -0.493601
0.142944 0.119849 -0.493126
0.140736 0.120085 -0.493819
0.139125 0.120085 -0.493344
0.136922 0.120321 -0.494036
0.135312 0.120321 -0.493562
0.133702 0.120321 -0.493088
0.131507 0.120557 -0.493779
0.129898 0.120557 -0.493305
0.128290 0.120557 -0.492831
0.126101 0.120792 -0.493522
0.124494 0.120792 -0.493049
0.122310 0.121027 -0.493739
0.120704 0.121027 -0.493266
0.119098 0.121027 -0.492793
0.116921 0.121261 -0.493483
0.115317 0.121261 -0.493010
0.113713 0.121261 -0.492538
0.111542 0.121495 -0.493227
0.109939 0.121495 -0.492755
0.107774 0.121729 -0.493443
0.106172 0.121729 -0.492972
0.104571 0.121729 -0.492500
0.102412 0.121962 -0.493188
0.100812 0.121962 -0.492717
0.099212 0.121962 -0.492246
0.097059 0.122194 -0.492933
0.095461 0.122194 -0.492463
0.093313 0.122427 -0.493149
0.091716 0.122427 -0.492679
0.090119 0.122427 -0.492209
0.087978 0.122659 -0.492895
0.086382 0.122659 -0.492425
0.084787 0.122659 -0.491955
0.082652 0.122890 -0.492641
0.081058 0.122890 -0.492172
0.078929 0.123121 -0.492857
0.077336 0.123121 -0.492388
0.075742 0.123121 -0.491919
0.073620 0.123352 -0.492604
0.072028 0.123352 -0.492135
0.070436 0.123352 -0.491666
0.068320 0.123582 -0.492351
0.066730 0.123582 -0.491883
0.064619 0.123812 -0.492566
0.063030 0.123812 -0.492098
0.061441 0.123812 -0.491630
0.059336 0.124041 -0.492314
0.057748 0.124041 -0.491846
0.056161 0.124041 -0.491379
0.054062 0.124270 -0.492062
0.052476 0.124270 -0.491595
0.050383 0.124499 -0.492277
0.048798 0.124499 -0.491810
0.047213 0.124499 -0.491344
0.045126 0.124727 -0.492025
0.043542 0.124727 -0.491559
0.041959 0.124727 -0.491093
0.039878 0.124955 -0.491774
0.038296 0.124955 -0.491308
0.036220 0.125183 -0.491989
0.034640 0.125183 -0.491524
0.033059 0.125183 -0.491058
0.030989 0.125410 -0.491738
0.029410 0.125410 -0.491273
0.027831 0.125410 -0.490808
0.025767 0.125637 -0.491488
0.024189 0.125637 -0.491024
0.022131 0.125863 -0.491703
0.020554 0.125863 -0.491238
0.018978 0.125863 -0.490774
0.016925 0.126089 -0.491453
0.015350 0.126089 -0.490989
0.013775 0.126089 -0.490525
0.011729 0.126315 -0.491204
0.010155 0.126315 -0.490740
0.008114 0.126540 -0.491418
0.006541 0.126540 -0.490955
0.004969 0.126540 -0.490492
0.002934 0.126764 -0.491169
0.001363 0.126764 -0.490706
-0.000209 0.126764 -0.490244
-0.002237 0.126989 -0.490921
-0.003807 0.126989 -0.490458
-0.005831 0.127213 -0.491134
-0.007400 0.127213 -0.490673
-0.008517 0.126989 -0.489071
-0.010537 0.127213 -0.489749
-0.012105 0.127213 -0.489287
-0.013674 0.127213 -0.488825
-0.015688 0.127437 -0.489502
-0.017255 0.127437 -0.489041
-0.019264 0.127660 -0.489717
-0.020830 0.127660 -0.489256
-0.022396 0.127660 -0.488795
-0.024398 0.127883 -0.489470
-0.025963 0.127883 -0.489010
-0.027527 0.127883 -0.488549
-0.029524 0.128105 -0.489225
-0.031088 0.128105 -0.488764
-0.033080 0.128327 -0.489439
-0.034641 0.128327 -0.488979
-0.036203 0.128327 -0.488519
-0.038189 0.128549 -0.489193
-0.039750 0.128549 -0.488734
-0.041310 0.128549 -0.488274
-0.043290 0.128770 -0.488948
-0.044850 0.128770 -0.488489
-0.046825 0.128991 -0.489162
-0.048383 0.128991 -0.488704
-0.049941 0.128991 -0.488245
-0.051910 0.129212 -0.488918
-0.053467 0.129212 -0.488460
-0.055023 0.129212 -0.488001
-0.056987 0.129432 -0.488674
-0.058542 0.129432 -0.488216
-0.060501 0.129652 -0.488887
-0.062055 0.129652 -0.488430
-0.063609 0.129652 -0.487972
-0.065561 0.129872 -0.488644
-0.067114 0.129872 -0.488187
-0.068667 0.129872 -0.487729
-0.070613 0.130091 -0.488400
-0.072165 0.130091 -0.487944
-0.074107 0.130309 -0.488614
-0.075657 0.130309 -0.488157
-0.077207 0.130309 -0.487701
-0.079143 0.130528 -0.488371
-0.080692 0.130528 -0.487915
-0.082241 0.130528 -0.487459
-0.084552 0.130963 -0.489252
-0.086098 0.130963 -0.488797
-0.088022 0.131181 -0.489464
-0.089567 0.131181 -0.489009
-0.091112 0.131181 -0.488554
-0.093030 0.131398 -0.489221
-0.094574 0.131398 -0.488767
-0.096117 0.131398 -0.488312
-0.098029 0.131614 -0.488979
-0.099572 0.131614 -0.488525
-0.101479 0.131830 -0.489191
-0.103020 0.131830 -0.488737
-0.104561 0.131830 -0.488283
-0.106463 0.132046 -0.488949
-0.108003 0.132046 -0.488495
-0.109542 0.132046 -0.488042
-0.111439 0.132262 -0.488707
-0.112977 0.132262 -0.488254
-0.114869 0.132477 -0.488918
-0.116406 0.132477 -0.488466
-0.117943 0.132477 -0.488013
-0.119829 0.132692 -0.488677
-0.121365 0.132692 -0.488225
-0.122900 0.132692 -0.487773
-0.124781 0.132906 -0.488437
-0.126315 0.132906 -0.487985
-0.128191 0.133120 -0.488648
-0.129724 0.133120 -0.488196
-0.131257 0.133120 -0.487745
-0.133128 0.133334 -0.488407
-0.134659 0.133334 -0.487956
-0.136191 0.133334 -0.487505
-0.138056 0.133547 -0.488168
-0.139587 0.133547 -0.487717
-0.141447 0.133760 -0.488378
-0.142976 0.133760 -0.487928
-0.144505 0.133760 -0.487478
-0.146360 0.133972 -0.488139
-0.147888 0.133972 -0.487689
-0.149416 0.133972 -0.487239
-0.151265 0.134185 -0.487900
-0.152792 0.134185 -0.487450
-0.154636 0.134397 -0.488110
-0.156162 0.134397 -0.487661
-0.157687 0.134397 -0.487212
-0.159526 0.134608 -0.487872
-0.161051 0.134608 -0.487423
-0.162885 0.134819 -0.488082
-0.164408 0.134819 -0.487633
-0.165931 0.134819 -0.487185
-0.167760 0.135030 -0.487844
-0.169282 0.135030 -0.487396
-0.170804 0.135030 -0.486947
-0.172627 0.135241 -0.487606
-0.174148 0.135241 -0.487158
-0.175668 0.135241 -0.486710
-0.177486 0.135451 -0.487368
-0.179005 0.135451 -0.486921
-0.180819 0.135661 -0.487578
-0.182337 0.135661 -0.487131
-0.183855 0.135661 -0.486684
-0.185663 0.135870 -0.487341
-0.187180 0.135870 -0.486895
-0.188984 0.136079 -0.487551
-0.190499 0.136079 -0.487105
-0.192015 0.136079 -0.486658
-0.193813 0.136288 -0.487314
-0.195327 0.136288 -0.486868
-0.197122 0.136496 -0.487523
-0.198913 0.136704 -0.488178
-0.200425 0.136704 -0.487732
-0.201936 0.136704 -0.487287
-0.203722 0.136912 -0.487941
-0.205233 0.136912 -0.487496
-0.207014 0.137119 -0.488149
-0.208524 0.137119 -0.487705
-0.210033 0.137119 -0.487260
-0.211809 0.137326 -0.487913
-0.213317 0.137326 -0.487469
-0.215089 0.137533 -0.488121
-0.216596 0.137533 -0.487677
-0.218103 0.137533 -0.487234
-0.219869 0.137740 -0.487885
-0.221375 0.137740 -0.487442
-0.222880 0.137740 -0.486999
-0.224642 0.137946 -0.487650
-0.226146 0.137946 -0.487207
-0.227650 0.137946 -0.486764
-0.229406 0.138151 -0.487415
-0.230909 0.138151 -0.486972
-0.232661 0.138357 -0.487623
-0.234163 0.138357 -0.487180
-0.235665 0.138357 -0.486738
-0.237412 0.138562 -0.487388
-0.238912 0.138562 -0.486946
-0.240413 0.138562 -0.486504
-0.241913 0.138562 -0.486062
-0.243414 0.138562 -0.485621
-0.245153 0.138766 -0.486271
-0.246652 0.138766 -0.485829
-0.248151 0.138766 -0.485388
-0.249651 0.138766 -0.484946
-0.251383 0.138971 -0.485597
-0.252881 0.138971 -0.485155
-0.254379 0.138971 -0.484714
-0.255877 0.138971 -0.484273
-0.257603 0.139175 -0.484924
-0.259100 0.139175 -0.484483
-0.260597 0.139175 -0.484042
-0.262094 0.139175 -0.483601
-0.263813 0.139378 -0.484251
-0.265309 0.139378 -0.483811
-0.266805 0.139378 -0.483371
-0.268300 0.139378 -0.482930
-0.270013 0.139582 -0.483581
-0.271508 0.139582 -0.483141
-0.273217 0.139785 -0.483790
-0.274710 0.139785 -0.483350
-0.276415 0.139987 -0.483999
-0.277696 0.139785 -0.482471
-0.279190 0.139785 -0.482031
-0.280891 0.139987 -0.482681
-0.282383 0.139987 -0.482242
-0.283875 0.139987 -0.481803
-0.285367 0.139987 -0.481363
-0.286859 0.139987 -0.480924
-0.288351 0.139987 -0.480485
-0.289843 0.139987 -0.480045
-0.291335 0.139987 -0.479606
-0.292827 0.139987 -0.479167
-0.294319 0.139987 -0.478727
-0.295811 0.139987 -0.478288
-0.297109 0.139785 -0.476755
-0.298602 0.139785 -0.476315
-0.300095 0.139785 -0.475876
-0.301588 0.139785 -0.475436
-0.303082 0.139785 -0.474996
-0.304575 0.139785 -0.474557
-0.306068 0.139785 -0.474117
-0.307561 0.139785 -0.473677
-0.309055 0.139785 -0.473237
-0.310548 0.139785 -0.472798
-0.311858 0.139582 -0.471259
-0.313353 0.139582 -0.470819
-0.314847 0.139582 -0.470379
-0.316341 0.139582 -0.469939
-0.317836 0.139582 -0.469499
-0.319330 0.139582 -0.469059
-0.321000 0.139785 -0.469720
-0.322494 0.139785 -0.469280
-0.323987 0.139785 -0.468840
-0.325480 0.139785 -0.468401
-0.326973 0.139785 -0.467961
-0.328467 0.139785 -0.467521
-0.329792 0.139582 -0.465978
-0.331286 0.139582 -0.465538
-0.332781 0.139582 -0.465098
-0.334275 0.139582 -0.464658
-0.335769 0.139582 -0.464218
-0.337264 0.139582 -0.463778
-0.338758 0.139582 -0.463338
-0.340253 0.139582 -0.462898
-0.341747 0.139582 -0.462458
-0.343242 0.139582 -0.462018
-0.344736 0.139582 -0.461578
-0.346075 0.139378 -0.460029
-0.347725 0.139582 -0.460698
-0.349067 0.139378 -0.459148
-0.350562 0.139378 -0.458708
-0.352058 0.139378 -0.458267
-0.353404 0.139175 -0.456714
-0.354901 0.139175 -0.456273
-0.356398 0.139175 -0.455833
-0.357895 0.139175 -0.455392
-0.359247 0.138971 -0.453835
-0.360745 0.138971 -0.453394
-0.362244 0.138971 -0.452953
-0.363742 0.138971 -0.452512
-0.365100 0.138766 -0.450951
-0.366599 0.138766 -0.450510
-0.368098 0.138766 -0.450068
-0.369598 0.138766 -0.449627
-0.371097 0.138766 -0.449185
-0.372597 0.138766 -0.448744
-0.374096 0.138766 -0.448302
-0.375464 0.138562 -0.446737
-0.376964 0.138562 -0.446296
-0.378465 0.138562 -0.445854
-0.379965 0.138562 -0.445412
-0.381466 0.138562 -0.444970
-0.382841 0.138357 -0.443401
-0.384342 0.138357 -0.442959
-0.385844 0.138357 -0.442517
-0.387346 0.138357 -0.442074
-0.388848 0.138357 -0.441632
-0.390230 0.138151 -0.440059
-0.391733 0.138151 -0.439617
-0.393236 0.138151 -0.439174
-0.394739 0.138151 -0.438731
-0.396242 0.138151 -0.438289
-0.397631 0.137946 -0.436712
-0.399135 0.137946 -0.436269
-0.400640 0.137946 -0.435826
-0.402034 0.137740 -0.434245
-0.403539 0.137740 -0.433802
-0.405045 0.137740 -0.433359
-0.406550 0.137740 -0.432916
-0.407950 0.137533 -0.431332
-0.409457 0.137533 -0.430888
-0.410963 0.137533 -0.430444
-0.412368 0.137326 -0.428857
-0.413876 0.137326 -0.428413
-0.415384 0.137326 -0.427969
-0.416892 0.137326 -0.427525
-0.418303 0.137119 -0.425934
-0.419812 0.137119 -0.425489
-0.421226 0.136912 -0.423895
-0.422737 0.136912 -0.423450
-0.424247 0.136912 -0.423006
-0.425666 0.136704 -0.421408
-0.427178 0.136704 -0.420963
-0.428690 0.136704 -0.420518
-0.430114 0.136496 -0.418917
-0.431627 0.136496 -0.418472
-0.433054 0.136288 -0.416868
-0.434568 0.136288 -0.416422
-0.435999 0.136079 -0.414815
-0.437515 0.136079 -0.414369
-0.438869 0.135661 -0.411593
-0.440387 0.135661 -0.411146
-0.441826 0.135451 -0.409531
-0.443268 0.135241 -0.407913
-0.444789 0.135241 -0.407466
-0.446234 0.135030 -0.405845
-0.447756 0.135030 -0.405397
-0.449205 0.134819 -0.403773
-0.450657 0.134608 -0.402146
-0.452111 0.134397 -0.400517
-0.453637 0.134397 -0.400067
-0.455094 0.134185 -0.398435
-0.456554 0.133972 -0.396800
-0.458017 0.133760 -0.395162
-0.459546 0.133760 -0.394711
-0.461013 0.133547 -0.393070
-0.462481 0.133334 -0.391427
-0.463953 0.133120 -0.389780
-0.465426 0.132906 -0.388131
-0.466903 0.132692 -0.386479
-0.468381 0.132477 -0.384824
-0.469862 0.132262 -0.383166
-0.471291 0.131830 -0.380297
-0.472778 0.131614 -0.378631
-0.474268 0.131398 -0.376963
-0.475760 0.131181 -0.375292
-0.477105 0.130309 -0.369948
-0.478557 0.129872 -0.367034
-0.480014 0.129432 -0.364110
-0.481429 0.128770 -0.359935
-0.482897 0.128327 -0.356987
-0.484369 0.127883 -0.354028
-0.485804 0.127213 -0.349803
-0.487288 0.126764 -0.346819
-0.488737 0.126089 -0.342557
-0.490192 0.125410 -0.338272
-0.491617 0.124499 -0.332681
-0.493051 0.123582 -0.327051
-0.494422 0.122194 -0.318767
-0.495771 0.120557 -0.309071
-0.497103 0.118661 -0.297912
0.346872 0.104970 -0.478861
0.342749 0.105753 -0.482067
0.339452 0.106273 -0.484030
0.336167 0.106791 -0.485986
0.333689 0.107050 -0.486713
0.331216 0.107307 -0.487440
0.328748 0.107565 -0.488165
0.327072 0.107565 -0.487672
0.323824 0.108078 -0.489612
0.321369 0.108334 -0.490333
0.319698 0.108334 -0.489841
0.317249 0.108589 -0.490561
0.315579 0.108589 -0.490069
0.313136 0.108844 -0.490789
0.311467 0.108844 -0.490298
0.309030 0.109099 -0.491016
0.307364 0.109099 -0.490525
0.304932 0.109353 -0.491243
0.303267 0.109353 -0.490753
0.300842 0.109607 -0.491470
0.299178 0.109607 -0.490980
0.296759 0.109860 -0.491696
0.295096 0.109860 -0.491206
0.292683 0.110112 -0.491922
0.291022 0.110112 -0.491433
0.288614 0.110365 -0.492147
0.286955 0.110365 -0.491658
0.284553 0.110616 -0.492372
0.282895 0.110616 -0.491884
0.280499 0.110868 -0.492597
0.278843 0.110868 -0.492109
0.276453 0.111119 -0.492821
0.274798 0.111119 -0.492333
0.272414 0.111369 -0.493044
0.270761 0.111369 -0.492557
0.268382 0.111619 -0.493268
0.266730 0.111619 -0.492781
0.264357 0.111869 -0.493491
0.262707 0.111869 -0.493005
0.260340 0.112118 -0.493713
0.258691 0.112118 -0.493228
0.256330 0.112366 -0.493935
0.254683 0.112366 -0.493450
0.252327 0.112614 -0.494157
0.250681 0.112614 -0.493672
0.248331 0.112862 -0.494378
0.246687 0.112862 -0.493894
0.244342 0.113109 -0.494599
0.242002 0.113356 -0.495303
0.240361 0.113356 -0.494820
0.238719 0.113356 -0.494336
0.236387 0.113603 -0.495040
0.234746 0.113603 -0.494557
0.232419 0.113849 -0.495260
0.230781 0.113849 -0.494777
0.229142 0.113849 -0.494295
0.226822 0.114094 -0.494997
0.225185 0.114094 -0.494515
0.223548 0.114094 -0.494033
0.221911 0.114094 -0.493551
0.219599 0.114339 -0.494253
0.217291 0.114584 -0.494954
0.215657 0.114584 -0.494473
0.214023 0.114584 -0.493992
0.211722 0.114828 -0.494692
0.209426 0.115072 -0.495392
0.207795 0.115072 -0.494911
0.206163 0.115072 -0.494431
0.203874 0.115315 -0.495130
0.202244 0.115315 -0.494650
0.199960 0.115558 -0.495348
0.198332 0.115558 -0.494869
0.196703 0.115558 -0.494389
0.194426 0.115801 -0.495087
0.192799 0.115801 -0.494608
0.191172 0.115801 -0.494129
0.188902 0.116043 -0.494827
0.187277 0.116043 -0.494348
0.185012 0.116284 -0.495044
0.183388 0.116284 -0.494566
0.181764 0.116284 -0.494088
0.179506 0.116526 -0.494784
0.177884 0.116526 -0.494307
0.176261 0.116526 -0.493829
0.174010 0.116766 -0.494525
0.172389 0.116766 -0.494047
0.170143 0.117007 -0.494742
0.168523 0.117007 -0.494265
0.166904 0.117007 -0.493788
0.164665 0.117247 -0.494483
0.163047 0.117247 -0.494006
0.161428 0.117247 -0.493530
0.159196 0.117486 -0.494224
0.157579 0.117486 -0.493748
0.155353 0.117725 -0.494442
0.153737 0.117725 -0.493966
0.152122 0.117725 -0.493490
0.149902 0.117964 -0.494183
0.148288 0.117964 -0.493708
0.146674 0.117964 -0.493233
0.144461 0.118202 -0.493926
0.142848 0.118202 -0.493451
0.140641 0.118440 -0.494142
0.139029 0.118440 -0.493668
0.137418 0.118440 -0.493194
0.135217 0.118678 -0.493885
0.133607 0.118678 -0.493411
0.131997 0.118678 -0.492937
0.129803 0.118915 -0.493628
0.128195 0.118915 -0.493155
0.126005 0.119151 -0.493845
0.124398 0.119151 -0.493372
0.122791 0.119151 -0.492899
0.120609 0.119387 -0.493589
0.119003 0.119387 -0.493116
0.117398 0.119387 -0.492643
0.115222 0.119623 -0.493333
0.113618 0.119623 -0.492860
0.111447 0.119858 -0.493549
0.109844 0.119858 -0.493077
0.108241 0.119858 -0.492605
0.106077 0.120093 -0.493294
0.104476 0.120093 -0.492822
0.102875 0.120093 -0.492351
0.100717 0.120328 -0.493039
0.099117 0.120328 -0.492567
0.096965 0.120562 -0.493255
0.095366 0.120562 -0.492784
0.093767 0.120562 -0.492313
0.091622 0.120796 -0.493000
0.090024 0.120796 -0.492530
0.088427 0.120796 -0.492059
0.086288 0.121029 -0.492746
0.084692 0.121029 -0.492276
0.082558 0.121262 -0.492962
0.080963 0.121262 -0.492492
0.079369 0.121262 -0.492023
0.077241 0.121494 -0.492708
0.075648 0.121494 -0.492239
0.074055 0.121494 -0.491770
0.071934 0.121726 -0.492455
0.070342 0.121726 -0.491986
0.068226 0.121958 -0.492670
0.066636 0.121958 -0.492202
0.065045 0.121958 -0.491734
0.062936 0.122189 -0.492418
0.061347 0.122189 -0.491950
0.059758 0.122189 -0.491482
0.057654 0.122420 -0.492165
0.056067 0.122420 -0.491698
0.053968 0.122651 -0.492381
0.052382 0.122651 -0.491914
0.050796 0.122651 -0.491447
0.048704 0.122881 -0.492129
0.047119 0.122881 -0.491662
0.045534 0.122881 -0.491195
0.043449 0.123111 -0.491877
0.041865 0.123111 -0.491411
0.039784 0.123340 -0.492092
0.038202 0.123340 -0.491626
0.036620 0.123340 -0.491161
0.034546 0.123569 -0.491841
0.032965 0.123569 -0.491376
0.031385 0.123569 -0.490910
0.029316 0.123797 -0.491591
0.027737 0.123797 -0.491126
0.025674 0.124025 -0.491805
0.024096 0.124025 -0.491341
0.022518 0.124025 -0.490876
0.020461 0.124253 -0.491555
0.018884 0.124253 -0.491091
0.017308 0.124253 -0.490627
0.015257 0.124480 -0.491306
0.013682 0.124480 -0.490842
0.011636 0.124707 -0.491520
0.010062 0.124707 -0.491057
0.008488 0.124707 -0.490593
0.006448 0.124934 -0.491271
0.004876 0.124934 -0.490808
0.003303 0.124934 -0.490345
0.001270 0.125160 -0.491022
-0.000302 0.125160 -0.490560
-0.002330 0.125386 -0.491236
-0.003900 0.125386 -0.490774
-0.005470 0.125386 -0.490312
-0.007493 0.125611 -0.490988
-0.008610 0.125386 -0.489387
-0.010180 0.125386 -0.488925
-0.012198 0.125611 -0.489602
-0.013767 0.125611 -0.489140
-0.015780 0.125836 -0.489817
-0.017348 0.125836 -0.489356
-0.018915 0.125836 -0.488894
-0.020922 0.126061 -0.489570
-0.022488 0.126061 -0.489109
-0.024054 0.126061 -0.488648
-0.026056 0.126285 -0.489324
-0.027620 0.126285 -0.488864
-0.029617 0.126509 -0.489539
-0.031180 0.126509 -0.489078
-0.032743 0.126509 -0.488618
-0.034734 0.126732 -0.489293
-0.036296 0.126732 -0.488833
-0.037858 0.126732 -0.488373
-0.039842 0.126955 -0.489048
-0.041403 0.126955 -0.488588
-0.043383 0.127178 -0.489262
-0.044942 0.127178 -0.488803
-0.046501 0.127178 -0.488344
-0.048475 0.127400 -0.489017
-0.050033 0.127400 -0.488558
-0.051591 0.127400 -0.488099
-0.053559 0.127622 -0.488773
-0.055115 0.127622 -0.488314
-0.057079 0.127844 -0.488986
-0.058634 0.127844 -0.488528
-0.060189 0.127844 -0.488070
-0.062147 0.128065 -0.488742
-0.063701 0.128065 -0.488285
-0.065254 0.128065 -0.487827
-0.067206 0.128286 -0.488499
-0.068758 0.128286 -0.488041
-0.070705 0.128507 -0.488712
-0.072257 0.128507 -0.488255
-0.073808 0.128507 -0.487799
-0.075749 0.128727 -0.488469
-0.077299 0.128727 -0.488013
-0.078849 0.128727 -0.487556
-0.080784 0.128946 -0.488226
-0.082332 0.128946 -0.487770
-0.084644 0.129385 -0.489563
-0.086190 0.129385 -0.489108
-0.087736 0.129385 -0.488652
-0.089659 0.129603 -0.489320
-0.091203 0.129603 -0.488865
-0.092748 0.129603 -0.488410
-0.094665 0.129822 -0.489077
-0.096208 0.129822 -0.488623
-0.098121 0.130039 -0.489289
-0.099663 0.130039 -0.488835
-0.101205 0.130039 -0.488381
-0.103112 0.130257 -0.489047
-0.104652 0.130257 -0.488593
-0.106193 0.130257 -0.488139
-0.108094 0.130474 -0.488805
-0.109634 0.130474 -0.488351
-0.111530 0.130691 -0.489016
-0.113068 0.130691 -0.488563
-0.114606 0.130691 -0.488110
-0.116497 0.130907 -0.488775
-0.118034 0.130907 -0.488322
-0.119571 0.130907 -0.487870
-0.121456 0.131123 -0.488534
-0.122991 0.131123 -0.488082
