ply
format ascii 1.0
element vertex 1722
property float x
property float y
property float z
end_header
0.440117 0.017249 0.209182
0.440392 0.017232 0.206408
0.440667 0.017215 0.203638
0.442149 0.017180 0.199733
0.442421 0.017163 0.196978
0.443895 0.017128 0.193096
0.444165 0.017111 0.190356
0.444434 0.017094 0.187621
0.444703 0.017077 0.184892
0.444971 0.017060 0.182168
0.446432 0.017026 0.178337
0.446698 0.017009 0.175627
0.446963 0.016992 0.172923
0.447228 0.016975 0.170223
0.447492 0.016958 0.167529
0.447756 0.016941 0.164840
0.448019 0.016924 0.162156
0.448282 0.016907 0.159477
0.448545 0.016891 0.156803
0.448807 0.016874 0.154134
0.449068 0.016857 0.151471
0.449329 0.016841 0.148813
0.449589 0.016824 0.146159
0.451021 0.016791 0.142449
0.450108 0.016791 0.140868
0.450367 0.016774 0.138230
0.451793 0.016741 0.134545
0.453214 0.016708 0.130874
0.454630 0.016676 0.127218
0.456040 0.016643 0.123575
0.456291 0.016627 0.120975
0.456542 0.016611 0.118381
0.456792 0.016594 0.115791
0.457042 0.016578 0.113207
0.458439 0.016546 0.109610
0.458687 0.016530 0.107039
0.458934 0.016514 0.104472
0.459180 0.016498 0.101910
0.458283 0.016498 0.100356
0.458529 0.016482 0.097801
0.458776 0.016466 0.095250
0.459022 0.016450 0.092704
0.459267 0.016434 0.090162
0.458373 0.016434 0.088614
0.458619 0.016418 0.086079
0.458864 0.016402 0.083548
0.459109 0.016387 0.081023
0.459354 0.016371 0.078502
0.459598 0.016355 0.075985
0.459841 0.016339 0.073474
0.458952 0.016339 0.071934
0.459196 0.016324 0.069428
0.459440 0.016308 0.066928
0.459683 0.016292 0.064431
0.458796 0.016292 0.062896
0.457910 0.016292 0.061360
0.457023 0.016292 0.059825
0.456137 0.016292 0.058289
0.456382 0.016277 0.055803
0.455497 0.016277 0.054269
0.454611 0.016277 0.052735
0.453725 0.016277 0.051201
0.453973 0.016261 0.048724
0.453088 0.016261 0.047192
0.452203 0.016261 0.045659
0.451319 0.016261 0.044126
0.450434 0.016261 0.042594
0.450684 0.016246 0.040127
0.449800 0.016246 0.038596
0.448916 0.016246 0.037064
0.448032 0.016246 0.035533
0.448285 0.016230 0.033075
0.447402 0.016230 0.031545
0.446518 0.016230 0.030015
0.446772 0.016215 0.027565
0.445890 0.016215 0.026036
0.445007 0.016215 0.024508
0.444125 0.016215 0.022980
0.444381 0.016199 0.020538
0.443499 0.016199 0.019011
0.442617 0.016199 0.017484
0.441736 0.016199 0.015957
0.440854 0.016199 0.014430
0.441113 0.016184 0.011998
0.440232 0.016184 0.010472
0.439351 0.016184 0.008947
0.438470 0.016184 0.007421
0.437590 0.016184 0.005896
0.436709 0.016184 0.004370
0.436971 0.016169 0.001950
0.436091 0.016169 0.000425
0.435211 0.016169 -0.001099
0.434331 0.016169 -0.002623
0.433451 0.016169 -0.004147
0.432571 0.016169 -0.005671
0.431691 0.016169 -0.007196
0.430811 0.016169 -0.008720
0.429931 0.016169 -0.010244
0.429051 0.016169 -0.011768
0.428171 0.016169 -0.013292
0.428441 0.016153 -0.015694
0.428710 0.016138 -0.018092
0.428979 0.016123 -0.020485
0.430391 0.016092 -0.023740
0.430657 0.016077 -0.026122
0.432062 0.016046 -0.029358
0.434596 0.016001 -0.033436
0.435987 0.015971 -0.036645
0.436247 0.015956 -0.038997
0.437632 0.015926 -0.042187
0.439011 0.015896 -0.045365
0.439267 0.015881 -0.047699
0.439522 0.015866 -0.050028
0.439777 0.015852 -0.052354
0.441146 0.015822 -0.055499
0.441399 0.015807 -0.057813
0.441651 0.015793 -0.060123
0.441902 0.015778 -0.062429
0.442153 0.015763 -0.064731
0.442404 0.015749 -0.067028
0.443760 0.015719 -0.070128
0.444009 0.015705 -0.072414
0.444257 0.015690 -0.074697
0.444505 0.015676 -0.076975
0.445851 0.015647 -0.080043
0.446097 0.015633 -0.082311
0.446342 0.015618 -0.084574
0.446587 0.015604 -0.086834
0.447924 0.015575 -0.089871
0.448166 0.015561 -0.092120
0.447318 0.015561 -0.093588
0.447561 0.015547 -0.095832
0.447804 0.015532 -0.098071
0.448046 0.015518 -0.100307
0.448288 0.015504 -0.102539
0.448529 0.015490 -0.104766
0.448770 0.015476 -0.106990
0.449010 0.015461 -0.109210
0.448167 0.015461 -0.110670
0.448408 0.015447 -0.112884
0.448648 0.015433 -0.115095
0.448888 0.015419 -0.117302
0.448048 0.015419 -0.118758
0.448288 0.015405 -0.120960
0.448528 0.015391 -0.123157
0.448767 0.015377 -0.125351
0.447929 0.015377 -0.126803
0.448168 0.015363 -0.128992
0.448408 0.015349 -0.131177
0.448647 0.015335 -0.133359
0.449958 0.015308 -0.136264
0.449123 0.015308 -0.137710
0.449361 0.015294 -0.139879
0.448527 0.015294 -0.141324
0.448765 0.015280 -0.143489
0.447931 0.015280 -0.144932
0.448169 0.015266 -0.147092
0.448407 0.015253 -0.149248
0.447576 0.015253 -0.150688
0.446744 0.015253 -0.152129
0.446983 0.015239 -0.154279
0.447221 0.015225 -0.156425
0.446391 0.015225 -0.157863
0.445560 0.015225 -0.159301
0.445800 0.015211 -0.161441
0.443900 0.015225 -0.162178
0.444141 0.015211 -0.164315
0.443311 0.015211 -0.165752
0.442481 0.015211 -0.167189
0.441652 0.015211 -0.168626
0.441894 0.015198 -0.170756
0.441065 0.015198 -0.172191
0.440237 0.015198 -0.173627
0.439408 0.015198 -0.175063
0.438579 0.015198 -0.176498
0.437750 0.015198 -0.177934
0.436921 0.015198 -0.179370
0.435015 0.015211 -0.180121
0.434185 0.015211 -0.181558
0.434434 0.015198 -0.183677
0.433605 0.015198 -0.185113
0.432777 0.015198 -0.186548
0.431948 0.015198 -0.187984
0.431119 0.015198 -0.189420
0.430290 0.015198 -0.190855
0.429461 0.015198 -0.192291
0.428632 0.015198 -0.193727
0.428886 0.015184 -0.195833
0.428057 0.015184 -0.197268
0.427229 0.015184 -0.198702
0.426401 0.015184 -0.200136
0.425573 0.015184 -0.201571
0.424745 0.015184 -0.203005
0.425002 0.015171 -0.205102
0.424174 0.015171 -0.206535
0.423347 0.015171 -0.207968
0.422519 0.015171 -0.209401
0.421692 0.015171 -0.210835
0.420864 0.015171 -0.212268
0.420037 0.015171 -0.213701
0.419209 0.015171 -0.215134
0.418382 0.015171 -0.216567
0.417554 0.015171 -0.218001
0.416727 0.015171 -0.219434
0.416991 0.015157 -0.221514
0.416164 0.015157 -0.222946
0.414245 0.015171 -0.223734
0.413417 0.015171 -0.225167
0.412590 0.015171 -0.226600
0.411762 0.015171 -0.228033
0.409838 0.015184 -0.228825
0.409009 0.015184 -0.230260
0.408181 0.015184 -0.231694
0.407353 0.015184 -0.233129
0.406525 0.015184 -0.234563
0.404594 0.015198 -0.235362
0.403765 0.015198 -0.236798
0.402936 0.015198 -0.238233
0.401001 0.015211 -0.239036
0.400171 0.015211 -0.240473
0.399341 0.015211 -0.241910
0.398512 0.015211 -0.243347
0.396570 0.015225 -0.244154
0.395740 0.015225 -0.245592
0.394910 0.015225 -0.247031
0.392964 0.015239 -0.247842
0.392133 0.015239 -0.249282
0.391302 0.015239 -0.250721
0.389351 0.015253 -0.251537
0.388519 0.015253 -0.252977
0.387687 0.015253 -0.254418
0.385732 0.015266 -0.255237
0.384899 0.015266 -0.256679
0.384067 0.015266 -0.258121
0.382106 0.015280 -0.258945
0.381273 0.015280 -0.260388
0.380440 0.015280 -0.261831
0.379606 0.015280 -0.263274
0.377640 0.015294 -0.264103
0.376806 0.015294 -0.265547
0.375972 0.015294 -0.266992
0.375138 0.015294 -0.268436
0.374304 0.015294 -0.269881
0.372332 0.015308 -0.270716
0.371497 0.015308 -0.272161
0.369521 0.015322 -0.272999
0.368685 0.015322 -0.274446
0.366704 0.015335 -0.275286
0.365868 0.015335 -0.276735
0.363883 0.015349 -0.277578
0.363046 0.015349 -0.279027
0.361057 0.015363 -0.279873
0.360220 0.015363 -0.281324
0.359382 0.015363 -0.282775
0.357388 0.015377 -0.283625
0.356549 0.015377 -0.285077
0.354551 0.015391 -0.285930
0.353712 0.015391 -0.287383
0.352873 0.015391 -0.288836
0.350869 0.015405 -0.289693
0.350030 0.015405 -0.291148
0.348022 0.015419 -0.292008
0.347181 0.015419 -0.293463
0.346341 0.015419 -0.294919
0.345500 0.015419 -0.296375
0.343487 0.015433 -0.297240
0.342646 0.015433 -0.298697
0.340628 0.015447 -0.299565
0.339786 0.015447 -0.301023
0.338944 0.015447 -0.302482
0.336921 0.015461 -0.303354
0.336078 0.015461 -0.304813
0.334051 0.015476 -0.305688
0.333208 0.015476 -0.307149
0.332364 0.015476 -0.308610
0.330332 0.015490 -0.309489
0.329488 0.015490 -0.310951
0.327451 0.015504 -0.311833
0.326606 0.015504 -0.313297
0.325761 0.015504 -0.314760
0.324916 0.015504 -0.316224
0.322874 0.015518 -0.317111
0.322028 0.015518 -0.318576
0.319982 0.015532 -0.319466
0.319135 0.015532 -0.320932
0.318289 0.015532 -0.322398
0.316237 0.015547 -0.323292
0.315390 0.015547 -0.324760
0.313334 0.015561 -0.325657
0.312486 0.015561 -0.327125
0.311638 0.015561 -0.328594
0.309576 0.015575 -0.329495
0.308728 0.015575 -0.330966
0.306662 0.015589 -0.331870
0.305812 0.015589 -0.333341
0.303742 0.015604 -0.334248
0.302892 0.015604 -0.335721
0.300817 0.015618 -0.336631
0.299966 0.015618 -0.338105
0.297887 0.015633 -0.339018
0.297035 0.015633 -0.340493
0.296184 0.015633 -0.341968
0.294099 0.015647 -0.342885
0.293247 0.015647 -0.344362
0.291158 0.015661 -0.345282
0.290305 0.015661 -0.346760
0.289451 0.015661 -0.348238
0.287357 0.015676 -0.349162
0.286503 0.015676 -0.350642
0.284405 0.015690 -0.351569
0.283550 0.015690 -0.353050
0.281447 0.015705 -0.353980
0.280591 0.015705 -0.355462
0.279736 0.015705 -0.356944
0.277627 0.015719 -0.357879
0.276771 0.015719 -0.359362
0.274658 0.015734 -0.360299
0.273801 0.015734 -0.361784
0.272944 0.015734 -0.363269
0.270826 0.015749 -0.364211
0.269968 0.015749 -0.365697
0.267845 0.015763 -0.366642
0.266986 0.015763 -0.368129
0.266128 0.015763 -0.369616
0.264000 0.015778 -0.370565
0.263140 0.015778 -0.372054
0.261007 0.015793 -0.373006
0.262693 0.015763 -0.375565
0.268163 0.015690 -0.379700
0.273584 0.015618 -0.383799
0.280196 0.015532 -0.388376
0.283053 0.015490 -0.391378
0.287120 0.015433 -0.394870
0.291159 0.015377 -0.398337
0.295169 0.015322 -0.401780
0.299151 0.015266 -0.405199
0.301912 0.015225 -0.408108
0.305847 0.015171 -0.411484
0.309754 0.015116 -0.414837
0.312462 0.015076 -0.417693
0.316323 0.015022 -0.421005
0.320158 0.014969 -0.424294
0.322814 0.014930 -0.427099
0.326604 0.014877 -0.430348
0.329228 0.014838 -0.433121
0.332974 0.014786 -0.436331
0.336695 0.014734 -0.439518
0.338145 0.014709 -0.441800
0.340710 0.014670 -0.444514
0.342147 0.014645 -0.446777
0.342464 0.014632 -0.448598
0.343895 0.014607 -0.450850
0.345320 0.014581 -0.453093
0.345633 0.014569 -0.454901
0.347052 0.014544 -0.457133
0.348467 0.014519 -0.459356
0.349876 0.014494 -0.461573
0.350184 0.014481 -0.463364
0.351587 0.014457 -0.465568
0.352986 0.014432 -0.467765
0.354380 0.014407 -0.469955
0.355770 0.014383 -0.472138
0.354984 0.014383 -0.473499
0.355285 0.014370 -0.475267
0.355585 0.014358 -0.477031
0.354801 0.014358 -0.478391
0.355101 0.014346 -0.480151
0.355401 0.014334 -0.481909
0.354618 0.014334 -0.483266
0.353835 0.014334 -0.484623
0.351965 0.014346 -0.485583
0.350092 0.014358 -0.486545
0.349308 0.014358 -0.487904
0.347431 0.014370 -0.488869
0.344456 0.014395 -0.489441
0.342571 0.014407 -0.490409
0.339580 0.014432 -0.490985
0.336579 0.014457 -0.491562
0.333569 0.014481 -0.492142
0.330548 0.014506 -0.492723
0.326396 0.014544 -0.492910
0.322223 0.014581 -0.493099
0.316892 0.014632 -0.492890
0.312671 0.014670 -0.493080
0.308428 0.014709 -0.493270
0.304164 0.014747 -0.493462
0.297548 0.014812 -0.492849
0.293227 0.014851 -0.493041
0.288884 0.014890 -0.493234
0.283331 0.014943 -0.493021
0.278937 0.014982 -0.493215
0.273317 0.015036 -0.493001
0.268870 0.015076 -0.493196
0.264401 0.015116 -0.493392
0.258681 0.015171 -0.493177
0.254158 0.015211 -0.493374
0.248368 0.015266 -0.493158
0.243791 0.015308 -0.493356
0.239189 0.015349 -0.493555
0.233295 0.015405 -0.493337
0.228638 0.015447 -0.493538
0.222671 0.015504 -0.493319
0.217956 0.015547 -0.493520
0.211913 0.015604 -0.493300
0.207140 0.015647 -0.493503
0.202342 0.015690 -0.493707
0.196189 0.015749 -0.493485
0.191331 0.015793 -0.493690
0.186446 0.015837 -0.493896
0.181535 0.015881 -0.494104
0.175234 0.015941 -0.493881
0.168888 0.016001 -0.493656
0.161108 0.016077 -0.492994
0.156055 0.016123 -0.493202
0.150974 0.016169 -0.493411
0.144450 0.016230 -0.493182
0.137878 0.016292 -0.492951
0.132695 0.016339 -0.493161
0.126035 0.016402 -0.492928
0.120785 0.016450 -0.493140
0.114037 0.016514 -0.492906
0.108718 0.016562 -0.493119
0.101880 0.016627 -0.492883
0.094990 0.016692 -0.492645
0.088048 0.016758 -0.492406
0.082578 0.016807 -0.492621
0.075542 0.016874 -0.492379
0.069999 0.016924 -0.492595
0.062866 0.016992 -0.492353
0.055678 0.017060 -0.492108
0.050018 0.017111 -0.492325
0.042731 0.017180 -0.492079
0.036995 0.017232 -0.492298
0.029606 0.017302 -0.492049
0.022160 0.017372 -0.491799
0.016299 0.017425 -0.492020
0.008748 0.017497 -0.491767
0.001137 0.017569 -0.491513
-0.006536 0.017641 -0.491257
-0.014270 0.017714 -0.490998
-0.022067 0.017788 -0.490738
-0.028198 0.017844 -0.490961
-0.036106 0.017919 -0.490698
-0.042324 0.017975 -0.490922
-0.050347 0.018051 -0.490658
-0.058436 0.018127 -0.490391
-0.064793 0.018185 -0.490616
-0.073001 0.018263 -0.490348
-0.079450 0.018321 -0.490575
-0.087778 0.018400 -0.490304
-0.096177 0.018480 -0.490031
-0.102773 0.018540 -0.490259
-0.109411 0.018600 -0.490490
-0.117990 0.018681 -0.490214
-0.126641 0.018763 -0.489937
-0.135367 0.018845 -0.489657
-0.144167 0.018928 -0.489374
-0.151075 0.018991 -0.489606
-0.160009 0.019076 -0.489322
-0.169022 0.019161 -0.489034
-0.176093 0.019225 -0.489268
-0.187283 0.019333 -0.488452
-0.196534 0.019421 -0.488158
-0.205867 0.019509 -0.487860
-0.215282 0.019598 -0.487560
-0.224782 0.019688 -0.487257
-0.234366 0.019778 -0.486952
-0.246199 0.019892 -0.486100
-0.258166 0.020008 -0.485239
-0.272488 0.020149 -0.483815
0.420369 0.015891 0.282506
0.421942 0.015858 0.278307
0.422244 0.015841 0.275379
0.423809 0.015808 0.271207
0.424108 0.015792 0.268295
0.425664 0.015759 0.264149
0.425961 0.015743 0.261253
0.426257 0.015726 0.258362
0.427803 0.015694 0.254254
0.428096 0.015678 0.251378
0.428389 0.015661 0.248509
0.429924 0.015629 0.244436
0.431453 0.015597 0.240380
0.432977 0.015565 0.236339
0.433262 0.015549 0.233505
0.433548 0.015533 0.230676
0.435061 0.015501 0.226670
0.435343 0.015486 0.223856
0.435625 0.015470 0.221048
0.437128 0.015438 0.217077
0.437408 0.015423 0.214284
0.438903 0.015391 0.210338
0.439180 0.015376 0.207560
0.439456 0.015360 0.204786
0.440942 0.015329 0.200875
0.441215 0.015313 0.198116
0.441489 0.015298 0.195363
0.442964 0.015267 0.191485
0.443235 0.015252 0.188746
0.443505 0.015236 0.186013
0.443775 0.015221 0.183285
0.444045 0.015206 0.180562
0.445507 0.015175 0.176735
0.445773 0.015160 0.174027
0.446040 0.015145 0.171323
0.446305 0.015130 0.168625
0.446571 0.015115 0.165933
0.446835 0.015100 0.163245
0.447100 0.015085 0.160562
0.447363 0.015070 0.157885
0.447627 0.015055 0.155213
0.447889 0.015040 0.152546
0.446972 0.015040 0.150957
0.447235 0.015025 0.148297
0.448674 0.014995 0.144575
0.448935 0.014980 0.141929
0.449196 0.014965 0.139287
0.449455 0.014950 0.136651
0.450883 0.014921 0.132969
0.452306 0.014892 0.129301
0.453723 0.014862 0.125647
0.455135 0.014833 0.122007
0.455387 0.014819 0.119409
0.455638 0.014804 0.116816
0.455889 0.014790 0.114228
0.456140 0.014775 0.111645
0.457539 0.014746 0.108052
0.457788 0.014732 0.105482
0.458035 0.014718 0.102917
0.457137 0.014718 0.101361
0.457385 0.014703 0.098802
0.457633 0.014689 0.096248
0.457880 0.014675 0.093698
0.458127 0.014660 0.091154
0.458373 0.014646 0.088614
0.457479 0.014646 0.087065
0.457726 0.014632 0.084532
0.457972 0.014618 0.082003
0.458218 0.014604 0.079479
0.458463 0.014590 0.076959
0.458708 0.014576 0.074444
0.457818 0.014576 0.072903
0.458063 0.014561 0.070394
0.458308 0.014547 0.067890
0.458552 0.014533 0.065391
0.458796 0.014519 0.062896
0.456778 0.014533 0.062317
0.455890 0.014533 0.060780
0.456137 0.014519 0.058289
0.455250 0.014519 0.056754
0.454364 0.014519 0.055218
0.453477 0.014519 0.053683
0.452591 0.014519 0.052147
0.452840 0.014506 0.049667
0.451954 0.014506 0.048133
0.451068 0.014506 0.046599
0.450183 0.014506 0.045065
0.450434 0.014492 0.042594
0.449549 0.014492 0.041061
0.448664 0.014492 0.039528
0.447779 0.014492 0.037996
0.448032 0.014478 0.035533
0.447148 0.014478 0.034002
0.446264 0.014478 0.032471
0.446518 0.014464 0.030015
0.445635 0.014464 0.028486
0.444752 0.014464 0.026956
0.443869 0.014464 0.025426
0.442985 0.014464 0.023896
0.443242 0.014450 0.021451
0.442360 0.014450 0.019923
0.441478 0.014450 0.018394
0.440595 0.014450 0.016866
0.440854 0.014436 0.014430
0.439973 0.014436 0.012903
0.439091 0.014436 0.011376
0.438209 0.014436 0.009849
0.438470 0.014422 0.007421
0.437590 0.014422 0.005896
0.436709 0.014422 0.004370
0.435828 0.014422 0.002844
0.434947 0.014422 0.001319
0.434066 0.014422 -0.000207
0.433186 0.014422 -0.001732
0.432305 0.014422 -0.003258
0.431424 0.014422 -0.004784
0.430543 0.014422 -0.006309
0.429662 0.014422 -0.007835
0.428782 0.014422 -0.009360
0.427901 0.014422 -0.010886
0.428171 0.014409 -0.013292
0.427291 0.014409 -0.014816
0.427562 0.014395 -0.017217
0.427832 0.014381 -0.019613
0.429247 0.014354 -0.022873
0.430657 0.014326 -0.026122
0.430923 0.014313 -0.028499
0.433462 0.014272 -0.032583
0.434857 0.014245 -0.035796
0.435118 0.014232 -0.038151
0.436506 0.014205 -0.041345
0.437889 0.014178 -0.044528
0.438146 0.014165 -0.046864
0.438402 0.014152 -0.049197
0.439777 0.014125 -0.052354
0.440031 0.014112 -0.054675
0.440284 0.014099 -0.056992
0.440538 0.014085 -0.059305
0.440790 0.014072 -0.061613
0.442153 0.014046 -0.064731
0.442404 0.014033 -0.067028
0.442654 0.014020 -0.069322
0.442904 0.014007 -0.071611
0.443153 0.013994 -0.073896
0.444505 0.013968 -0.076975
0.444752 0.013955 -0.079250
0.444999 0.013942 -0.081520
0.445245 0.013929 -0.083786
0.446587 0.013903 -0.086834
0.446831 0.013890 -0.089089
0.447075 0.013878 -0.091341
0.447318 0.013865 -0.093588
0.447561 0.013852 -0.095832
0.446714 0.013852 -0.097299
0.446957 0.013839 -0.099538
0.447200 0.013827 -0.101772
0.447443 0.013814 -0.104002
0.447685 0.013801 -0.106229
0.447926 0.013789 -0.108451
0.448167 0.013776 -0.110670
0.448408 0.013763 -0.112884
0.447566 0.013763 -0.114343
0.447807 0.013751 -0.116552
0.448048 0.013738 -0.118758
0.448288 0.013726 -0.120960
0.447448 0.013726 -0.122414
0.447689 0.013713 -0.124611
0.447929 0.013701 -0.126803
0.448168 0.013688 -0.128992
0.448408 0.013676 -0.131177
0.448647 0.013663 -0.133359
0.448885 0.013651 -0.135536
0.448050 0.013651 -0.136983
0.448288 0.013638 -0.139155
0.448527 0.013626 -0.141324
0.447693 0.013626 -0.142768
0.447931 0.013614 -0.144932
0.447098 0.013614 -0.146375
0.447337 0.013601 -0.148534
0.446505 0.013601 -0.149976
0.446744 0.013589 -0.152129
0.445912 0.013589 -0.153570
0.446152 0.013577 -0.155718
0.445321 0.013577 -0.157158
0.445560 0.013564 -0.159301
0.444730 0.013564 -0.160739
0.443900 0.013564 -0.162178
0.443069 0.013564 -0.163616
0.443311 0.013552 -0.165752
0.442481 0.013552 -0.167189
0.441652 0.013552 -0.168626
0.440822 0.013552 -0.170063
0.439993 0.013552 -0.171500
0.439163 0.013552 -0.172937
0.438333 0.013552 -0.174374
0.437504 0.013552 -0.175811
0.437750 0.013540 -0.177934
0.436921 0.013540 -0.179370
0.435015 0.013552 -0.180121
0.434185 0.013552 -0.181558
0.433356 0.013552 -0.182995
0.432526 0.013552 -0.184432
0.431696 0.013552 -0.185869
0.431948 0.013540 -0.187984
0.431119 0.013540 -0.189420
0.430290 0.013540 -0.190855
0.429461 0.013540 -0.192291
0.428632 0.013540 -0.193727
0.427803 0.013540 -0.195162
0.426974 0.013540 -0.196598
0.426145 0.013540 -0.198034
0.426401 0.013528 -0.200136
0.425573 0.013528 -0.201571
0.424745 0.013528 -0.203005
0.423917 0.013528 -0.204440
0.423088 0.013528 -0.205874
0.422260 0.013528 -0.207309
0.422519 0.013516 -0.209401
0.421692 0.013516 -0.210835
0.420864 0.013516 -0.212268
0.418947 0.013528 -0.213046
0.418119 0.013528 -0.214481
0.418382 0.013516 -0.216567
0.417554 0.013516 -0.218001
0.416727 0.013516 -0.219434
0.415899 0.013516 -0.220867
0.415072 0.013516 -0.222300
0.414245 0.013516 -0.223734
0.413417 0.013516 -0.225167
0.411494 0.013528 -0.225957
0.410666 0.013528 -0.227391
0.409838 0.013528 -0.228825
0.409009 0.013528 -0.230260
0.408181 0.013528 -0.231694
0.407353 0.013528 -0.233129
0.405423 0.013540 -0.233926
0.404594 0.013540 -0.235362
0.402660 0.013552 -0.236162
0.401830 0.013552 -0.237599
0.401001 0.013552 -0.239036
0.400171 0.013552 -0.240473
0.398231 0.013564 -0.241278
0.397401 0.013564 -0.242716
0.396570 0.013564 -0.244154
0.395740 0.013564 -0.245592
0.393795 0.013577 -0.246403
0.392964 0.013577 -0.247842
0.392133 0.013577 -0.249282
0.390183 0.013589 -0.250096
0.389351 0.013589 -0.251537
0.388519 0.013589 -0.252977
0.386564 0.013601 -0.253795
0.385732 0.013601 -0.255237
0.384899 0.013601 -0.256679
0.382939 0.013614 -0.257501
0.382106 0.013614 -0.258945
0.381273 0.013614 -0.260388
0.379308 0.013626 -0.261214
0.378474 0.013626 -0.262658
0.377640 0.013626 -0.264103
0.376806 0.013626 -0.265547
0.375972 0.013626 -0.266992
0.375138 0.013626 -0.268436
0.373167 0.013638 -0.269270
0.372332 0.013638 -0.270716
0.370356 0.013651 -0.271552
0.369521 0.013651 -0.272999
0.368685 0.013651 -0.274446
0.366704 0.013663 -0.275286
0.364720 0.013676 -0.276128
0.363883 0.013676 -0.277578
0.361895 0.013688 -0.278423
0.361057 0.013688 -0.279873
0.360220 0.013688 -0.281324
0.358226 0.013701 -0.282173
0.357388 0.013701 -0.283625
0.355390 0.013713 -0.284477
0.354551 0.013713 -0.285930
0.353712 0.013713 -0.287383
0.351709 0.013726 -0.288239
0.350869 0.013726 -0.289693
0.348863 0.013738 -0.290552
0.348022 0.013738 -0.292008
0.347181 0.013738 -0.293463
0.346341 0.013738 -0.294919
0.344328 0.013751 -0.295783
0.343487 0.013751 -0.297240
0.341470 0.013763 -0.298107
0.340628 0.013763 -0.299565
0.339786 0.013763 -0.301023
0.337764 0.013776 -0.301894
0.336921 0.013776 -0.303354
0.334895 0.013789 -0.304227
0.334051 0.013789 -0.305688
0.333208 0.013789 -0.307149
0.331176 0.013801 -0.308027
0.330332 0.013801 -0.309489
0.328297 0.013814 -0.310369
0.327451 0.013814 -0.311833
0.326606 0.013814 -0.313297
0.325761 0.013814 -0.314760
0.323720 0.013827 -0.315646
0.322874 0.013827 -0.317111
0.320828 0.013839 -0.317999
0.319982 0.013839 -0.319466
0.319135 0.013839 -0.320932
0.317084 0.013852 -0.321825
0.316237 0.013852 -0.323292
0.314182 0.013865 -0.324188
0.313334 0.013865 -0.325657
0.312486 0.013865 -0.327125
0.310425 0.013878 -0.328025
0.309576 0.013878 -0.329495
0.307511 0.013890 -0.330398
0.306662 0.013890 -0.331870
0.305812 0.013890 -0.333341
0.303742 0.013903 -0.334248
0.301668 0.013916 -0.335157
0.300817 0.013916 -0.336631
0.298739 0.013929 -0.337542
0.297887 0.013929 -0.339018
0.297035 0.013929 -0.340493
0.294952 0.013942 -0.341409
0.294099 0.013942 -0.342885
0.292011 0.013955 -0.343804
0.291158 0.013955 -0.345282
0.290305 0.013955 -0.346760
0.288211 0.013968 -0.347683
0.287357 0.013968 -0.349162
0.286503 0.013968 -0.350642
0.284405 0.013981 -0.351569
0.283550 0.013981 -0.353050
0.281447 0.013994 -0.353980
0.280591 0.013994 -0.355462
0.278484 0.014007 -0.356395
0.277627 0.014007 -0.357879
0.275515 0.014020 -0.358815
0.274658 0.014020 -0.360299
0.273801 0.014020 -0.361784
0.271684 0.014033 -0.362725
0.270826 0.014033 -0.364211
0.269968 0.014033 -0.365697
0.267845 0.014046 -0.366642
0.266986 0.014046 -0.368129
0.264859 0.014059 -0.369077
0.264000 0.014059 -0.370565
0.261868 0.014072 -0.371517
0.261007 0.014072 -0.373006
0.261421 0.014059 -0.375031
0.268163 0.013981 -0.379700
0.273584 0.013916 -0.383799
0.277717 0.013865 -0.387346
0.281821 0.013814 -0.390867
0.285896 0.013763 -0.394364
0.289942 0.013713 -0.397836
0.293960 0.013663 -0.401284
0.296746 0.013626 -0.404215
0.300716 0.013577 -0.407620
0.304659 0.013528 -0.411001
0.307391 0.013491 -0.413879
0.311287 0.013443 -0.417218
0.315155 0.013395 -0.420534
0.317835 0.013359 -0.423361
0.321659 0.013312 -0.426637
0.324306 0.013276 -0.429431
0.328084 0.013230 -0.432666
0.331838 0.013183 -0.435880
0.334435 0.013148 -0.438625
0.337018 0.013114 -0.441356
0.339589 0.013079 -0.444074
0.341029 0.013057 -0.446340
0.341347 0.013045 -0.448163
0.342781 0.013022 -0.450416
0.344209 0.013000 -0.452663
0.345633 0.012977 -0.454901
0.345946 0.012966 -0.456706
0.347363 0.012944 -0.458933
0.348776 0.012921 -0.461152
0.349085 0.012910 -0.462944
0.350491 0.012888 -0.465151
0.351893 0.012866 -0.467351
0.353290 0.012844 -0.469543
0.353593 0.012833 -0.471319
0.354984 0.012811 -0.473499
0.354198 0.012811 -0.474860
0.354499 0.012800 -0.476627
0.354801 0.012789 -0.478391
0.354016 0.012789 -0.479750
0.354317 0.012778 -0.481509
0.353533 0.012778 -0.482867
0.352749 0.012778 -0.484225
0.351965 0.012778 -0.485583
0.350092 0.012789 -0.486545
0.349308 0.012789 -0.487904
0.347431 0.012800 -0.488869
0.344456 0.012822 -0.489441
0.342571 0.012833 -0.490409
0.339580 0.012855 -0.490985
0.336579 0.012877 -0.491562
0.333569 0.012899 -0.492142
0.330548 0.012921 -0.492723
0.326396 0.012955 -0.492910
0.322223 0.012989 -0.493099
0.316892 0.013034 -0.492890
0.312671 0.013068 -0.493080
0.308428 0.013102 -0.493270
0.304164 0.013137 -0.493462
0.297548 0.013195 -0.492849
0.293227 0.013230 -0.493041
0.288884 0.013265 -0.493234
0.283331 0.013312 -0.493021
0.278937 0.013347 -0.493215
0.273317 0.013395 -0.493001
0.268870 0.013431 -0.493196
0.264401 0.013467 -0.493392
0.258681 0.013516 -0.493177
0.254158 0.013552 -0.493374
0.248368 0.013601 -0.493158
0.243791 0.013638 -0.493356
0.239189 0.013676 -0.493555
0.233295 0.013726 -0.493337
0.228638 0.013763 -0.493538
0.222671 0.013814 -0.493319
0.217956 0.013852 -0.493520
0.211913 0.013903 -0.493300
0.207140 0.013942 -0.493503
0.202342 0.013981 -0.493707
0.196189 0.014033 -0.493485
0.191331 0.014072 -0.493690
0.186446 0.014112 -0.493896
0.181535 0.014152 -0.494104
0.175234 0.014205 -0.493881
0.170261 0.014245 -0.494089
0.161108 0.014326 -0.492994
0.156055 0.014367 -0.493202
0.150974 0.014409 -0.493411
0.144450 0.014464 -0.493182
0.137878 0.014519 -0.492951
0.132695 0.014561 -0.493161
0.126035 0.014618 -0.492928
0.120785 0.014660 -0.493140
0.114037 0.014718 -0.492906
0.108718 0.014761 -0.493119
0.101880 0.014819 -0.492883
0.094990 0.014877 -0.492645
0.088048 0.014936 -0.492406
0.082578 0.014980 -0.492621
0.075542 0.015040 -0.492379
0.069999 0.015085 -0.492595
0.062866 0.015145 -0.492353
0.055678 0.015206 -0.492108
0.050018 0.015252 -0.492325
0.042731 0.015313 -0.492079
0.036995 0.015360 -0.492298
0.029606 0.015423 -0.492049
0.022160 0.015486 -0.491799
0.016299 0.015533 -0.492020
0.008748 0.015597 -0.491767
0.001137 0.015661 -0.491513
-0.006536 0.015726 -0.491257
-0.014270 0.015792 -0.490998
-0.022067 0.015858 -0.490738
-0.028198 0.015908 -0.490961
-0.036106 0.015974 -0.490698
-0.042324 0.016025 -0.490922
-0.050347 0.016093 -0.490658
-0.058436 0.016161 -0.490391
-0.064793 0.016213 -0.490616
-0.073001 0.016282 -0.490348
-0.079450 0.016335 -0.490575
-0.087778 0.016405 -0.490304
-0.096177 0.016476 -0.490031
-0.102773 0.016530 -0.490259
-0.111296 0.016602 -0.489984
-0.117990 0.016656 -0.490214
-0.126641 0.016730 -0.489937
-0.135367 0.016803 -0.489657
-0.144167 0.016878 -0.489374
-0.151075 0.016934 -0.489606
-0.160009 0.017010 -0.489322
-0.169022 0.017086 -0.489034
-0.176093 0.017143 -0.489268
-0.187283 0.017240 -0.488452
-0.196534 0.017318 -0.488158
-0.205867 0.017397 -0.487860
-0.215282 0.017477 -0.487560
-0.224782 0.017557 -0.487257
-0.234366 0.017638 -0.486952
-0.246199 0.017740 -0.486100
-0.260359 0.017865 -0.484691
0.419095 0.013971 0.283774
0.420673 0.013942 0.279568
0.420977 0.013927 0.276635
0.422546 0.013898 0.272457
0.422846 0.013884 0.269540
0.423147 0.013869 0.266630
0.424705 0.013840 0.262488
0.425002 0.013826 0.259593
0.426552 0.013797 0.255477
0.426847 0.013783 0.252598
0.427141 0.013768 0.249725
0.428681 0.013740 0.245646
0.428972 0.013726 0.242788
0.430503 0.013697 0.238734
0.432029 0.013669 0.234697
0.432315 0.013655 0.231864
0.433832 0.013627 0.227852
0.434116 0.013613 0.225035
0.434400 0.013599 0.222222
0.435907 0.013571 0.218245
0.436188 0.013557 0.215448
0.436468 0.013543 0.212656
0.437965 0.013516 0.208714
0.438243 0.013502 0.205937
0.439732 0.013474 0.202019
0.440008 0.013461 0.199257
0.440282 0.013447 0.196500
0.441762 0.013420 0.192615
0.442034 0.013406 0.189873
0.442306 0.013393 0.187136
0.442577 0.013379 0.184404
0.442847 0.013366 0.181678
0.443118 0.013352 0.178957
0.444582 0.013325 0.175133
0.444849 0.013312 0.172426
0.443925 0.013312 0.170825
0.444193 0.013298 0.168125
0.444461 0.013285 0.165430
0.444728 0.013272 0.162740
0.444994 0.013258 0.160056
0.445260 0.013245 0.157376
0.445526 0.013232 0.154702
0.445791 0.013219 0.152033
0.446055 0.013205 0.149369
0.447498 0.013179 0.145642
0.447760 0.013166 0.142992
0.448022 0.013153 0.140346
0.448283 0.013140 0.137706
0.448543 0.013127 0.135071
0.449973 0.013101 0.131392
0.451398 0.013075 0.127728
0.452817 0.013049 0.124077
0.454230 0.013023 0.120440
0.455638 0.012998 0.116816
0.455889 0.012985 0.114228
0.454987 0.012985 0.112665
0.456390 0.012959 0.109067
0.456640 0.012947 0.106493
0.456889 0.012934 0.103925
0.457137 0.012921 0.101361
0.456239 0.012921 0.099805
0.456488 0.012909 0.097248
0.456736 0.012896 0.094695
0.456985 0.012883 0.092147
0.457232 0.012871 0.089604
0.457479 0.012858 0.087065
0.456585 0.012858 0.085517
0.456833 0.012846 0.082985
0.457080 0.012833 0.080457
0.457326 0.012821 0.077934
0.457572 0.012808 0.075416
0.457818 0.012796 0.072903
0.456928 0.012796 0.071362
0.457174 0.012784 0.068854
0.458552 0.012759 0.065391
0.457665 0.012759 0.063854
0.455644 0.012771 0.063275
0.455890 0.012759 0.060780
0.455003 0.012759 0.059243
0.454116 0.012759 0.057706
0.453228 0.012759 0.056169
0.452341 0.012759 0.054632
0.452591 0.012746 0.052147
0.451704 0.012746 0.050612
0.450817 0.012746 0.049077
0.449931 0.012746 0.047541
0.450183 0.012734 0.045065
0.449297 0.012734 0.043531
0.448411 0.012734 0.041997
0.447526 0.012734 0.040463
0.447779 0.012722 0.037996
0.446894 0.012722 0.036463
0.446009 0.012722 0.034930
0.446264 0.012710 0.032471
0.445380 0.012710 0.030939
0.444496 0.012710 0.029408
0.443612 0.012710 0.027877
0.442728 0.012710 0.026346
0.442985 0.012697 0.023896
0.442102 0.012697 0.022366
0.441219 0.012697 0.020837
0.440336 0.012697 0.019307
0.440595 0.012685 0.016866
0.439713 0.012685 0.015338
0.438830 0.012685 0.013809
0.437948 0.012685 0.012281
0.438209 0.012673 0.009849
0.437328 0.012673 0.008322
0.436446 0.012673 0.006795
0.436709 0.012661 0.004370
0.435828 0.012661 0.002844
0.433801 0.012673 0.002214
0.434066 0.012661 -0.000207
0.433186 0.012661 -0.001732
0.432305 0.012661 -0.003258
0.431424 0.012661 -0.004784
0.430543 0.012661 -0.006309
0.429662 0.012661 -0.007835
0.428782 0.012661 -0.009360
0.427901 0.012661 -0.010886
0.427020 0.012661 -0.012412
0.426139 0.012661 -0.013937
0.426411 0.012649 -0.016341
0.426682 0.012636 -0.018740
0.428101 0.012612 -0.022005
0.429515 0.012588 -0.025258
0.429782 0.012576 -0.027637
0.431189 0.012552 -0.030871
0.432590 0.012528 -0.034093
0.433987 0.012504 -0.037303
0.435378 0.012481 -0.040502
0.436764 0.012457 -0.043689
0.437022 0.012445 -0.046028
0.438402 0.012422 -0.049197
0.438658 0.012410 -0.051525
0.438913 0.012398 -0.053849
0.439168 0.012387 -0.056169
0.439423 0.012375 -0.058484
0.440790 0.012352 -0.061613
0.441043 0.012340 -0.063918
0.441295 0.012329 -0.066218
0.441546 0.012317 -0.068514
0.441797 0.012306 -0.070806
0.442048 0.012294 -0.073094
0.443402 0.012271 -0.076178
0.443651 0.012260 -0.078455
0.443899 0.012248 -0.080728
0.445245 0.012225 -0.083786
0.445491 0.012214 -0.086048
0.445736 0.012203 -0.088307
0.445981 0.012191 -0.090561
0.446226 0.012180 -0.092811
0.446470 0.012169 -0.095057
0.446714 0.012158 -0.097299
0.446957 0.012146 -0.099538
0.446111 0.012146 -0.101004
0.447443 0.012124 -0.104002
0.447685 0.012113 -0.106229
0.446840 0.012113 -0.107691
0.447083 0.012101 -0.109912
0.447325 0.012090 -0.112129
0.447566 0.012079 -0.114343
0.447807 0.012068 -0.116552
0.446966 0.012068 -0.118009
0.447207 0.012057 -0.120214
0.447448 0.012046 -0.122414
0.447689 0.012035 -0.124611
0.446850 0.012035 -0.126064
0.447090 0.012024 -0.128255
0.447331 0.012013 -0.130443
0.447571 0.012002 -0.132627
0.447810 0.011991 -0.134807
0.448050 0.011980 -0.136983
0.447214 0.011980 -0.138430
0.447454 0.011969 -0.140601
0.446619 0.011969 -0.142047
0.446859 0.011958 -0.144213
0.447098 0.011947 -0.146375
0.446265 0.011947 -0.147818
0.446505 0.011936 -0.149976
0.445672 0.011936 -0.151418
0.445912 0.011925 -0.153570
0.445080 0.011925 -0.155010
0.445321 0.011915 -0.157158
0.444489 0.011915 -0.158597
0.443658 0.011915 -0.160037
0.443900 0.011904 -0.162178
0.443069 0.011904 -0.163616
0.442239 0.011904 -0.165054
0.442481 0.011893 -0.167189
0.441652 0.011893 -0.168626
0.440822 0.011893 -0.170063
0.439993 0.011893 -0.171500
0.439163 0.011893 -0.172937
0.438333 0.011893 -0.174374
0.437504 0.011893 -0.175811
0.436674 0.011893 -0.177247
0.434766 0.011904 -0.177998
0.435015 0.011893 -0.180121
0.434185 0.011893 -0.181558
0.433356 0.011893 -0.182995
0.432526 0.011893 -0.184432
0.431696 0.011893 -0.185869
0.430867 0.011893 -0.187306
0.430037 0.011893 -0.188743
0.429208 0.011893 -0.190180
0.429461 0.011882 -0.192291
0.428632 0.011882 -0.193727
0.427803 0.011882 -0.195162
0.426974 0.011882 -0.196598
0.426145 0.011882 -0.198034
0.426401 0.011871 -0.200136
0.425573 0.011871 -0.201571
0.424745 0.011871 -0.203005
0.423917 0.011871 -0.204440
0.423088 0.011871 -0.205874
0.422260 0.011871 -0.207309
0.421432 0.011871 -0.208743
0.420604 0.011871 -0.210178
0.419776 0.011871 -0.211612
0.418947 0.011871 -0.213046
0.418119 0.011871 -0.214481
0.417291 0.011871 -0.215915
0.416463 0.011871 -0.217350
0.415635 0.011871 -0.218784
0.415899 0.011861 -0.220867
0.415072 0.011861 -0.222300
0.414245 0.011861 -0.223734
0.412322 0.011871 -0.224522
0.411494 0.011871 -0.225957
0.410666 0.011871 -0.227391
0.409838 0.011871 -0.228825
0.407910 0.011882 -0.229619
0.407081 0.011882 -0.231055
0.406252 0.011882 -0.232491
0.405423 0.011882 -0.233926
0.403489 0.011893 -0.234725
0.402660 0.011893 -0.236162
0.401830 0.011893 -0.237599
0.401001 0.011893 -0.239036
0.399061 0.011904 -0.239840
0.398231 0.011904 -0.241278
0.397401 0.011904 -0.242716
0.396570 0.011904 -0.244154
0.394626 0.011915 -0.244963
0.393795 0.011915 -0.246403
0.392964 0.011915 -0.247842
0.391014 0.011925 -0.248655
0.390183 0.011925 -0.250096
0.389351 0.011925 -0.251537
0.387397 0.011936 -0.252353
0.386564 0.011936 -0.253795
0.385732 0.011936 -0.255237
0.383773 0.011947 -0.256058
0.382939 0.011947 -0.257501
0.382106 0.011947 -0.258945
0.380142 0.011958 -0.259769
0.379308 0.011958 -0.261214
0.378474 0.011958 -0.262658
0.377640 0.011958 -0.264103
0.376806 0.011958 -0.265547
0.375972 0.011958 -0.266992
0.374001 0.011969 -0.267824
0.373167 0.011969 -0.269270
0.371192 0.011980 -0.270105
0.370356 0.011980 -0.271552
0.369521 0.011980 -0.272999
0.367541 0.011991 -0.273838
0.365557 0.012002 -0.274679
0.364720 0.012002 -0.276128
0.362732 0.012013 -0.276972
0.361895 0.012013 -0.278423
0.361057 0.012013 -0.279873
0.359064 0.012024 -0.280721
0.358226 0.012024 -0.282173
0.356229 0.012035 -0.283023
0.355390 0.012035 -0.284477
0.354551 0.012035 -0.285930
0.352549 0.012046 -0.286784
0.351709 0.012046 -0.288239
0.349703 0.012057 -0.289096
0.348863 0.012057 -0.290552
0.348022 0.012057 -0.292008
0.346011 0.012068 -0.292869
0.345170 0.012068 -0.294326
0.344328 0.012068 -0.295783
0.342312 0.012079 -0.296648
0.341470 0.012079 -0.298107
0.340628 0.012079 -0.299565
0.338607 0.012090 -0.300434
0.337764 0.012090 -0.301894
0.335738 0.012101 -0.302766
0.334895 0.012101 -0.304227
0.334051 0.012101 -0.305688
0.332021 0.012113 -0.306564
0.331176 0.012113 -0.308027
0.329142 0.012124 -0.308906
0.328297 0.012124 -0.310369
0.327451 0.012124 -0.311833
0.325411 0.012135 -0.312716
0.324566 0.012135 -0.314181
0.323720 0.012135 -0.315646
0.321675 0.012146 -0.316533
0.320828 0.012146 -0.317999
0.319982 0.012146 -0.319466
0.317932 0.012158 -0.320357
0.317084 0.012158 -0.321825
0.315030 0.012169 -0.322719
0.314182 0.012169 -0.324188
0.313334 0.012169 -0.325657
0.311274 0.012180 -0.326555
0.310425 0.012180 -0.328025
0.308361 0.012191 -0.328927
0.307511 0.012191 -0.330398
0.306662 0.012191 -0.331870
0.304592 0.012203 -0.332775
0.302519 0.012214 -0.333683
0.301668 0.012214 -0.335157
0.299591 0.012225 -0.336067
0.298739 0.012225 -0.337542
0.297887 0.012225 -0.339018
0.295804 0.012237 -0.339932
0.294952 0.012237 -0.341409
0.292865 0.012248 -0.342326
0.292011 0.012248 -0.343804
0.291158 0.012248 -0.345282
0.289066 0.012260 -0.346204
0.288211 0.012260 -0.347683
0.286114 0.012271 -0.348608
0.285260 0.012271 -0.350088
0.284405 0.012271 -0.351569
0.282302 0.012283 -0.352498
0.281447 0.012283 -0.353980
0.279340 0.012294 -0.354912
0.278484 0.012294 -0.356395
0.277627 0.012294 -0.357879
0.275515 0.012306 -0.358815
0.274658 0.012306 -0.360299
0.272541 0.012317 -0.361239
0.271684 0.012317 -0.362725
0.269562 0.012329 -0.363667
0.268704 0.012329 -0.365154
0.267845 0.012329 -0.366642
0.266986 0.012329 -0.368129
0.264859 0.012340 -0.369077
0.264000 0.012340 -0.370565
0.261868 0.012352 -0.371517
0.261007 0.012352 -0.373006
0.261421 0.012340 -0.375031
0.266902 0.012283 -0.379173
0.272334 0.012225 -0.383277
0.276475 0.012180 -0.386829
0.280586 0.012135 -0.390355
0.284669 0.012090 -0.393857
0.288723 0.012046 -0.397334
0.291536 0.012013 -0.400288
0.295541 0.011969 -0.403721
0.299518 0.011925 -0.407131
0.302276 0.011893 -0.410032
0.306206 0.011850 -0.413399
0.310109 0.011807 -0.416742
0.312813 0.011775 -0.419591
0.316670 0.011733 -0.422893
0.320501 0.011691 -0.426173
0.323153 0.011660 -0.428971
0.326939 0.011619 -0.432211
0.329560 0.011588 -0.434977
0.332167 0.011557 -0.437729
0.334761 0.011526 -0.440467
0.337341 0.011496 -0.443191
0.339909 0.011466 -0.445901
0.340229 0.011456 -0.447726
0.341665 0.011436 -0.449983
0.343097 0.011416 -0.452231
0.344524 0.011396 -0.454473
0.344837 0.011386 -0.456280
0.346258 0.011366 -0.458509
0.347674 0.011346 -0.460730
0.349085 0.011326 -0.462944
0.349393 0.011317 -0.464734
0.350797 0.011297 -0.466936
0.352197 0.011277 -0.469131
0.352502 0.011268 -0.470908
0.353896 0.011248 -0.473091
0.354198 0.011239 -0.474860
0.353412 0.011239 -0.476222
0.353714 0.011229 -0.477987
0.354016 0.011219 -0.479750
0.353231 0.011219 -0.481109
0.353533 0.011210 -0.482867
0.352749 0.011210 -0.484225
0.350877 0.011219 -0.485186
0.350092 0.011219 -0.486545
0.349308 0.011219 -0.487904
0.347431 0.011229 -0.488869
0.344456 0.011248 -0.489441
0.342571 0.011258 -0.490409
0.339580 0.011277 -0.490985
0.336579 0.011297 -0.491562
0.333569 0.011317 -0.492142
0.329431 0.011346 -0.492327
0.326396 0.011366 -0.492910
0.322223 0.011396 -0.493099
0.316892 0.011436 -0.492890
0.312671 0.011466 -0.493080
0.308428 0.011496 -0.493270
0.304164 0.011526 -0.493462
0.297548 0.011577 -0.492849
0.293227 0.011608 -0.493041
0.288884 0.011639 -0.493234
0.283331 0.011681 -0.493021
0.278937 0.011712 -0.493215
0.273317 0.011754 -0.493001
0.268870 0.011786 -0.493196
0.264401 0.011818 -0.493392
0.258681 0.011861 -0.493177
0.254158 0.011893 -0.493374
0.248368 0.011936 -0.493158
0.243791 0.011969 -0.493356
0.237929 0.012013 -0.493138
0.233295 0.012046 -0.493337
0.228638 0.012079 -0.493538
0.222671 0.012124 -0.493319
0.217956 0.012158 -0.493520
0.211913 0.012203 -0.493300
0.207140 0.012237 -0.493503
0.202342 0.012271 -0.493707
0.196189 0.012317 -0.493485
0.191331 0.012352 -0.493690
0.186446 0.012387 -0.493896
0.181535 0.012422 -0.494104
0.175234 0.012469 -0.493881
0.170261 0.012504 -0.494089
0.161108 0.012576 -0.492994
0.156055 0.012612 -0.493202
0.149568 0.012661 -0.492972
0.144450 0.012697 -0.493182
0.137878 0.012746 -0.492951
0.132695 0.012784 -0.493161
0.126035 0.012833 -0.492928
0.120785 0.012871 -0.493140
0.114037 0.012921 -0.492906
0.108718 0.012959 -0.493119
0.101880 0.013010 -0.492883
0.094990 0.013062 -0.492645
0.088048 0.013114 -0.492406
0.082578 0.013153 -0.492621
0.075542 0.013205 -0.492379
0.069999 0.013245 -0.492595
0.062866 0.013298 -0.492353
0.055678 0.013352 -0.492108
0.050018 0.013393 -0.492325
0.042731 0.013447 -0.492079
0.036995 0.013488 -0.492298
0.029606 0.013543 -0.492049
0.022160 0.013599 -0.491799
0.016299 0.013641 -0.492020
0.008748 0.013697 -0.491767
0.001137 0.013754 -0.491513
-0.006536 0.013811 -0.491257
-0.014270 0.013869 -0.490998
-0.022067 0.013927 -0.490738
-0.028198 0.013971 -0.490961
-0.036106 0.014030 -0.490698
-0.042324 0.014075 -0.490922
-0.050347 0.014135 -0.490658
-0.058436 0.014195 -0.490391
-0.064793 0.014241 -0.490616
-0.073001 0.014302 -0.490348
-0.079450 0.014348 -0.490575
-0.087778 0.014410 -0.490304
-0.096177 0.014473 -0.490031
-0.102773 0.014520 -0.490259
-0.111296 0.014584 -0.489984
-0.117990 0.014632 -0.490214
-0.126641 0.014697 -0.489937
-0.135367 0.014762 -0.489657
-0.144167 0.014827 -0.489374
-0.151075 0.014877 -0.489606
-0.160009 0.014944 -0.489322
-0.169022 0.015011 -0.489034
-0.176093 0.015062 -0.489268
-0.187283 0.015147 -0.488452
-0.196534 0.015216 -0.488158
-0.205867 0.015286 -0.487860
-0.215282 0.015356 -0.487560
-0.224782 0.015427 -0.487257
-0.234366 0.015498 -0.486952
-0.246199 0.015588 -0.486100
-0.260359 0.015698 -0.484691
0.416542 0.012060 0.286316
0.418127 0.012035 0.282097
0.419707 0.012009 0.277894
0.420011 0.011997 0.274964
0.421582 0.011972 0.270788
0.421884 0.011959 0.267873
0.423446 0.011934 0.263725
0.423745 0.011921 0.260826
0.425299 0.011896 0.256704
0.425596 0.011884 0.253821
0.425891 0.011871 0.250943
0.427435 0.011847 0.246857
0.427728 0.011834 0.243995
0.428020 0.011822 0.241139
0.430792 0.011785 0.235892
0.431080 0.011773 0.233055
0.432601 0.011749 0.229037
0.432887 0.011736 0.226215
0.433172 0.011724 0.223399
0.434683 0.011700 0.219416
0.434965 0.011688 0.216615
0.435247 0.011676 0.213819
0.436748 0.011652 0.209870
0.437027 0.011640 0.207089
0.438520 0.011616 0.203165
0.438797 0.011604 0.200399
0.439073 0.011592 0.197639
0.439349 0.011581 0.194883
0.439624 0.011569 0.192134
0.441103 0.011545 0.188261
0.441376 0.011533 0.185526
0.441648 0.011522 0.182796
0.441920 0.011510 0.180071
0.442191 0.011498 0.177351
0.442461 0.011487 0.174637
0.442731 0.011475 0.171928
0.443001 0.011463 0.169224
0.443270 0.011452 0.166526
0.443538 0.011440 0.163832
0.443806 0.011429 0.161144
0.444073 0.011417 0.158461
0.444340 0.011406 0.155783
0.444607 0.011394 0.153111
0.444873 0.011383 0.150443
0.445138 0.011371 0.147780
0.445403 0.011360 0.145123
0.445667 0.011348 0.142471
0.445931 0.011337 0.139824
0.446194 0.011326 0.137182
0.447631 0.011303 0.133492
0.449063 0.011280 0.129816
0.450489 0.011258 0.126154
0.451910 0.011236 0.122506
0.453325 0.011213 0.118872
0.454735 0.011191 0.115252
0.454987 0.011180 0.112665
0.455238 0.011169 0.110084
0.455489 0.011158 0.107507
0.455740 0.011147 0.104935
0.455990 0.011136 0.102368
0.455091 0.011136 0.100810
0.455341 0.011125 0.098250
0.455591 0.011114 0.095693
0.455840 0.011103 0.093142
0.456089 0.011092 0.090596
0.456337 0.011081 0.088054
0.456585 0.011070 0.085517
0.455691 0.011070 0.083969
0.455940 0.011060 0.081438
0.456187 0.011049 0.078912
0.456435 0.011038 0.076390
0.456682 0.011027 0.073874
0.455791 0.011027 0.072331
0.456038 0.011016 0.069821
0.456285 0.011006 0.067315
0.456532 0.010995 0.064813
0.454507 0.011006 0.064235
0.454755 0.010995 0.061737
0.453867 0.010995 0.060198
0.452979 0.010995 0.058660
0.452091 0.010995 0.057122
0.452341 0.010984 0.054632
0.451454 0.010984 0.053095
0.450566 0.010984 0.051558
0.449679 0.010984 0.050022
0.449931 0.010973 0.047541
0.449044 0.010973 0.046006
0.448158 0.010973 0.044470
0.447271 0.010973 0.042935
0.447526 0.010963 0.040463
0.446640 0.010963 0.038929
0.445754 0.010963 0.037395
0.444868 0.010963 0.035861
0.445124 0.010952 0.033398
0.444240 0.010952 0.031865
0.443355 0.010952 0.030332
0.442470 0.010952 0.028800
0.442728 0.010941 0.026346
0.441844 0.010941 0.024814
0.440960 0.010941 0.023283
0.440076 0.010941 0.021752
0.440336 0.010931 0.019307
0.439452 0.010931 0.017777
0.438569 0.010931 0.016247
0.437686 0.010931 0.014717
0.437948 0.010920 0.012281
0.437065 0.010920 0.010752
0.436183 0.010920 0.009224
0.435301 0.010920 0.007696
0.435565 0.010910 0.005268
0.434683 0.010910 0.003741
0.433801 0.010910 0.002214
0.432920 0.010910 0.000687
0.432038 0.010910 -0.000840
0.431157 0.010910 -0.002367
0.430275 0.010910 -0.003894
0.429393 0.010910 -0.005421
0.428512 0.010910 -0.006948
0.427630 0.010910 -0.008475
0.426748 0.010910 -0.010002
0.425867 0.010910 -0.011529
0.424985 0.010910 -0.013056
0.425258 0.010899 -0.015463
0.425531 0.010889 -0.017865
0.426953 0.010868 -0.021134
0.428370 0.010847 -0.024392
0.428639 0.010836 -0.026775
0.430049 0.010815 -0.030013
0.430315 0.010805 -0.032384
0.432854 0.010774 -0.036454
0.434248 0.010753 -0.039657
0.435638 0.010733 -0.042849
0.435897 0.010723 -0.045191
0.437280 0.010702 -0.048364
0.437537 0.010692 -0.050695
0.437794 0.010682 -0.053022
0.438050 0.010672 -0.055344
0.439423 0.010652 -0.058484
0.439677 0.010641 -0.060796
0.439930 0.010631 -0.063103
0.440183 0.010621 -0.065406
0.440436 0.010611 -0.067705
0.440688 0.010601 -0.070000
0.442048 0.010581 -0.073094
0.442298 0.010571 -0.075378
0.442547 0.010561 -0.077658
0.443899 0.010542 -0.080728
0.444146 0.010532 -0.082997
0.444393 0.010522 -0.085262
0.444640 0.010512 -0.087522
0.445981 0.010492 -0.090561
0.446226 0.010483 -0.092811
0.445377 0.010483 -0.094281
0.445622 0.010473 -0.096526
0.445867 0.010463 -0.098767
0.446111 0.010453 -0.101004
0.446354 0.010444 -0.103237
0.446598 0.010434 -0.105466
0.446840 0.010424 -0.107691
0.447083 0.010414 -0.109912
0.446239 0.010414 -0.111373
0.446482 0.010405 -0.113589
0.446724 0.010395 -0.115801
0.446966 0.010386 -0.118009
0.447207 0.010376 -0.120214
0.446367 0.010376 -0.121670
0.446608 0.010366 -0.123869
0.446850 0.010357 -0.126064
0.447090 0.010347 -0.128255
0.447331 0.010338 -0.130443
0.447571 0.010328 -0.132627
0.446734 0.010328 -0.134076
0.446974 0.010319 -0.136255
0.447214 0.010309 -0.138430
0.446379 0.010309 -0.139877
0.446619 0.010300 -0.142047
0.445784 0.010300 -0.143493
0.446025 0.010290 -0.145657
0.445191 0.010290 -0.147102
0.445432 0.010281 -0.149262
0.444598 0.010281 -0.150705
0.444839 0.010271 -0.152859
0.445080 0.010262 -0.155010
0.444248 0.010262 -0.156451
0.444489 0.010252 -0.158597
0.443658 0.010252 -0.160037
0.442827 0.010252 -0.161476
0.443069 0.010243 -0.163616
0.442239 0.010243 -0.165054
0.441409 0.010243 -0.166492
0.440578 0.010243 -0.167930
0.439748 0.010243 -0.169369
0.438918 0.010243 -0.170807
0.438087 0.010243 -0.172245
0.438333 0.010234 -0.174374
0.437504 0.010234 -0.175811
0.435596 0.010243 -0.176560
0.434766 0.010243 -0.177998
0.433936 0.010243 -0.179436
0.433105 0.010243 -0.180874
0.432275 0.010243 -0.182312
0.432526 0.010234 -0.184432
0.431696 0.010234 -0.185869
0.430867 0.010234 -0.187306
0.430037 0.010234 -0.188743
0.429208 0.010234 -0.190180
0.428378 0.010234 -0.191617
0.428632 0.010224 -0.193727
0.427803 0.010224 -0.195162
0.426974 0.010224 -0.196598
0.426145 0.010224 -0.198034
0.425316 0.010224 -0.199470
0.424488 0.010224 -0.200905
0.423659 0.010224 -0.202341
0.422830 0.010224 -0.203777
0.422001 0.010224 -0.205212
0.422260 0.010215 -0.207309
0.421432 0.010215 -0.208743
0.420604 0.010215 -0.210178
0.419776 0.010215 -0.211612
0.417856 0.010224 -0.212391
0.418119 0.010215 -0.214481
0.417291 0.010215 -0.215915
0.416463 0.010215 -0.217350
0.415635 0.010215 -0.218784
0.414807 0.010215 -0.220219
0.413978 0.010215 -0.221653
0.413150 0.010215 -0.223088
0.412322 0.010215 -0.224522
0.411494 0.010215 -0.225957
0.409567 0.010224 -0.226748
0.408738 0.010224 -0.228183
0.407910 0.010224 -0.229619
0.407081 0.010224 -0.231055
0.406252 0.010224 -0.232491
0.405423 0.010224 -0.233926
0.403489 0.010234 -0.234725
0.402660 0.010234 -0.236162
0.400722 0.010243 -0.236963
0.399892 0.010243 -0.238402
0.399061 0.010243 -0.239840
0.398231 0.010243 -0.241278
0.396288 0.010252 -0.242084
0.395457 0.010252 -0.243524
0.394626 0.010252 -0.244963
0.393795 0.010252 -0.246403
0.391846 0.010262 -0.247214
0.391014 0.010262 -0.248655
0.390183 0.010262 -0.250096
0.388229 0.010271 -0.250911
0.387397 0.010271 -0.252353
0.386564 0.010271 -0.253795
0.384606 0.010281 -0.254615
0.383773 0.010281 -0.256058
0.382939 0.010281 -0.257501
0.380976 0.010290 -0.258325
0.380142 0.010290 -0.259769
0.379308 0.010290 -0.261214
0.377340 0.010300 -0.262041
0.377640 0.010290 -0.264103
0.376806 0.010290 -0.265547
0.374836 0.010300 -0.266378
0.374001 0.010300 -0.267824
0.372027 0.010309 -0.268658
0.371192 0.010309 -0.270105
0.370356 0.010309 -0.271552
0.368377 0.010319 -0.272390
0.367541 0.010319 -0.273838
0.365557 0.010328 -0.274679
0.363570 0.010338 -0.275521
0.362732 0.010338 -0.276972
0.361895 0.010338 -0.278423
