ply
format ascii 1.0
element vertex 1672
property float x
property float y
property float z
end_header
0.212808 -0.125263 -0.190092
0.212409 -0.125263 -0.191924
0.210702 -0.124284 -0.193616
0.210303 -0.124284 -0.195450
0.208592 -0.123304 -0.197147
0.206879 -0.122321 -0.198848
0.205162 -0.121337 -0.200551
0.204761 -0.121337 -0.202391
0.203040 -0.120350 -0.204100
0.202639 -0.120350 -0.205941
0.200914 -0.119362 -0.207655
0.199186 -0.118372 -0.209373
0.198784 -0.118372 -0.211218
0.197053 -0.117380 -0.212940
0.196650 -0.117380 -0.214787
0.194914 -0.116386 -0.216515
0.193175 -0.115389 -0.218247
0.192772 -0.115389 -0.220097
0.191029 -0.114391 -0.221834
0.190625 -0.114391 -0.223686
0.188879 -0.113391 -0.225428
0.187129 -0.112389 -0.227173
0.186724 -0.112389 -0.229030
0.186319 -0.112389 -0.230886
0.183213 -0.110379 -0.232534
0.182807 -0.110379 -0.234394
0.181046 -0.109371 -0.236153
0.179281 -0.108361 -0.237916
0.178875 -0.108361 -0.239780
0.177106 -0.107349 -0.241548
0.176699 -0.107349 -0.243414
0.174926 -0.106335 -0.245187
0.173150 -0.105319 -0.246965
0.172743 -0.105319 -0.248834
0.170962 -0.104300 -0.250616
0.170554 -0.104300 -0.252487
0.168770 -0.103280 -0.254276
0.166982 -0.102258 -0.256067
0.165191 -0.101234 -0.257863
0.164782 -0.101234 -0.259739
0.162986 -0.100207 -0.261540
0.162577 -0.100207 -0.263419
0.160777 -0.099179 -0.265225
0.158974 -0.098148 -0.267035
0.158564 -0.098148 -0.268917
0.156757 -0.097116 -0.270733
0.156346 -0.097116 -0.272617
0.154535 -0.096081 -0.274438
0.152720 -0.095044 -0.276263
0.152308 -0.095044 -0.278151
0.150489 -0.094005 -0.279981
0.150078 -0.094005 -0.281871
0.148254 -0.092964 -0.283707
0.146428 -0.091921 -0.285547
0.144597 -0.090876 -0.287390
0.144184 -0.090876 -0.289286
0.143771 -0.090876 -0.291182
0.141936 -0.089829 -0.293033
0.140097 -0.088779 -0.294887
0.138254 -0.087728 -0.296746
0.136408 -0.086674 -0.298608
0.134558 -0.085618 -0.300474
0.132704 -0.084560 -0.302344
0.130847 -0.083500 -0.304218
0.130431 -0.083500 -0.306127
0.128569 -0.082438 -0.308007
0.126703 -0.081373 -0.309890
0.126286 -0.081373 -0.311803
0.125869 -0.081373 -0.313716
0.125452 -0.081373 -0.315630
0.125035 -0.081373 -0.317543
0.124618 -0.081373 -0.319456
0.124201 -0.081373 -0.321369
0.123784 -0.081373 -0.323282
0.123367 -0.081373 -0.325196
0.124403 -0.082438 -0.327119
0.123987 -0.082438 -0.329031
0.123570 -0.082438 -0.330942
0.123154 -0.082438 -0.332853
0.122737 -0.082438 -0.334764
0.122320 -0.082438 -0.336676
0.121904 -0.082438 -0.338587
0.121487 -0.082438 -0.340498
0.121071 -0.082438 -0.342409
0.120654 -0.082438 -0.344321
0.120238 -0.082438 -0.346232
0.119821 -0.082438 -0.348143
0.119405 -0.082438 -0.350054
0.118988 -0.082438 -0.351966
0.118571 -0.082438 -0.353877
0.116695 -0.081373 -0.355807
0.116278 -0.081373 -0.357720
0.115861 -0.081373 -0.359634
0.115444 -0.081373 -0.361547
0.115028 -0.081373 -0.363460
0.114611 -0.081373 -0.365373
0.114194 -0.081373 -0.367287
0.113777 -0.081373 -0.369200
0.113360 -0.081373 -0.371113
0.112943 -0.081373 -0.373026
0.139831 -0.101234 -0.374219
0.140830 -0.102258 -0.376057
0.141828 -0.103280 -0.377891
0.142824 -0.104300 -0.379721
0.143817 -0.105319 -0.381548
0.144809 -0.106335 -0.383371
0.145799 -0.107349 -0.385190
0.146786 -0.108361 -0.387006
0.147772 -0.109371 -0.388818
0.148756 -0.110379 -0.390627
0.151122 -0.112389 -0.392377
0.152100 -0.113391 -0.394177
0.153075 -0.114391 -0.395973
0.154049 -0.115389 -0.397765
0.155021 -0.116386 -0.399554
0.155991 -0.117380 -0.401340
0.156958 -0.118372 -0.403122
0.157924 -0.119362 -0.404900
0.158889 -0.120350 -0.406675
0.158487 -0.120350 -0.408516
0.159450 -0.121337 -0.410286
0.160410 -0.122321 -0.412052
0.161369 -0.123304 -0.413815
0.162326 -0.124284 -0.415574
0.163281 -0.125263 -0.417330
0.164234 -0.126240 -0.419082
0.163835 -0.126240 -0.420913
0.164787 -0.127214 -0.422660
0.165737 -0.128187 -0.424403
0.166685 -0.129158 -0.426144
0.167631 -0.130127 -0.427880
0.168575 -0.131095 -0.429614
0.169518 -0.132060 -0.431344
0.169121 -0.132060 -0.433164
0.170062 -0.133023 -0.434889
0.171001 -0.133985 -0.436611
0.171939 -0.134945 -0.438329
0.172874 -0.135902 -0.440044
0.173808 -0.136858 -0.441755
0.174740 -0.137813 -0.443464
0.175670 -0.138765 -0.445169
0.176598 -0.139715 -0.446870
0.176205 -0.139715 -0.448676
0.178450 -0.141611 -0.450264
0.179373 -0.142556 -0.451956
0.180294 -0.143499 -0.453644
0.181213 -0.144440 -0.455330
0.180821 -0.144440 -0.457127
0.181739 -0.145380 -0.458807
0.181348 -0.145380 -0.460603
0.180957 -0.145380 -0.462398
0.180565 -0.145380 -0.464194
0.181483 -0.146317 -0.465866
0.181092 -0.146317 -0.467660
0.182008 -0.147253 -0.469327
0.181617 -0.147253 -0.471119
0.182532 -0.148187 -0.472781
0.182142 -0.148187 -0.474572
0.183055 -0.149120 -0.476229
0.182665 -0.149120 -0.478018
0.183577 -0.150050 -0.479670
0.181885 -0.149120 -0.481595
0.181495 -0.149120 -0.483384
0.181106 -0.149120 -0.485173
0.180716 -0.149120 -0.486961
0.179020 -0.148187 -0.488895
0.168087 -0.140664 -0.491871
0.390063 -0.168863 0.363802
0.392923 -0.171542 0.360082
0.395767 -0.174206 0.356384
0.395386 -0.174206 0.354639
0.396078 -0.175090 0.352249
0.396768 -0.175973 0.349865
0.396388 -0.175973 0.348123
0.397077 -0.176855 0.345744
0.396698 -0.176855 0.344004
0.397386 -0.177734 0.341631
0.397007 -0.177734 0.339893
0.395560 -0.176855 0.338783
0.395180 -0.176855 0.337042
0.394801 -0.176855 0.335302
0.394422 -0.176855 0.333561
0.394042 -0.176855 0.331821
0.393663 -0.176855 0.330081
0.393284 -0.176855 0.328340
0.392904 -0.176855 0.326600
0.392525 -0.176855 0.324859
0.392146 -0.176855 0.323119
0.391766 -0.176855 0.321378
0.391387 -0.176855 0.319638
0.391008 -0.176855 0.317898
0.390628 -0.176855 0.316157
0.390249 -0.176855 0.314417
0.389870 -0.176855 0.312676
0.388415 -0.175973 0.311540
0.388035 -0.175973 0.309798
0.387655 -0.175973 0.308056
0.387276 -0.175973 0.306314
0.386896 -0.175973 0.304572
0.386516 -0.175973 0.302830
0.386136 -0.175973 0.301088
0.385757 -0.175973 0.299346
0.384296 -0.175090 0.298196
0.383916 -0.175090 0.296452
0.383536 -0.175090 0.294708
0.383156 -0.175090 0.292965
0.382776 -0.175090 0.291221
0.382396 -0.175090 0.289477
0.382016 -0.175090 0.287734
0.381636 -0.175090 0.285990
0.381256 -0.175090 0.284246
0.379790 -0.174206 0.283081
0.379410 -0.174206 0.281336
0.379029 -0.174206 0.279591
0.378649 -0.174206 0.277845
0.378269 -0.174206 0.276100
0.377888 -0.174206 0.274355
0.377508 -0.174206 0.272609
0.376037 -0.173320 0.271432
0.375656 -0.173320 0.269685
0.374182 -0.172432 0.268505
0.373801 -0.172432 0.266756
0.373420 -0.172432 0.265007
0.373039 -0.172432 0.263259
0.372658 -0.172432 0.261510
0.372277 -0.172432 0.259762
0.371896 -0.172432 0.258013
0.370417 -0.171542 0.256820
0.370035 -0.171542 0.255070
0.368553 -0.170651 0.253873
0.368172 -0.170651 0.252122
0.366687 -0.169758 0.250921
0.366304 -0.169758 0.249167
0.365922 -0.169758 0.247414
0.364434 -0.168863 0.246208
0.364051 -0.168863 0.244453
0.362559 -0.167967 0.243242
0.361065 -0.167069 0.242030
0.359567 -0.166170 0.240815
0.358067 -0.165268 0.239598
0.355443 -0.163461 0.238923
0.353935 -0.162554 0.237700
0.352423 -0.161646 0.236476
0.350909 -0.160736 0.235249
0.348259 -0.158911 0.234562
0.346737 -0.157996 0.233330
0.344071 -0.156161 0.232637
0.341395 -0.154318 0.231941
0.338709 -0.152469 0.231243
0.334856 -0.149682 0.231086
0.330980 -0.146878 0.230928
0.325909 -0.143115 0.231317
0.318425 -0.137415 0.232813
0.200786 -0.043201 0.285343
0.201780 -0.044347 0.282698
0.201347 -0.044347 0.280713
0.199487 -0.043201 0.279384
0.197624 -0.042053 0.278051
0.197190 -0.042053 0.276063
0.195322 -0.040902 0.274725
0.193450 -0.039749 0.273385
0.184319 -0.032779 0.275310
0.182421 -0.031609 0.273960
0.180520 -0.030436 0.272607
0.178613 -0.029260 0.271251
0.178175 -0.029260 0.269239
0.176264 -0.028082 0.267879
0.175825 -0.028082 0.265864
0.173910 -0.026901 0.264499
0.173470 -0.026901 0.262482
0.171550 -0.025718 0.261111
0.171111 -0.025718 0.259093
0.169186 -0.024533 0.257716
0.165766 -0.022154 0.256980
0.163829 -0.020960 0.255597
0.160386 -0.018566 0.254854
0.156928 -0.016160 0.254108
0.151936 -0.012533 0.254004
0.149967 -0.011319 0.252605
0.135655 -0.000269 0.256405
0.176659 -0.056791 0.089210
0.180523 -0.060135 0.085916
0.185780 -0.064562 0.082206
0.188180 -0.066761 0.079391
0.190570 -0.068952 0.076588
0.192950 -0.071133 0.073796
0.193926 -0.072220 0.071438
0.196291 -0.074388 0.068666
0.198648 -0.076547 0.065905
0.199612 -0.077623 0.063567
0.200575 -0.078696 0.061234
0.201536 -0.079768 0.058906
0.202495 -0.080838 0.056582
0.203452 -0.081905 0.054264
0.205777 -0.084033 0.051552
0.206727 -0.085093 0.049246
0.207676 -0.086152 0.046944
0.208623 -0.087208 0.044647
0.209568 -0.088263 0.042355
0.210511 -0.089315 0.040067
0.211452 -0.090365 0.037784
0.212391 -0.091413 0.035506
0.213328 -0.092458 0.033232
0.214263 -0.093502 0.030963
0.215197 -0.094543 0.028698
0.216128 -0.095583 0.026438
0.217058 -0.096620 0.024183
0.217986 -0.097655 0.021932
0.218912 -0.098688 0.019686
0.219836 -0.099719 0.017444
0.222088 -0.101775 0.014852
0.221678 -0.101775 0.012974
0.222597 -0.102800 0.010746
0.223513 -0.103823 0.008522
0.225749 -0.105862 0.005959
0.226660 -0.106879 0.003746
0.226252 -0.106879 0.001877
0.227161 -0.107893 -0.000329
0.226754 -0.107893 -0.002196
0.227662 -0.108906 -0.004396
0.228568 -0.109916 -0.006592
0.228162 -0.109916 -0.008455
0.227756 -0.109916 -0.010319
0.227350 -0.109916 -0.012183
0.226944 -0.109916 -0.014046
0.226537 -0.109916 -0.015910
0.227444 -0.110925 -0.018092
0.228348 -0.111931 -0.020269
0.230557 -0.113938 -0.022755
0.231455 -0.114939 -0.024921
0.231051 -0.114939 -0.026775
0.231949 -0.115937 -0.028936
0.232844 -0.116934 -0.031091
0.232441 -0.116934 -0.032942
0.233335 -0.117929 -0.035092
0.234227 -0.118921 -0.037238
0.233825 -0.118921 -0.039085
0.234716 -0.119912 -0.041224
0.235605 -0.120901 -0.043359
0.235203 -0.120901 -0.045203
0.236091 -0.121887 -0.047332
0.236978 -0.122872 -0.049457
0.236577 -0.122872 -0.051297
0.236176 -0.122872 -0.053137
0.237061 -0.123855 -0.055254
0.236660 -0.123855 -0.057092
0.237544 -0.124836 -0.059203
0.237144 -0.124836 -0.061039
0.239307 -0.126792 -0.063413
0.238907 -0.126792 -0.065246
0.238508 -0.126792 -0.067079
0.239387 -0.127767 -0.069174
0.238988 -0.127767 -0.071005
0.239867 -0.128741 -0.073094
0.239468 -0.128741 -0.074923
0.239069 -0.128741 -0.076752
0.238671 -0.128741 -0.078581
0.238272 -0.128741 -0.080410
0.237874 -0.128741 -0.082239
0.238752 -0.129712 -0.084315
0.238354 -0.129712 -0.086143
0.237955 -0.129712 -0.087970
0.237557 -0.129712 -0.089797
0.237159 -0.129712 -0.091624
0.238037 -0.130682 -0.093689
0.237639 -0.130682 -0.095515
0.237241 -0.130682 -0.097340
0.238119 -0.131649 -0.099398
0.237721 -0.131649 -0.101221
0.237324 -0.131649 -0.103045
0.236926 -0.131649 -0.104869
0.237803 -0.132615 -0.106917
0.237406 -0.132615 -0.108739
0.237009 -0.132615 -0.110561
0.236612 -0.132615 -0.112383
0.237488 -0.133579 -0.114422
0.235818 -0.132615 -0.116026
0.235421 -0.132615 -0.117848
0.236298 -0.133579 -0.119882
0.235901 -0.133579 -0.121702
0.235505 -0.133579 -0.123522
0.235108 -0.133579 -0.125342
0.234711 -0.133579 -0.127162
0.234315 -0.133579 -0.128982
0.233918 -0.133579 -0.130802
0.233521 -0.133579 -0.132622
0.233125 -0.133579 -0.134442
0.232728 -0.133579 -0.136262
0.232331 -0.133579 -0.138082
0.231934 -0.133579 -0.139903
0.231538 -0.133579 -0.141723
0.231141 -0.133579 -0.143543
0.230744 -0.133579 -0.145363
0.230348 -0.133579 -0.147183
0.229951 -0.133579 -0.149003
0.229554 -0.133579 -0.150823
0.229158 -0.133579 -0.152643
0.227479 -0.132615 -0.154285
0.227082 -0.132615 -0.156107
0.226685 -0.132615 -0.157929
0.226288 -0.132615 -0.159751
0.225891 -0.132615 -0.161572
0.225494 -0.132615 -0.163394
0.225097 -0.132615 -0.165216
0.224700 -0.132615 -0.167038
0.223015 -0.131649 -0.168696
0.222618 -0.131649 -0.170519
0.222220 -0.131649 -0.172343
0.220532 -0.130682 -0.174007
0.218840 -0.129712 -0.175675
0.218442 -0.129712 -0.177502
0.218043 -0.129712 -0.179329
0.216348 -0.128741 -0.181004
0.214648 -0.127767 -0.182682
0.214249 -0.127767 -0.184512
0.212546 -0.126792 -0.186195
0.212147 -0.126792 -0.188028
0.210440 -0.125815 -0.189716
0.208730 -0.124836 -0.191407
0.208330 -0.124836 -0.193243
0.206616 -0.123855 -0.194940
0.206215 -0.123855 -0.196778
0.204498 -0.122872 -0.198479
0.202777 -0.121887 -0.200184
0.201053 -0.120901 -0.201892
0.200651 -0.120901 -0.203736
0.198923 -0.119912 -0.205449
0.198520 -0.119912 -0.207295
0.196789 -0.118921 -0.209013
0.195053 -0.117929 -0.210735
0.194650 -0.117929 -0.212584
0.192911 -0.116934 -0.214312
0.192507 -0.116934 -0.216162
0.190764 -0.115937 -0.217895
0.189018 -0.114939 -0.219631
0.188614 -0.114939 -0.221485
0.186863 -0.113938 -0.223227
0.186459 -0.113938 -0.225083
0.183352 -0.111931 -0.226720
0.182947 -0.111931 -0.228580
0.181185 -0.110925 -0.230333
0.180780 -0.110925 -0.232195
0.179014 -0.109916 -0.233954
0.178608 -0.109916 -0.235818
0.176839 -0.108906 -0.237582
0.175066 -0.107893 -0.239350
0.174659 -0.107893 -0.241217
0.172883 -0.106879 -0.242990
0.172475 -0.106879 -0.244859
0.170695 -0.105862 -0.246638
0.168911 -0.104843 -0.248420
0.168502 -0.104843 -0.250293
0.166714 -0.103823 -0.252081
0.166306 -0.103823 -0.253956
0.164513 -0.102800 -0.255749
0.162718 -0.101775 -0.257546
0.160918 -0.100748 -0.259346
0.160509 -0.100748 -0.261227
0.158705 -0.099719 -0.263033
0.158295 -0.099719 -0.264915
0.156487 -0.098688 -0.266726
0.154676 -0.097655 -0.268541
0.154265 -0.097655 -0.270428
0.152450 -0.096620 -0.272248
0.152039 -0.096620 -0.274136
0.150219 -0.095583 -0.275963
0.148396 -0.094543 -0.277793
0.147984 -0.094543 -0.279685
0.146157 -0.093502 -0.281520
0.145744 -0.093502 -0.283414
0.143913 -0.092458 -0.285255
0.143500 -0.092458 -0.287151
0.141665 -0.091413 -0.288998
0.139825 -0.090365 -0.290848
0.137983 -0.089315 -0.292703
0.136136 -0.088263 -0.294561
0.134286 -0.087208 -0.296423
0.132432 -0.086152 -0.298289
0.130574 -0.085093 -0.300158
0.128712 -0.084033 -0.302032
0.128296 -0.084033 -0.303943
0.126430 -0.082970 -0.305822
0.126013 -0.082970 -0.307735
0.125596 -0.082970 -0.309649
0.125179 -0.082970 -0.311562
0.124762 -0.082970 -0.313475
0.124345 -0.082970 -0.315388
0.123928 -0.082970 -0.317301
0.123511 -0.082970 -0.319215
0.124547 -0.084033 -0.321144
0.124130 -0.084033 -0.323056
0.123713 -0.084033 -0.324967
0.123297 -0.084033 -0.326878
0.122880 -0.084033 -0.328789
0.122464 -0.084033 -0.330701
0.122047 -0.084033 -0.332612
0.121631 -0.084033 -0.334523
0.121214 -0.084033 -0.336434
0.120798 -0.084033 -0.338346
0.120381 -0.084033 -0.340257
0.119964 -0.084033 -0.342168
0.119548 -0.084033 -0.344079
0.119131 -0.084033 -0.345991
0.118715 -0.084033 -0.347902
0.118298 -0.084033 -0.349813
0.117882 -0.084033 -0.351725
0.117465 -0.084033 -0.353636
0.117048 -0.084033 -0.355547
0.115171 -0.082970 -0.357479
0.114754 -0.082970 -0.359392
0.114337 -0.082970 -0.361306
0.113920 -0.082970 -0.363219
0.113503 -0.082970 -0.365132
0.113086 -0.082970 -0.367045
0.112669 -0.082970 -0.368958
0.112252 -0.082970 -0.370872
0.111835 -0.082970 -0.372785
0.137332 -0.101775 -0.374020
0.138335 -0.102800 -0.375859
0.139336 -0.103823 -0.377695
0.140335 -0.104843 -0.379528
0.141333 -0.105862 -0.381356
0.142328 -0.106879 -0.383181
0.143321 -0.107893 -0.385003
0.144312 -0.108906 -0.386821
0.145301 -0.109916 -0.388635
0.146289 -0.110925 -0.390445
0.147274 -0.111931 -0.392252
0.149643 -0.113938 -0.393999
0.150622 -0.114939 -0.395797
0.151599 -0.115937 -0.397592
0.152574 -0.116934 -0.399382
0.153548 -0.117929 -0.401170
0.154519 -0.118921 -0.402954
0.155488 -0.119912 -0.404734
0.156456 -0.120901 -0.406511
0.157421 -0.121887 -0.408284
0.158385 -0.122872 -0.410054
0.159347 -0.123855 -0.411820
0.160306 -0.124836 -0.413583
0.159906 -0.124836 -0.415419
0.160865 -0.125815 -0.417177
0.161821 -0.126792 -0.418931
0.162776 -0.127767 -0.420682
0.163728 -0.128741 -0.422429
0.164679 -0.129712 -0.424173
0.165628 -0.130682 -0.425913
0.165230 -0.130682 -0.427739
0.166178 -0.131649 -0.429474
0.167124 -0.132615 -0.431206
0.168068 -0.133579 -0.432934
0.169010 -0.134541 -0.434660
0.169950 -0.135501 -0.436381
0.170888 -0.136459 -0.438100
0.171825 -0.137415 -0.439815
0.172760 -0.138370 -0.441527
0.172365 -0.138370 -0.443338
0.173298 -0.139323 -0.445045
0.174230 -0.140274 -0.446748
0.175159 -0.141222 -0.448448
0.176087 -0.142170 -0.450145
0.178330 -0.144058 -0.451728
0.179252 -0.145000 -0.453417
0.178860 -0.145000 -0.455216
0.179781 -0.145940 -0.456900
0.179389 -0.145940 -0.458697
0.180309 -0.146878 -0.460376
0.179917 -0.146878 -0.462172
0.179526 -0.146878 -0.463968
0.180444 -0.147814 -0.465640
0.180053 -0.147814 -0.467434
0.180970 -0.148749 -0.469101
0.180580 -0.148749 -0.470893
0.180189 -0.148749 -0.472685
0.181105 -0.149682 -0.474346
0.180715 -0.149682 -0.476136
0.181630 -0.150612 -0.477792
0.182542 -0.151542 -0.479445
0.180850 -0.150612 -0.481369
0.180460 -0.150612 -0.483158
0.180070 -0.150612 -0.484947
0.178374 -0.149682 -0.486879
0.177983 -0.149682 -0.488669
0.169695 -0.144058 -0.491346
0.388345 -0.169433 0.366439
0.393369 -0.173891 0.361399
0.395137 -0.175662 0.358349
0.395828 -0.176546 0.355957
0.396519 -0.177427 0.353569
0.397207 -0.178307 0.351185
0.396828 -0.178307 0.349445
0.397516 -0.179185 0.347067
0.397137 -0.179185 0.345328
0.396758 -0.179185 0.343590
0.396379 -0.179185 0.341851
0.396000 -0.179185 0.340112
0.395621 -0.179185 0.338373
0.395242 -0.179185 0.336634
0.394863 -0.179185 0.334896
0.394484 -0.179185 0.333157
0.394105 -0.179185 0.331418
0.393726 -0.179185 0.329679
0.393347 -0.179185 0.327940
0.391897 -0.178307 0.326819
0.391518 -0.178307 0.325079
0.391138 -0.178307 0.323338
0.391832 -0.179185 0.320985
0.391453 -0.179185 0.319246
0.390000 -0.178307 0.318117
0.389621 -0.178307 0.316377
0.389242 -0.178307 0.314636
0.388862 -0.178307 0.312896
0.388483 -0.178307 0.311155
0.388104 -0.178307 0.309415
0.387724 -0.178307 0.307675
0.387345 -0.178307 0.305934
0.386966 -0.178307 0.304194
0.385508 -0.177427 0.303049
0.385128 -0.177427 0.301307
0.384748 -0.177427 0.299565
0.384369 -0.177427 0.297823
0.383989 -0.177427 0.296081
0.383609 -0.177427 0.294339
0.383230 -0.177427 0.292597
0.382850 -0.177427 0.290855
0.382470 -0.177427 0.289113
0.381007 -0.176546 0.287954
0.380627 -0.176546 0.286210
0.380247 -0.176546 0.284466
0.379867 -0.176546 0.282723
0.379487 -0.176546 0.280979
0.379107 -0.176546 0.279235
0.378727 -0.176546 0.277492
0.377258 -0.175662 0.276320
0.376878 -0.175662 0.274575
0.376497 -0.175662 0.272830
0.376117 -0.175662 0.271084
0.375737 -0.175662 0.269339
0.374264 -0.174778 0.268159
0.373883 -0.174778 0.266412
0.373503 -0.174778 0.264665
0.373122 -0.174778 0.262918
0.371646 -0.173891 0.261731
0.371265 -0.173891 0.259982
0.371980 -0.174778 0.257677
0.370502 -0.173891 0.256485
0.369022 -0.173003 0.255291
0.368641 -0.173003 0.253541
0.367158 -0.172113 0.252343
0.366776 -0.172113 0.250591
0.366394 -0.172113 0.248839
0.364907 -0.171221 0.247635
0.364525 -0.171221 0.245882
0.361925 -0.169433 0.245221
0.361542 -0.169433 0.243464
0.360047 -0.168537 0.242252
0.358548 -0.167639 0.241037
0.357047 -0.166739 0.239821
0.355543 -0.165837 0.238602
0.354036 -0.164934 0.237380
0.351400 -0.163122 0.236699
0.349885 -0.162213 0.235472
0.347233 -0.160391 0.234785
0.345709 -0.159478 0.233554
0.343041 -0.157645 0.232861
0.339215 -0.154883 0.232709
0.336522 -0.153033 0.232012
0.333819 -0.151176 0.231312
0.329941 -0.148377 0.231155
0.322510 -0.142730 0.232644
0.314992 -0.137017 0.234150
0.198206 -0.043713 0.286256
0.197773 -0.043713 0.284268
0.195905 -0.042564 0.282939
0.195472 -0.042564 0.280948
0.193600 -0.041412 0.279614
0.191724 -0.040259 0.278278
0.184033 -0.034453 0.279574
0.182134 -0.033284 0.278229
0.180232 -0.032113 0.276881
0.179794 -0.032113 0.274871
0.177887 -0.030939 0.273517
0.177449 -0.030939 0.271505
0.175537 -0.029763 0.270147
0.175098 -0.029763 0.268133
0.173182 -0.028584 0.266769
0.172743 -0.028584 0.264753
0.170822 -0.027403 0.263384
0.168897 -0.026219 0.262013
0.168457 -0.026219 0.259992
0.166527 -0.025033 0.258615
0.163098 -0.022652 0.257881
0.161156 -0.021458 0.256497
0.157704 -0.019062 0.255755
0.154236 -0.016655 0.255010
0.149229 -0.013026 0.254909
0.145724 -0.010593 0.254158
0.172217 -0.056190 0.088389
0.177536 -0.060657 0.084649
0.182810 -0.065085 0.080940
0.185219 -0.067286 0.078125
0.187618 -0.069477 0.075321
0.190006 -0.071660 0.072529
0.192385 -0.073833 0.069749
0.193361 -0.074917 0.067398
0.195725 -0.077076 0.064636
0.198080 -0.079228 0.061887
0.199044 -0.080300 0.059555
0.200007 -0.081370 0.057229
0.200967 -0.082438 0.054907
0.201926 -0.083503 0.052590
0.202882 -0.084567 0.050278
0.203837 -0.085628 0.047971
0.204790 -0.086687 0.045668
0.205740 -0.087744 0.043370
0.206689 -0.088799 0.041077
0.207636 -0.089851 0.038788
0.208581 -0.090902 0.036504
0.209524 -0.091950 0.034224
0.210465 -0.092996 0.031950
0.212754 -0.095082 0.029308
0.213689 -0.096122 0.027045
0.214622 -0.097160 0.024787
0.215553 -0.098196 0.022533
0.216483 -0.099229 0.020284
0.217410 -0.100261 0.018039
0.218336 -0.101290 0.015799
0.217925 -0.101290 0.013917
0.218849 -0.102318 0.011683
0.219772 -0.103343 0.009454
0.220692 -0.104366 0.007229
0.221611 -0.105387 0.005009
0.223850 -0.107423 0.002452
0.224763 -0.108439 0.000244
0.225673 -0.109452 -0.001961
0.225266 -0.109452 -0.003828
0.226176 -0.110463 -0.006026
0.225769 -0.110463 -0.007892
0.225363 -0.110463 -0.009757
0.224956 -0.110463 -0.011623
0.224550 -0.110463 -0.013488
0.224143 -0.110463 -0.015354
0.225053 -0.111472 -0.017538
0.224646 -0.111472 -0.019402
0.225555 -0.112479 -0.021580
0.226461 -0.113484 -0.023754
0.228673 -0.115487 -0.026233
0.228268 -0.115487 -0.028089
0.229169 -0.116486 -0.030250
0.230069 -0.117483 -0.032407
0.230966 -0.118479 -0.034559
0.230563 -0.118479 -0.036410
0.231459 -0.119472 -0.038556
0.232353 -0.120463 -0.040699
0.233246 -0.121452 -0.042837
0.232843 -0.121452 -0.044682
0.233735 -0.122439 -0.046814
0.234624 -0.123424 -0.048941
0.234223 -0.123424 -0.050783
0.233821 -0.123424 -0.052625
0.234710 -0.124408 -0.054744
0.234309 -0.124408 -0.056584
0.235196 -0.125389 -0.058698
0.234795 -0.125389 -0.060536
0.235681 -0.126368 -0.062644
0.236565 -0.127346 -0.064748
0.237447 -0.128322 -0.066847
0.237048 -0.128322 -0.068680
0.236648 -0.128322 -0.070513
0.236249 -0.128322 -0.072345
0.235850 -0.128322 -0.074178
0.236732 -0.129295 -0.076266
0.236333 -0.129295 -0.078097
0.235934 -0.129295 -0.079928
0.236815 -0.130267 -0.082008
0.235136 -0.129295 -0.083589
0.236018 -0.130267 -0.085666
0.235619 -0.130267 -0.087495
0.235220 -0.130267 -0.089324
0.236101 -0.131237 -0.091394
0.235703 -0.131237 -0.093221
0.235305 -0.131237 -0.095048
0.234907 -0.131237 -0.096875
0.235787 -0.132205 -0.098935
0.235389 -0.132205 -0.100761
0.234991 -0.132205 -0.102586
0.234593 -0.132205 -0.104412
0.235473 -0.133171 -0.106462
0.235076 -0.133171 -0.108286
0.233400 -0.132205 -0.109888
0.234281 -0.133171 -0.111933
0.233883 -0.133171 -0.113757
0.233486 -0.133171 -0.115580
0.233089 -0.133171 -0.117404
0.232691 -0.133171 -0.119228
0.232294 -0.133171 -0.121051
0.231896 -0.133171 -0.122875
0.232778 -0.134135 -0.124906
0.232381 -0.134135 -0.126727
0.231984 -0.134135 -0.128549
0.231587 -0.134135 -0.130371
0.231190 -0.134135 -0.132193
0.230792 -0.134135 -0.134015
0.230395 -0.134135 -0.135837
0.229998 -0.134135 -0.137659
0.229601 -0.134135 -0.139480
0.229204 -0.134135 -0.141302
0.228807 -0.134135 -0.143124
0.228410 -0.134135 -0.144946
0.226729 -0.133171 -0.146582
0.226332 -0.133171 -0.148406
0.225934 -0.133171 -0.150229
0.225537 -0.133171 -0.152053
0.225139 -0.133171 -0.153877
0.224742 -0.133171 -0.155700
0.224344 -0.133171 -0.157524
0.223947 -0.133171 -0.159347
0.223549 -0.133171 -0.161171
0.223152 -0.133171 -0.162995
0.222755 -0.133171 -0.164818
0.221067 -0.132205 -0.166475
0.220669 -0.132205 -0.168301
0.220271 -0.132205 -0.170126
0.218579 -0.131237 -0.171790
0.218180 -0.131237 -0.173617
0.216485 -0.130267 -0.175286
0.214786 -0.129295 -0.176958
0.214387 -0.129295 -0.178789
0.213988 -0.129295 -0.180620
0.212284 -0.128322 -0.182299
0.210578 -0.127346 -0.183981
0.210178 -0.127346 -0.185816
0.208468 -0.126368 -0.187503
0.208067 -0.126368 -0.189339
0.206353 -0.125389 -0.191032
0.204636 -0.124408 -0.192728
0.204235 -0.124408 -0.194568
0.202514 -0.123424 -0.196269
0.202112 -0.123424 -0.198110
0.200387 -0.122439 -0.199817
0.198659 -0.121452 -0.201526
0.196927 -0.120463 -0.203239
0.196524 -0.120463 -0.205086
0.194789 -0.119472 -0.206804
0.194386 -0.119472 -0.208653
0.192646 -0.118479 -0.210377
0.190903 -0.117483 -0.212104
0.190500 -0.117483 -0.213956
0.188753 -0.116486 -0.215688
0.188349 -0.116486 -0.217543
0.186598 -0.115487 -0.219280
0.183492 -0.113484 -0.220905
0.183086 -0.113484 -0.222765
0.181325 -0.112479 -0.224513
0.180919 -0.112479 -0.226375
0.180513 -0.112479 -0.228237
0.178748 -0.111472 -0.229992
0.176979 -0.110463 -0.231750
0.176572 -0.110463 -0.233616
0.174799 -0.109452 -0.235379
0.174392 -0.109452 -0.237247
0.172616 -0.108439 -0.239016
0.170835 -0.107423 -0.240789
0.170427 -0.107423 -0.242660
0.168643 -0.106406 -0.244438
0.168235 -0.106406 -0.246311
0.166446 -0.105387 -0.248095
0.164654 -0.104366 -0.249882
0.164245 -0.104366 -0.251759
0.162449 -0.103343 -0.253552
0.162040 -0.103343 -0.255430
0.160240 -0.102318 -0.257228
0.158436 -0.101290 -0.259030
0.156629 -0.100261 -0.260836
0.156218 -0.100261 -0.262720
0.154407 -0.099229 -0.264531
0.153996 -0.099229 -0.266417
0.152180 -0.098196 -0.268234
0.150361 -0.097160 -0.270054
0.149949 -0.097160 -0.271944
0.148126 -0.096122 -0.273770
0.147714 -0.096122 -0.275662
0.145886 -0.095082 -0.277493
0.144055 -0.094040 -0.279329
0.143642 -0.094040 -0.281224
0.141807 -0.092996 -0.283065
0.139968 -0.091950 -0.284910
0.139554 -0.091950 -0.286810
0.137711 -0.090902 -0.288660
0.135864 -0.089851 -0.290514
0.134013 -0.088799 -0.292372
0.132159 -0.087744 -0.294233
0.130301 -0.086687 -0.296099
0.128439 -0.085628 -0.297968
0.126573 -0.084567 -0.299841
0.126156 -0.084567 -0.301754
0.125739 -0.084567 -0.303668
0.125322 -0.084567 -0.305581
0.124905 -0.084567 -0.307494
0.124488 -0.084567 -0.309407
0.125523 -0.085628 -0.311347
0.125107 -0.085628 -0.313258
0.124690 -0.085628 -0.315169
0.124273 -0.085628 -0.317081
0.123857 -0.085628 -0.318992
0.123440 -0.085628 -0.320903
0.123024 -0.085628 -0.322814
0.122607 -0.085628 -0.324726
0.122191 -0.085628 -0.326637
0.121774 -0.085628 -0.328548
0.121357 -0.085628 -0.330460
0.120941 -0.085628 -0.332371
0.120524 -0.085628 -0.334282
0.120108 -0.085628 -0.336193
0.119691 -0.085628 -0.338105
0.119275 -0.085628 -0.340016
0.120314 -0.086687 -0.341922
0.118442 -0.085628 -0.343838
0.118025 -0.085628 -0.345750
0.117608 -0.085628 -0.347661
0.117192 -0.085628 -0.349572
0.116775 -0.085628 -0.351483
0.116359 -0.085628 -0.353395
0.115942 -0.085628 -0.355306
0.115526 -0.085628 -0.357217
0.113647 -0.084567 -0.359151
0.113230 -0.084567 -0.361064
0.112813 -0.084567 -0.362977
0.112396 -0.084567 -0.364891
0.111979 -0.084567 -0.366804
0.111562 -0.084567 -0.368717
0.111145 -0.084567 -0.370630
0.110728 -0.084567 -0.372543
0.136245 -0.103343 -0.373783
0.137249 -0.104366 -0.375622
0.138251 -0.105387 -0.377459
0.139251 -0.106406 -0.379291
0.140250 -0.107423 -0.381120
0.141246 -0.108439 -0.382946
0.142240 -0.109452 -0.384767
0.143232 -0.110463 -0.386585
0.144223 -0.111472 -0.388400
0.145211 -0.112479 -0.390210
0.146197 -0.113484 -0.392018
0.148569 -0.115487 -0.393765
0.149549 -0.116486 -0.395563
0.150527 -0.117483 -0.397358
0.151503 -0.118479 -0.399149
0.152477 -0.119472 -0.400937
0.153450 -0.120463 -0.402721
0.154420 -0.121452 -0.404501
0.155388 -0.122439 -0.406278
0.156355 -0.123424 -0.408052
0.155954 -0.123424 -0.409893
0.156919 -0.124408 -0.411662
0.157882 -0.125389 -0.413426
0.158843 -0.126368 -0.415188
0.159803 -0.127346 -0.416945
0.160760 -0.128322 -0.418700
0.161716 -0.129295 -0.420451
0.162670 -0.130267 -0.422198
0.162271 -0.130267 -0.424027
0.163223 -0.131237 -0.425769
0.164174 -0.132205 -0.427508
0.165122 -0.133171 -0.429244
0.166069 -0.134135 -0.430976
0.167014 -0.135098 -0.432705
0.167957 -0.136058 -0.434430
0.168898 -0.137017 -0.436152
0.168502 -0.137017 -0.437969
0.169442 -0.137974 -0.439686
0.170380 -0.138929 -0.441399
0.171316 -0.139882 -0.443110
0.172251 -0.140833 -0.444817
0.173183 -0.141782 -0.446520
0.174114 -0.142730 -0.448221
0.175043 -0.143675 -0.449918
0.175970 -0.144619 -0.451611
0.176895 -0.145561 -0.453302
0.177819 -0.146502 -0.454989
0.178741 -0.147440 -0.456673
0.178349 -0.147440 -0.458471
0.177957 -0.147440 -0.460268
0.177565 -0.147440 -0.462065
0.178487 -0.148377 -0.463741
0.178095 -0.148377 -0.465537
0.179015 -0.149312 -0.467207
0.178624 -0.149312 -0.469001
0.179542 -0.150245 -0.470667
0.179152 -0.150245 -0.472459
0.180069 -0.151176 -0.474120
0.179679 -0.151176 -0.475910
0.180594 -0.152105 -0.477566
0.180204 -0.152105 -0.479355
0.181119 -0.153033 -0.481006
0.179425 -0.152105 -0.482933
0.177727 -0.151176 -0.484863
0.177337 -0.151176 -0.486653
0.176947 -0.151176 -0.488443
0.169977 -0.146502 -0.490970
0.386623 -0.170004 0.369081
0.393813 -0.176235 0.362714
0.393433 -0.176235 0.360967
0.396270 -0.178881 0.357273
0.395890 -0.178881 0.355531
0.397647 -0.180637 0.352503
0.397268 -0.180637 0.350764
0.396889 -0.180637 0.349025
0.397576 -0.181512 0.346650
0.397197 -0.181512 0.344913
0.396819 -0.181512 0.343176
0.396440 -0.181512 0.341439
0.396062 -0.181512 0.339702
0.395683 -0.181512 0.337965
0.395304 -0.181512 0.336227
0.394926 -0.181512 0.334490
0.394547 -0.181512 0.332753
0.394168 -0.181512 0.331016
0.392720 -0.180637 0.329899
0.392341 -0.180637 0.328160
0.391962 -0.180637 0.326421
0.391583 -0.180637 0.324682
0.391204 -0.180637 0.322943
0.390825 -0.180637 0.321205
0.390446 -0.180637 0.319466
0.390067 -0.180637 0.317727
0.389688 -0.180637 0.315988
0.389309 -0.180637 0.314249
0.388930 -0.180637 0.312510
0.388551 -0.180637 0.310772
0.388172 -0.180637 0.309033
0.386717 -0.179760 0.307894
0.386337 -0.179760 0.306154
0.385958 -0.179760 0.304413
0.385579 -0.179760 0.302673
0.385199 -0.179760 0.300932
0.384820 -0.179760 0.299192
0.384441 -0.179760 0.297452
0.382981 -0.178881 0.296301
0.383682 -0.179760 0.293971
0.382221 -0.178881 0.292817
0.381842 -0.178881 0.291075
0.381462 -0.178881 0.289333
0.381082 -0.178881 0.287591
0.380703 -0.178881 0.285849
0.380323 -0.178881 0.284107
0.379943 -0.178881 0.282365
0.378477 -0.178001 0.281199
0.378097 -0.178001 0.279455
0.377717 -0.178001 0.277712
0.377337 -0.178001 0.275968
0.376957 -0.178001 0.274224
0.376577 -0.178001 0.272481
0.376197 -0.178001 0.270737
0.374726 -0.177119 0.269559
0.374346 -0.177119 0.267814
0.372872 -0.176235 0.266632
0.372492 -0.176235 0.264885
0.372111 -0.176235 0.263139
0.371730 -0.176235 0.261392
0.371349 -0.176235 0.259645
0.370969 -0.176235 0.257898
0.370588 -0.176235 0.256151
0.369109 -0.175350 0.254957
0.367628 -0.174464 0.253762
0.367246 -0.174464 0.252011
0.366865 -0.174464 0.250261
0.365380 -0.173575 0.249060
0.364998 -0.173575 0.247308
0.363510 -0.172685 0.246103
0.362019 -0.171793 0.244895
0.361637 -0.171793 0.243140
0.360143 -0.170900 0.241929
0.358646 -0.170004 0.240715
0.356028 -0.168209 0.240043
0.354523 -0.167309 0.238824
0.353015 -0.166407 0.237603
0.351504 -0.165503 0.236379
0.348860 -0.163691 0.235696
0.347341 -0.162782 0.234467
0.344682 -0.160959 0.233778
0.342012 -0.159129 0.233086
0.339332 -0.157293 0.232391
0.335488 -0.154524 0.232238
0.331622 -0.151740 0.232083
0.326562 -0.148003 0.232476
0.319098 -0.142343 0.233975
0.196055 -0.044225 0.289162
0.194184 -0.043076 0.287837
0.193749 -0.043076 0.285844
0.193315 -0.043076 0.283851
0.189994 -0.040769 0.283181
0.183746 -0.036127 0.283838
0.183309 -0.036127 0.281833
0.181410 -0.034960 0.280490
0.180972 -0.034960 0.278482
0.179069 -0.033790 0.277134
0.177161 -0.032618 0.275783
0.176722 -0.032618 0.273771
0.174810 -0.031444 0.272415
0.174371 -0.031444 0.270401
0.172454 -0.030267 0.269040
0.172015 -0.030267 0.267024
0.170093 -0.029088 0.265658
0.168168 -0.027906 0.264289
0.167727 -0.027906 0.262268
0.167287 -0.027906 0.260247
0.163863 -0.025534 0.259516
0.160424 -0.023152 0.258783
0.158477 -0.021957 0.257399
0.155015 -0.019559 0.256658
0.150016 -0.015943 0.256562
0.146516 -0.013519 0.255815
0.139919 -0.008639 0.256369
0.169206 -0.056710 0.087117
0.174543 -0.061179 0.083379
0.179835 -0.065610 0.079672
0.182252 -0.067812 0.076856
0.184660 -0.070005 0.074052
0.187057 -0.072188 0.071260
0.189444 -0.074363 0.068479
0.191822 -0.076528 0.065710
0.192797 -0.077608 0.063365
0.195160 -0.079760 0.060615
0.196129 -0.080832 0.058283
0.197095 -0.081903 0.055956
0.198060 -0.082971 0.053633
0.199022 -0.084038 0.051315
0.199982 -0.085101 0.049002
0.200941 -0.086163 0.046693
0.203268 -0.088280 0.044000
0.204221 -0.089336 0.041703
0.205171 -0.090389 0.039412
0.206119 -0.091440 0.037125
0.207066 -0.092489 0.034842
0.208010 -0.093535 0.032565
0.208953 -0.094580 0.030291
0.209894 -0.095623 0.028023
0.210832 -0.096663 0.025759
0.211769 -0.097701 0.023500
0.212704 -0.098737 0.021245
0.213637 -0.099771 0.018995
0.214569 -0.100803 0.016749
0.214158 -0.100803 0.014863
0.215087 -0.101833 0.012624
0.216015 -0.102861 0.010389
0.218275 -0.104911 0.007812
0.219197 -0.105932 0.005589
0.220117 -0.106952 0.003370
0.221035 -0.107969 0.001156
0.221951 -0.108985 -0.001054
0.222866 -0.109999 -0.003259
0.222458 -0.109999 -0.005128
0.222051 -0.109999 -0.006997
0.221644 -0.109999 -0.008867
0.222558 -0.111010 -0.011062
0.222151 -0.111010 -0.012929
0.221744 -0.111010 -0.014797
0.221337 -0.111010 -0.016664
0.222250 -0.112019 -0.018849
0.223161 -0.113027 -0.021030
0.222755 -0.113027 -0.022894
0.223665 -0.114032 -0.025069
0.224574 -0.115036 -0.027239
0.226789 -0.117037 -0.029711
0.226385 -0.117037 -0.031567
0.227288 -0.118034 -0.033725
0.228189 -0.119030 -0.035878
0.227785 -0.119030 -0.037731
0.228685 -0.120023 -0.039878
0.229583 -0.121015 -0.042021
0.230479 -0.122004 -0.044160
0.231373 -0.122992 -0.046294
0.230971 -0.122992 -0.048139
0.231864 -0.123978 -0.050268
0.231462 -0.123978 -0.052111
0.232354 -0.124961 -0.054234
0.231952 -0.124961 -0.056075
0.232843 -0.125943 -0.058192
0.233731 -0.126923 -0.060304
0.233331 -0.126923 -0.062142
0.232930 -0.126923 -0.063980
0.235103 -0.128877 -0.066351
0.234704 -0.128877 -0.068185
0.234304 -0.128877 -0.070019
0.233904 -0.128877 -0.071854
0.233504 -0.128877 -0.073688
0.234389 -0.129851 -0.075779
0.233990 -0.129851 -0.077612
0.234874 -0.130823 -0.079697
0.233191 -0.129851 -0.081277
0.234076 -0.130823 -0.083358
0.233677 -0.130823 -0.085189
0.233278 -0.130823 -0.087020
0.232879 -0.130823 -0.088850
0.233763 -0.131794 -0.090922
0.233364 -0.131794 -0.092751
0.232966 -0.131794 -0.094580
0.232567 -0.131794 -0.096409
0.233451 -0.132762 -0.098472
0.233052 -0.132762 -0.100299
0.232654 -0.132762 -0.102126
0.232256 -0.132762 -0.103953
0.231858 -0.132762 -0.105781
0.231459 -0.132762 -0.107608
0.231061 -0.132762 -0.109435
0.230663 -0.132762 -0.111262
0.231548 -0.133729 -0.113308
0.231150 -0.133729 -0.115134
0.230752 -0.133729 -0.116959
0.230354 -0.133729 -0.118784
0.229956 -0.133729 -0.120610
0.229558 -0.133729 -0.122435
0.229160 -0.133729 -0.124261
0.228763 -0.133729 -0.126086
0.229648 -0.134693 -0.128116
0.229251 -0.134693 -0.129939
0.228853 -0.134693 -0.131763
0.228456 -0.134693 -0.133587
0.228058 -0.134693 -0.135410
0.227661 -0.134693 -0.137234
0.225978 -0.133729 -0.138864
0.225580 -0.133729 -0.140689
0.225182 -0.133729 -0.142515
0.224784 -0.133729 -0.144340
0.224386 -0.133729 -0.146166
0.223988 -0.133729 -0.147991
0.223591 -0.133729 -0.149816
0.223193 -0.133729 -0.151642
0.222795 -0.133729 -0.153467
0.222397 -0.133729 -0.155293
0.221999 -0.133729 -0.157118
0.221601 -0.133729 -0.158943
0.221203 -0.133729 -0.160769
0.220806 -0.133729 -0.162594
0.220408 -0.133729 -0.164420
0.218716 -0.132762 -0.166078
0.218317 -0.132762 -0.167905
0.217919 -0.132762 -0.169732
0.216223 -0.131794 -0.171397
0.214524 -0.130823 -0.173066
0.214125 -0.130823 -0.174897
0.212422 -0.129851 -0.176570
0.210715 -0.128877 -0.178247
0.210316 -0.128877 -0.180081
0.209916 -0.128877 -0.181916
0.208205 -0.127901 -0.183599
0.206491 -0.126923 -0.185286
0.206091 -0.126923 -0.187124
0.204373 -0.125943 -0.188816
0.203972 -0.125943 -0.190656
0.202250 -0.124961 -0.192353
0.200526 -0.123978 -0.194054
0.200124 -0.123978 -0.195897
0.198395 -0.122992 -0.197603
0.196663 -0.122004 -0.199312
0.196260 -0.122004 -0.201159
0.194525 -0.121015 -0.202873
0.192785 -0.120023 -0.204591
0.192382 -0.120023 -0.206442
0.190639 -0.119030 -0.208165
0.190235 -0.119030 -0.210017
0.188488 -0.118034 -0.211746
0.186737 -0.117037 -0.213477
0.186333 -0.117037 -0.215333
0.183226 -0.115036 -0.216951
0.182820 -0.115036 -0.218811
0.181059 -0.114032 -0.220555
0.179294 -0.113027 -0.222302
0.178888 -0.113027 -0.224166
0.177119 -0.112019 -0.225918
0.176712 -0.112019 -0.227784
0.176306 -0.112019 -0.229649
0.174532 -0.111010 -0.231409
0.172756 -0.109999 -0.233173
0.172348 -0.109999 -0.235042
0.170568 -0.108985 -0.236811
0.170160 -0.108985 -0.238682
0.168375 -0.107969 -0.240456
0.166587 -0.106952 -0.242234
0.166178 -0.106952 -0.244109
0.164386 -0.105932 -0.245892
0.163977 -0.105932 -0.247769
0.162181 -0.104911 -0.249557
0.160381 -0.103887 -0.251350
0.159971 -0.103887 -0.253230
0.158167 -0.102861 -0.255028
0.156359 -0.101833 -0.256829
0.155949 -0.101833 -0.258714
0.154137 -0.100803 -0.260521
0.152322 -0.099771 -0.262331
0.151910 -0.099771 -0.264219
0.150091 -0.098737 -0.266036
0.149679 -0.098737 -0.267926
0.147855 -0.097701 -0.269748
0.146028 -0.096663 -0.271573
0.145616 -0.096663 -0.273467
0.143784 -0.095623 -0.275298
0.143371 -0.095623 -0.277194
0.141536 -0.094580 -0.279031
0.139696 -0.093535 -0.280871
0.137853 -0.092489 -0.282715
0.136007 -0.091440 -0.284563
0.135592 -0.091440 -0.286467
0.133741 -0.090389 -0.288320
0.131886 -0.089336 -0.290178
0.130028 -0.088280 -0.292039
0.128166 -0.087223 -0.293904
0.126300 -0.086163 -0.295773
0.125883 -0.086163 -0.297687
0.125466 -0.086163 -0.299600
0.125049 -0.086163 -0.301513
0.124632 -0.086163 -0.303426
0.125666 -0.087223 -0.305372
0.125250 -0.087223 -0.307283
0.124833 -0.087223 -0.309194
0.124417 -0.087223 -0.311106
0.124000 -0.087223 -0.313017
0.123584 -0.087223 -0.314928
0.123167 -0.087223 -0.316840
0.122750 -0.087223 -0.318751
0.122334 -0.087223 -0.320662
0.121917 -0.087223 -0.322573
0.121501 -0.087223 -0.324485
0.121084 -0.087223 -0.326396
0.120668 -0.087223 -0.328307
0.120251 -0.087223 -0.330218
0.119835 -0.087223 -0.332130
0.119418 -0.087223 -0.334041
0.120457 -0.088280 -0.335953
0.120041 -0.088280 -0.337863
0.119625 -0.088280 -0.339772
0.117752 -0.087223 -0.341686
0.118792 -0.088280 -0.343591
0.118376 -0.088280 -0.345500
0.116502 -0.087223 -0.347420
0.116085 -0.087223 -0.349331
0.115669 -0.087223 -0.351242
0.115252 -0.087223 -0.353154
0.114836 -0.087223 -0.355065
0.114419 -0.087223 -0.356976
0.114003 -0.087223 -0.358887
0.112122 -0.086163 -0.360823
0.111705 -0.086163 -0.362736
0.111288 -0.086163 -0.364649
0.110871 -0.086163 -0.366562
0.110454 -0.086163 -0.368476
0.110037 -0.086163 -0.370389
0.109620 -0.086163 -0.372302
0.133740 -0.103887 -0.373582
0.134748 -0.104911 -0.375424
0.137166 -0.106952 -0.377222
0.138167 -0.107969 -0.379055
0.139166 -0.108985 -0.380884
0.138759 -0.108985 -0.382755
0.139756 -0.109999 -0.384579
0.140752 -0.111010 -0.386399
0.141746 -0.112019 -0.388215
0.142738 -0.113027 -0.390028
0.143727 -0.114032 -0.391837
0.144715 -0.115036 -0.393643
0.147089 -0.117037 -0.395387
0.148071 -0.118034 -0.397184
0.149051 -0.119030 -0.398977
0.150028 -0.120023 -0.400766
0.151004 -0.121015 -0.402552
0.151978 -0.122004 -0.404335
0.154321 -0.123978 -0.406046
0.155289 -0.124961 -0.407819
0.154888 -0.124961 -0.409661
0.155854 -0.125943 -0.411429
0.156818 -0.126923 -0.413194
0.157780 -0.127901 -0.414956
0.158741 -0.128877 -0.416714
0.158341 -0.128877 -0.418548
0.159300 -0.129851 -0.420301
0.160257 -0.130823 -0.422050
0.161212 -0.131794 -0.423796
0.162166 -0.132762 -0.425539
0.163117 -0.133729 -0.427278
0.164067 -0.134693 -0.429014
0.163669 -0.134693 -0.430837
0.164617 -0.135656 -0.432568
0.165564 -0.136617 -0.434295
0.166508 -0.137576 -0.436019
0.167451 -0.138533 -0.437740
0.168392 -0.139488 -0.439457
0.169331 -0.140442 -0.441171
0.170268 -0.141393 -0.442881
0.171203 -0.142343 -0.444588
0.170809 -0.142343 -0.446398
0.171743 -0.143291 -0.448100
0.172675 -0.144237 -0.449799
0.174927 -0.146124 -0.451384
0.175853 -0.147064 -0.453075
0.176777 -0.148003 -0.454762
0.176385 -0.148003 -0.456561
0.177309 -0.148940 -0.458244
0.176917 -0.148940 -0.460041
0.176525 -0.148940 -0.461839
0.176133 -0.148940 -0.463636
0.177056 -0.149875 -0.465310
0.176664 -0.149875 -0.467106
0.177586 -0.150809 -0.468775
0.177195 -0.150809 -0.470569
0.178114 -0.151740 -0.472233
0.177724 -0.151740 -0.474025
0.178642 -0.152670 -0.475684
0.178252 -0.152670 -0.477475
0.179169 -0.153598 -0.479129
0.178779 -0.153598 -0.480918
0.177081 -0.152670 -0.482846
0.176691 -0.152670 -0.484637
0.176301 -0.152670 -0.486427
0.175911 -0.152670 -0.488218
0.171577 -0.149875 -0.490448
0.380517 -0.166978 0.374408
0.392106 -0.176810 0.365337
0.393877 -0.178576 0.362280
0.395641 -0.180335 0.359234
0.396331 -0.181212 0.356846
0.397019 -0.182088 0.354461
0.397706 -0.182962 0.352081
0.397328 -0.182962 0.350344
0.396949 -0.182962 0.348607
0.397636 -0.183834 0.346234
0.397258 -0.183834 0.344499
0.396879 -0.183834 0.342763
0.396501 -0.183834 0.341028
0.396123 -0.183834 0.339292
0.395744 -0.183834 0.337557
0.395366 -0.183834 0.335821
0.394988 -0.183834 0.334085
0.394610 -0.183834 0.332350
0.393163 -0.182962 0.331235
0.392784 -0.182962 0.329498
0.392406 -0.182962 0.327761
0.392027 -0.182962 0.326023
0.391648 -0.182962 0.324286
0.391270 -0.182962 0.322549
0.390891 -0.182962 0.320812
0.390512 -0.182962 0.319075
0.390134 -0.182962 0.317337
0.389755 -0.182962 0.315600
0.389377 -0.182962 0.313863
0.388998 -0.182962 0.312126
0.387545 -0.182088 0.310991
0.387166 -0.182088 0.309252
0.386787 -0.182088 0.307513
0.386408 -0.182088 0.305775
0.386029 -0.182088 0.304036
0.385650 -0.182088 0.302297
0.385271 -0.182088 0.300558
0.383813 -0.181212 0.299412
0.383433 -0.181212 0.297671
0.383054 -0.181212 0.295931
0.382675 -0.181212 0.294190
0.382295 -0.181212 0.292450
0.381916 -0.181212 0.290709
0.381537 -0.181212 0.288969
0.381157 -0.181212 0.287229
0.379694 -0.180335 0.286068
0.379314 -0.180335 0.284326
0.378935 -0.180335 0.282584
0.378555 -0.180335 0.280842
0.378175 -0.180335 0.279100
0.377796 -0.180335 0.277358
0.377416 -0.180335 0.275616
0.377036 -0.180335 0.273874
0.375568 -0.179456 0.272701
0.375188 -0.179456 0.270957
0.374808 -0.179456 0.269213
0.373336 -0.178576 0.268034
0.372955 -0.178576 0.266289
0.372575 -0.178576 0.264544
0.372195 -0.178576 0.262798
0.371814 -0.178576 0.261053
0.370338 -0.177693 0.259865
0.371053 -0.178576 0.257562
0.369577 -0.177693 0.256371
0.369196 -0.177693 0.254624
0.367716 -0.176810 0.253429
0.367335 -0.176810 0.251681
0.365852 -0.175924 0.250482
0.365470 -0.175924 0.248732
0.363984 -0.175037 0.247529
0.363602 -0.175037 0.245777
0.361003 -0.173258 0.245117
0.360621 -0.173258 0.243362
0.359126 -0.172366 0.242151
0.357628 -0.171472 0.240937
0.355008 -0.169679 0.240265
0.353502 -0.168780 0.239047
0.351993 -0.167880 0.237826
0.350481 -0.166978 0.236602
0.347835 -0.165168 0.235919
0.346316 -0.164260 0.234690
0.343654 -0.162441 0.234001
0.340982 -0.160614 0.233310
0.337150 -0.157860 0.233159
0.334453 -0.156016 0.232463
0.330584 -0.153236 0.232309
0.323171 -0.147628 0.233802
0.315672 -0.141955 0.235312
0.192023 -0.043589 0.290750
0.191588 -0.043589 0.288756
0.189708 -0.042436 0.287427
0.183459 -0.037800 0.288102
0.183022 -0.037800 0.286097
0.181123 -0.036635 0.284759
0.180685 -0.036635 0.282751
0.180248 -0.036635 0.280743
0.178343 -0.035468 0.279398
0.176435 -0.034298 0.278049
0.175996 -0.034298 0.276037
0.174083 -0.033125 0.274684
0.173644 -0.033125 0.272669
0.171727 -0.031950 0.271311
0.171287 -0.031950 0.269295
0.169365 -0.030772 0.267931
0.167439 -0.029592 0.266564
0.166998 -0.029592 0.264544
0.165067 -0.028409 0.263172
0.164626 -0.028409 0.261149
0.161192 -0.026036 0.260419
0.159249 -0.024846 0.259039
0.155792 -0.022457 0.258302
0.152320 -0.020058 0.257563
0.147307 -0.016439 0.257470
0.143798 -0.014014 0.256724
0.135630 -0.007903 0.257937
0.166188 -0.057231 0.085843
0.171543 -0.061702 0.082106
0.176853 -0.066136 0.078401
0.180701 -0.069437 0.075155
0.181695 -0.070533 0.072781
0.184101 -0.072717 0.069988
0.186497 -0.074893 0.067207
0.188884 -0.077060 0.064438
0.189862 -0.078140 0.062092
0.192234 -0.080293 0.059342
0.193207 -0.081366 0.057008
0.195564 -0.083506 0.054277
0.196530 -0.084573 0.051956
0.197494 -0.085638 0.049640
0.198456 -0.086700 0.047328
0.199417 -0.087760 0.045021
0.200375 -0.088818 0.042719
0.201331 -0.089874 0.040422
0.202285 -0.090928 0.038129
0.203237 -0.091979 0.035841
0.204188 -0.093028 0.033558
0.205136 -0.094076 0.031279
0.206083 -0.095121 0.029005
0.207027 -0.096164 0.026736
0.207970 -0.097205 0.024471
0.208911 -0.098243 0.022210
0.209849 -0.099280 0.019955
0.212133 -0.101347 0.017345
0.211721 -0.101347 0.015457
0.212655 -0.102378 0.013215
0.213586 -0.103406 0.010977
0.214515 -0.104432 0.008744
0.215443 -0.105456 0.006516
0.216369 -0.106479 0.004292
0.217292 -0.107499 0.002072
0.218214 -0.108517 -0.000143
0.219134 -0.109533 -0.002354
0.220053 -0.110547 -0.004560
0.219645 -0.110547 -0.006431
0.219237 -0.110547 -0.008302
0.218829 -0.110547 -0.010173
0.218421 -0.110547 -0.012044
0.218014 -0.110547 -0.013915
0.218932 -0.111559 -0.016108
0.218525 -0.111559 -0.017977
0.219442 -0.112568 -0.020163
0.220357 -0.113576 -0.022345
0.221270 -0.114582 -0.024523
0.222182 -0.115586 -0.026696
0.221776 -0.115586 -0.028558
0.222686 -0.116588 -0.030725
0.224906 -0.118586 -0.033189
0.224501 -0.118586 -0.035046
0.225406 -0.119582 -0.037200
0.226309 -0.120576 -0.039350
0.225905 -0.120576 -0.041202
0.226807 -0.121568 -0.043346
0.227706 -0.122558 -0.045485
0.227303 -0.122558 -0.047334
0.228202 -0.123546 -0.049468
0.229098 -0.124532 -0.051597
0.228696 -0.124532 -0.053442
0.229592 -0.125516 -0.055566
0.230485 -0.126498 -0.057685
0.230084 -0.126498 -0.059526
0.230976 -0.127479 -0.061639
0.230575 -0.127479 -0.063479
0.232755 -0.129433 -0.065853
0.232355 -0.129433 -0.067689
0.231954 -0.129433 -0.069525
0.232842 -0.130408 -0.071622
0.231154 -0.129433 -0.073198
0.230754 -0.129433 -0.075034
0.231643 -0.130408 -0.077125
0.231243 -0.130408 -0.078960
0.230843 -0.130408 -0.080794
0.231731 -0.131380 -0.082878
0.231331 -0.131380 -0.084711
0.230932 -0.131380 -0.086543
0.230533 -0.131380 -0.088376
0.231420 -0.132351 -0.090450
0.231021 -0.132351 -0.092281
0.230622 -0.132351 -0.094112
0.230223 -0.132351 -0.095943
0.231110 -0.133320 -0.098008
0.229425 -0.132351 -0.099604
0.229026 -0.132351 -0.101435
0.229914 -0.133320 -0.103495
0.229515 -0.133320 -0.105323
0.229117 -0.133320 -0.107152
0.228718 -0.133320 -0.108981
0.228319 -0.133320 -0.110810
0.227921 -0.133320 -0.112639
0.227522 -0.133320 -0.114468
0.228411 -0.134287 -0.116513
0.228012 -0.134287 -0.118340
0.227614 -0.134287 -0.120168
0.227216 -0.134287 -0.121995
0.226818 -0.134287 -0.123822
0.226419 -0.134287 -0.125649
0.227308 -0.135252 -0.127681
0.225623 -0.134287 -0.129304
0.225225 -0.134287 -0.131131
0.224826 -0.134287 -0.132958
0.224428 -0.134287 -0.134785
0.224030 -0.134287 -0.136612
0.223632 -0.134287 -0.138440
0.223233 -0.134287 -0.140267
0.222835 -0.134287 -0.142094
0.222437 -0.134287 -0.143921
0.222039 -0.134287 -0.145748
0.221640 -0.134287 -0.147576
0.221242 -0.134287 -0.149403
0.220844 -0.134287 -0.151230
0.220446 -0.134287 -0.153057
0.220047 -0.134287 -0.154884
0.219649 -0.134287 -0.156711
0.217955 -0.133320 -0.158364
0.217556 -0.133320 -0.160193
0.217158 -0.133320 -0.162022
0.216759 -0.133320 -0.163851
0.216360 -0.133320 -0.165680
0.215962 -0.133320 -0.167509
0.214262 -0.132351 -0.169173
0.213863 -0.132351 -0.171004
0.212160 -0.131380 -0.172674
0.210453 -0.130408 -0.174347
0.210053 -0.130408 -0.176181
0.208343 -0.129433 -0.177859
0.207943 -0.129433 -0.179695
0.206228 -0.128457 -0.181378
0.205828 -0.128457 -0.183216
0.204110 -0.127479 -0.184904
0.202389 -0.126498 -0.186596
0.201987 -0.126498 -0.188438
0.200262 -0.125516 -0.190134
0.199860 -0.125516 -0.191978
0.198131 -0.124532 -0.193680
0.196399 -0.123546 -0.195385
0.195996 -0.123546 -0.197232
0.194260 -0.122558 -0.198942
