ply
format ascii 1.0
element vertex 1620
property float x
property float y
property float z
end_header
0.129652 -0.049983 -0.492944
0.127669 -0.049380 -0.493933
0.125984 -0.049380 -0.493743
0.124299 -0.049380 -0.493554
0.122613 -0.049380 -0.493364
0.120928 -0.049380 -0.493174
0.119242 -0.049380 -0.492985
0.117271 -0.048778 -0.493973
0.115587 -0.048778 -0.493783
0.113903 -0.048778 -0.493594
0.112220 -0.048778 -0.493404
0.110536 -0.048778 -0.493215
0.108852 -0.048778 -0.493026
0.106891 -0.048178 -0.494012
0.105209 -0.048178 -0.493823
0.103527 -0.048178 -0.493634
0.101844 -0.048178 -0.493445
0.100162 -0.048178 -0.493255
0.098479 -0.048178 -0.493066
0.096797 -0.048178 -0.492877
0.095115 -0.048178 -0.492688
0.093432 -0.048178 -0.492499
0.091487 -0.047578 -0.493485
0.089806 -0.047578 -0.493296
0.088126 -0.047578 -0.493107
0.086445 -0.047578 -0.492918
0.084764 -0.047578 -0.492729
0.083083 -0.047578 -0.492540
0.081402 -0.047578 -0.492351
0.079469 -0.046980 -0.493336
0.077790 -0.046980 -0.493147
0.076110 -0.046980 -0.492959
0.074431 -0.046980 -0.492770
0.072752 -0.046980 -0.492581
0.071072 -0.046980 -0.492392
0.069150 -0.046382 -0.493377
0.067472 -0.046382 -0.493188
0.065795 -0.046382 -0.492999
0.064117 -0.046382 -0.492810
0.062439 -0.046382 -0.492622
0.060761 -0.046382 -0.492433
0.058850 -0.045786 -0.493417
0.057173 -0.045786 -0.493228
0.055497 -0.045786 -0.493040
0.053820 -0.045786 -0.492851
0.052144 -0.045786 -0.492663
0.050467 -0.045786 -0.492474
0.048791 -0.045786 -0.492285
0.047114 -0.045786 -0.492097
0.045438 -0.045786 -0.491908
0.043762 -0.045786 -0.491720
0.041867 -0.045191 -0.492703
0.040192 -0.045191 -0.492515
0.038517 -0.045191 -0.492327
0.036842 -0.045191 -0.492138
0.035167 -0.045191 -0.491950
0.033492 -0.045191 -0.491761
0.031609 -0.044596 -0.492744
0.029935 -0.044596 -0.492556
0.028262 -0.044596 -0.492368
0.026588 -0.044596 -0.492179
0.024915 -0.044596 -0.491991
0.023241 -0.044596 -0.491803
0.021568 -0.044596 -0.491615
0.019894 -0.044596 -0.491427
0.018221 -0.044596 -0.491238
0.016547 -0.044596 -0.491050
0.014680 -0.044003 -0.492033
0.013008 -0.044003 -0.491845
0.011336 -0.044003 -0.491656
0.009664 -0.044003 -0.491468
0.007992 -0.044003 -0.491280
0.006320 -0.044003 -0.491092
0.004463 -0.043411 -0.492074
0.002793 -0.043411 -0.491886
0.001122 -0.043411 -0.491698
-0.000548 -0.043411 -0.491510
-0.002219 -0.043411 -0.491322
-0.003889 -0.043411 -0.491134
-0.005560 -0.043411 -0.490947
-0.007231 -0.043411 -0.490759
-0.008901 -0.043411 -0.490571
-0.010572 -0.043411 -0.490383
-0.012412 -0.042820 -0.491364
-0.014081 -0.042820 -0.491176
-0.015750 -0.042820 -0.490989
-0.017419 -0.042820 -0.490801
-0.019088 -0.042820 -0.490613
-0.020757 -0.042820 -0.490425
-0.022587 -0.042230 -0.491406
-0.024254 -0.042230 -0.491218
-0.025922 -0.042230 -0.491031
-0.027590 -0.042230 -0.490843
-0.029411 -0.041641 -0.491822
-0.031078 -0.041641 -0.491635
-0.032744 -0.041641 -0.491448
-0.034410 -0.041641 -0.491260
-0.036076 -0.041641 -0.491073
-0.037742 -0.041641 -0.490885
-0.039554 -0.041053 -0.491864
-0.041218 -0.041053 -0.491676
-0.042883 -0.041053 -0.491489
-0.044548 -0.041053 -0.491302
-0.046212 -0.041053 -0.491115
-0.047877 -0.041053 -0.490927
-0.049678 -0.040466 -0.491905
-0.051341 -0.040466 -0.491718
-0.053005 -0.040466 -0.491531
-0.054668 -0.040466 -0.491344
-0.056331 -0.040466 -0.491157
-0.057994 -0.040466 -0.490970
-0.059658 -0.040466 -0.490782
-0.061321 -0.040466 -0.490595
-0.062984 -0.040466 -0.490408
-0.064770 -0.039880 -0.491385
-0.066432 -0.039880 -0.491198
-0.068094 -0.039880 -0.491011
-0.069756 -0.039880 -0.490825
-0.071417 -0.039880 -0.490638
-0.073079 -0.039880 -0.490451
-0.074741 -0.039880 -0.490264
-0.076403 -0.039880 -0.490077
-0.078176 -0.039295 -0.491053
-0.079836 -0.039295 -0.490867
-0.081496 -0.039295 -0.490680
-0.083157 -0.039295 -0.490493
-0.084817 -0.039295 -0.490306
-0.086477 -0.039295 -0.490120
-0.088138 -0.039295 -0.489933
-0.089798 -0.039295 -0.489746
-0.091558 -0.038711 -0.490722
-0.093217 -0.038711 -0.490535
-0.094876 -0.038711 -0.490349
-0.096535 -0.038711 -0.490162
-0.098193 -0.038711 -0.489976
-0.099852 -0.038711 -0.489789
-0.101511 -0.038711 -0.489603
-0.103170 -0.038711 -0.489416
-0.104917 -0.038128 -0.490391
-0.106574 -0.038128 -0.490205
-0.108231 -0.038128 -0.490018
-0.109889 -0.038128 -0.489832
-0.111546 -0.038128 -0.489646
-0.113204 -0.038128 -0.489459
-0.114861 -0.038128 -0.489273
-0.116519 -0.038128 -0.489086
-0.118252 -0.037546 -0.490061
-0.119908 -0.037546 -0.489875
-0.121564 -0.037546 -0.489689
-0.123220 -0.037546 -0.489502
-0.124876 -0.037546 -0.489316
-0.126532 -0.037546 -0.489130
-0.128188 -0.037546 -0.488944
-0.129844 -0.037546 -0.488757
-0.131564 -0.036965 -0.489731
-0.133219 -0.036965 -0.489545
-0.134873 -0.036965 -0.489359
-0.136528 -0.036965 -0.489173
-0.138183 -0.036965 -0.488987
-0.139837 -0.036965 -0.488801
-0.141492 -0.036965 -0.488615
-0.143146 -0.036965 -0.488429
-0.144853 -0.036385 -0.489402
-0.146507 -0.036385 -0.489216
-0.148160 -0.036385 -0.489031
-0.149813 -0.036385 -0.488845
-0.151466 -0.036385 -0.488659
-0.153119 -0.036385 -0.488473
-0.154772 -0.036385 -0.488287
-0.156425 -0.036385 -0.488101
-0.158119 -0.035806 -0.489074
-0.159771 -0.035806 -0.488888
-0.161423 -0.035806 -0.488702
-0.163075 -0.035806 -0.488517
-0.164726 -0.035806 -0.488331
-0.166378 -0.035806 -0.488145
-0.168030 -0.035806 -0.487959
-0.169681 -0.035806 -0.487774
-0.171362 -0.035228 -0.488746
-0.173013 -0.035228 -0.488560
-0.174663 -0.035228 -0.488375
-0.176313 -0.035228 -0.488189
-0.177964 -0.035228 -0.488004
-0.179614 -0.035228 -0.487818
-0.181264 -0.035228 -0.487632
-0.182914 -0.035228 -0.487447
-0.184565 -0.035228 -0.487261
-0.186231 -0.034652 -0.488233
-0.187880 -0.034652 -0.488048
-0.189529 -0.034652 -0.487862
-0.191178 -0.034652 -0.487677
-0.192827 -0.034652 -0.487492
-0.194475 -0.034652 -0.487306
-0.196124 -0.034652 -0.487121
-0.197773 -0.034652 -0.486935
-0.199427 -0.034076 -0.487907
-0.201074 -0.034076 -0.487721
-0.202722 -0.034076 -0.487536
-0.204369 -0.034076 -0.487351
-0.206017 -0.034076 -0.487166
-0.207664 -0.034076 -0.486980
-0.209311 -0.034076 -0.486795
-0.210959 -0.034076 -0.486610
-0.212606 -0.034076 -0.486424
-0.214254 -0.034076 -0.486239
-0.215901 -0.034076 -0.486054
-0.217548 -0.034076 -0.485869
-0.219196 -0.034076 -0.485683
-0.220843 -0.034076 -0.485498
-0.222491 -0.034076 -0.485313
-0.224138 -0.034076 -0.485127
-0.225786 -0.034076 -0.484942
-0.227433 -0.034076 -0.484757
-0.229060 -0.033501 -0.485729
-0.230706 -0.033501 -0.485544
-0.232352 -0.033501 -0.485359
-0.233998 -0.033501 -0.485174
-0.235644 -0.033501 -0.484989
-0.237290 -0.033501 -0.484804
-0.238936 -0.033501 -0.484619
-0.240582 -0.033501 -0.484433
-0.242228 -0.033501 -0.484248
-0.243907 -0.034076 -0.482904
-0.245554 -0.034076 -0.482719
-0.247202 -0.034076 -0.482533
-0.248887 -0.034652 -0.481186
-0.250536 -0.034652 -0.481001
-0.252185 -0.034652 -0.480815
-0.253876 -0.035228 -0.479466
-0.255526 -0.035228 -0.479280
-0.257176 -0.035228 -0.479094
-0.258827 -0.035228 -0.478909
-0.260525 -0.035806 -0.477556
-0.262177 -0.035806 -0.477370
-0.263879 -0.036385 -0.476015
-0.265533 -0.036385 -0.475829
-0.267240 -0.036965 -0.474472
-0.268894 -0.036965 -0.474286
-0.270606 -0.037546 -0.472925
-0.272262 -0.037546 -0.472739
-0.273978 -0.038128 -0.471376
-0.275635 -0.038128 -0.471190
-0.277356 -0.038711 -0.469825
-0.279015 -0.038711 -0.469638
-0.280739 -0.039295 -0.468270
-0.282400 -0.039295 -0.468084
-0.284129 -0.039880 -0.466713
-0.285861 -0.040466 -0.465341
-0.287597 -0.041053 -0.463965
-0.289335 -0.041641 -0.462588
-0.291077 -0.042230 -0.461208
-0.292898 -0.043411 -0.458629
-0.294648 -0.044003 -0.457242
-0.296400 -0.044596 -0.455852
-0.298155 -0.045191 -0.454460
-0.299914 -0.045786 -0.453066
-0.301760 -0.046980 -0.450458
-0.303527 -0.047578 -0.449057
-0.305208 -0.047578 -0.448868
-0.306979 -0.048178 -0.447463
-0.308753 -0.048778 -0.446056
-0.310530 -0.049380 -0.444647
-0.312310 -0.049983 -0.443235
-0.314094 -0.050587 -0.441821
-0.316078 -0.052405 -0.437944
-0.317971 -0.053622 -0.435284
-0.319770 -0.054232 -0.433855
-0.321675 -0.055456 -0.431180
-0.323587 -0.056684 -0.428496
-0.325615 -0.058535 -0.424549
-0.328096 -0.062892 -0.415511
0.281571 -0.061402 -0.490913
0.279860 -0.061402 -0.490721
0.277714 -0.060781 -0.491725
0.276005 -0.060781 -0.491533
0.274295 -0.060781 -0.491341
0.272156 -0.060160 -0.492344
0.270448 -0.060160 -0.492152
0.268740 -0.060160 -0.491960
0.266608 -0.059541 -0.492962
0.264902 -0.059541 -0.492770
0.263195 -0.059541 -0.492578
0.261070 -0.058922 -0.493579
0.259365 -0.058922 -0.493387
0.257660 -0.058922 -0.493195
0.255542 -0.058305 -0.494194
0.253838 -0.058305 -0.494002
0.252135 -0.058305 -0.493811
0.250431 -0.058305 -0.493619
0.248728 -0.058305 -0.493428
0.247024 -0.058305 -0.493236
0.244917 -0.057689 -0.494234
0.243215 -0.057689 -0.494043
0.241513 -0.057689 -0.493851
0.239811 -0.057689 -0.493660
0.238109 -0.057689 -0.493468
0.236407 -0.057689 -0.493277
0.234312 -0.057074 -0.494274
0.232612 -0.057074 -0.494083
0.230911 -0.057074 -0.493892
0.229211 -0.057074 -0.493700
0.227510 -0.057074 -0.493509
0.225810 -0.057074 -0.493318
0.223726 -0.056460 -0.494314
0.222027 -0.056460 -0.494123
0.220328 -0.056460 -0.493932
0.219008 -0.057074 -0.492553
0.216930 -0.056460 -0.493550
0.215231 -0.056460 -0.493359
0.213532 -0.056460 -0.493168
0.211833 -0.056460 -0.492976
0.210134 -0.056460 -0.492785
0.208435 -0.056460 -0.492594
0.206368 -0.055847 -0.493590
0.204671 -0.055847 -0.493399
0.202974 -0.055847 -0.493208
0.201276 -0.055847 -0.493018
0.199579 -0.055847 -0.492827
0.197881 -0.055847 -0.492636
0.195826 -0.055236 -0.493631
0.194130 -0.055236 -0.493440
0.192434 -0.055236 -0.493249
0.190738 -0.055236 -0.493059
0.188691 -0.054625 -0.494052
0.186997 -0.054625 -0.493862
0.185302 -0.054625 -0.493671
0.183608 -0.054625 -0.493481
0.181913 -0.054625 -0.493290
0.180219 -0.054625 -0.493099
0.178183 -0.054015 -0.494092
0.176490 -0.054015 -0.493902
0.174797 -0.054015 -0.493712
0.173104 -0.054015 -0.493521
0.171411 -0.054015 -0.493331
0.169719 -0.054015 -0.493140
0.167694 -0.053407 -0.494132
0.166002 -0.053407 -0.493942
0.164311 -0.053407 -0.493752
0.162619 -0.053407 -0.493562
0.160603 -0.052800 -0.494552
0.158913 -0.052800 -0.494362
0.157223 -0.052800 -0.494172
0.155533 -0.052800 -0.493982
0.153843 -0.052800 -0.493792
0.152153 -0.052800 -0.493602
0.150148 -0.052193 -0.494592
0.148459 -0.052193 -0.494402
0.146771 -0.052193 -0.494212
0.145082 -0.052193 -0.494022
0.143394 -0.052193 -0.493832
0.141706 -0.052193 -0.493642
0.139711 -0.051588 -0.494631
0.138024 -0.051588 -0.494441
0.136337 -0.051588 -0.494252
0.134952 -0.052193 -0.492883
0.132964 -0.051588 -0.493872
0.131277 -0.051588 -0.493683
0.129590 -0.051588 -0.493493
0.127903 -0.051588 -0.493303
0.126216 -0.051588 -0.493113
0.124529 -0.051588 -0.492924
0.122551 -0.050984 -0.493912
0.120866 -0.050984 -0.493723
0.119181 -0.050984 -0.493533
0.117495 -0.050984 -0.493344
0.115810 -0.050984 -0.493154
0.114125 -0.050984 -0.492964
0.112158 -0.050381 -0.493952
0.110474 -0.050381 -0.493763
0.108790 -0.050381 -0.493573
0.107106 -0.050381 -0.493384
0.105422 -0.050381 -0.493195
0.103738 -0.050381 -0.493005
0.102055 -0.050381 -0.492816
0.100100 -0.049779 -0.493803
0.098418 -0.049779 -0.493614
0.096735 -0.049779 -0.493424
0.095053 -0.049779 -0.493235
0.093371 -0.049779 -0.493046
0.091688 -0.049779 -0.492857
0.090006 -0.049779 -0.492667
0.088324 -0.049779 -0.492478
0.086641 -0.049779 -0.492289
0.084702 -0.049178 -0.493276
0.083276 -0.049779 -0.491911
0.081594 -0.049779 -0.491721
0.079659 -0.049178 -0.492708
0.077979 -0.049178 -0.492519
0.076049 -0.048578 -0.493505
0.074370 -0.048578 -0.493316
0.072690 -0.048578 -0.493127
0.071011 -0.048578 -0.492938
0.069331 -0.048578 -0.492749
0.067652 -0.048578 -0.492560
0.065972 -0.048578 -0.492371
0.064055 -0.047979 -0.493356
0.062377 -0.047979 -0.493167
0.060699 -0.047979 -0.492979
0.059021 -0.047979 -0.492790
0.057343 -0.047979 -0.492601
0.055665 -0.047979 -0.492413
0.053988 -0.047979 -0.492224
0.052310 -0.047979 -0.492035
0.050632 -0.047979 -0.491846
0.048730 -0.047381 -0.492831
0.047053 -0.047381 -0.492642
0.045377 -0.047381 -0.492454
0.043700 -0.047381 -0.492265
0.042024 -0.047381 -0.492077
0.040347 -0.047381 -0.491888
0.038671 -0.047381 -0.491699
0.036781 -0.046785 -0.492683
0.035106 -0.046785 -0.492495
0.033431 -0.046785 -0.492306
0.031756 -0.046785 -0.492118
0.030081 -0.046785 -0.491929
0.028406 -0.046785 -0.491741
0.026731 -0.046785 -0.491553
0.025056 -0.046785 -0.491364
0.023381 -0.046785 -0.491176
0.021506 -0.046189 -0.492159
0.019833 -0.046189 -0.491971
0.018159 -0.046189 -0.491783
0.016486 -0.046189 -0.491594
0.014812 -0.046189 -0.491406
0.013139 -0.046189 -0.491218
0.011465 -0.046189 -0.491030
0.009603 -0.045594 -0.492012
0.007931 -0.045594 -0.491824
0.006259 -0.045594 -0.491636
0.004587 -0.045594 -0.491448
0.002915 -0.045594 -0.491260
0.001243 -0.045594 -0.491072
-0.000430 -0.045594 -0.490884
-0.002102 -0.045594 -0.490696
-0.003774 -0.045594 -0.490508
-0.005621 -0.045001 -0.491490
-0.007292 -0.045001 -0.491302
-0.008962 -0.045001 -0.491114
-0.010633 -0.045001 -0.490926
-0.012303 -0.045001 -0.490738
-0.013974 -0.045001 -0.490550
-0.015645 -0.045001 -0.490363
-0.017480 -0.044408 -0.491344
-0.019149 -0.044408 -0.491156
-0.020818 -0.044408 -0.490968
-0.022487 -0.044408 -0.490781
-0.024156 -0.044408 -0.490593
-0.025826 -0.044408 -0.490405
-0.027495 -0.044408 -0.490217
-0.029318 -0.043817 -0.491198
-0.030986 -0.043817 -0.491011
-0.032805 -0.043226 -0.491990
-0.034471 -0.043226 -0.491802
-0.036137 -0.043226 -0.491615
-0.037803 -0.043226 -0.491427
-0.039469 -0.043226 -0.491240
-0.041136 -0.043226 -0.491053
-0.042802 -0.043226 -0.490865
-0.044609 -0.042637 -0.491843
-0.046273 -0.042637 -0.491656
-0.047938 -0.042637 -0.491469
-0.049603 -0.042637 -0.491282
-0.051267 -0.042637 -0.491094
-0.052932 -0.042637 -0.490907
-0.054597 -0.042637 -0.490720
-0.056262 -0.042637 -0.490533
-0.057926 -0.042637 -0.490346
-0.059718 -0.042048 -0.491323
-0.061382 -0.042048 -0.491136
-0.063045 -0.042048 -0.490949
-0.064708 -0.042048 -0.490762
-0.066372 -0.042048 -0.490575
-0.068035 -0.042048 -0.490388
-0.069698 -0.042048 -0.490201
-0.071478 -0.041461 -0.491178
-0.073140 -0.041461 -0.490991
-0.074802 -0.041461 -0.490804
-0.076464 -0.041461 -0.490617
-0.078125 -0.041461 -0.490431
-0.079787 -0.041461 -0.490244
-0.081449 -0.041461 -0.490057
-0.083111 -0.041461 -0.489870
-0.084878 -0.040875 -0.490846
-0.086538 -0.040875 -0.490660
-0.088199 -0.040875 -0.490473
-0.089859 -0.040875 -0.490286
-0.091519 -0.040875 -0.490099
-0.093180 -0.040875 -0.489913
-0.094840 -0.040875 -0.489726
-0.096500 -0.040875 -0.489539
-0.098254 -0.040289 -0.490515
-0.099913 -0.040289 -0.490329
-0.101572 -0.040289 -0.490142
-0.103231 -0.040289 -0.489956
-0.104890 -0.040289 -0.489769
-0.106549 -0.040289 -0.489582
-0.108208 -0.040289 -0.489396
-0.109866 -0.040289 -0.489209
-0.111607 -0.039705 -0.490185
-0.113265 -0.039705 -0.489998
-0.114922 -0.039705 -0.489812
-0.116579 -0.039705 -0.489625
-0.118237 -0.039705 -0.489439
-0.119894 -0.039705 -0.489253
-0.121552 -0.039705 -0.489066
-0.123209 -0.039705 -0.488880
-0.124937 -0.039122 -0.489855
-0.126593 -0.039122 -0.489668
-0.128249 -0.039122 -0.489482
-0.129905 -0.039122 -0.489296
-0.131561 -0.039122 -0.489110
-0.133217 -0.039122 -0.488923
-0.134873 -0.039122 -0.488737
-0.136529 -0.039122 -0.488551
-0.138243 -0.038540 -0.489525
-0.139898 -0.038540 -0.489339
-0.141552 -0.038540 -0.489153
-0.143207 -0.038540 -0.488967
-0.144861 -0.038540 -0.488781
-0.146516 -0.038540 -0.488595
-0.148171 -0.038540 -0.488409
-0.149825 -0.038540 -0.488223
-0.151526 -0.037958 -0.489196
-0.153180 -0.037958 -0.489010
-0.154833 -0.037958 -0.488825
-0.156486 -0.037958 -0.488639
-0.158139 -0.037958 -0.488453
-0.159792 -0.037958 -0.488267
-0.161445 -0.037958 -0.488081
-0.163098 -0.037958 -0.487895
-0.164787 -0.037378 -0.488868
-0.166438 -0.037378 -0.488682
-0.168090 -0.037378 -0.488497
-0.169742 -0.037378 -0.488311
-0.171393 -0.037378 -0.488125
-0.173045 -0.037378 -0.487939
-0.174697 -0.037378 -0.487754
-0.176349 -0.037378 -0.487568
-0.178000 -0.037378 -0.487382
-0.179674 -0.036799 -0.488355
-0.181324 -0.036799 -0.488169
-0.182975 -0.036799 -0.487984
-0.184625 -0.036799 -0.487798
-0.186275 -0.036799 -0.487612
-0.187926 -0.036799 -0.487427
-0.189576 -0.036799 -0.487241
-0.191238 -0.036221 -0.488213
-0.192887 -0.036221 -0.488028
-0.194536 -0.036221 -0.487842
-0.196185 -0.036221 -0.487657
-0.197833 -0.036221 -0.487471
-0.199482 -0.036221 -0.487286
-0.201131 -0.036221 -0.487101
-0.202780 -0.036221 -0.486915
-0.204429 -0.036221 -0.486730
-0.206077 -0.035643 -0.487701
-0.207724 -0.035643 -0.487516
-0.209375 -0.036221 -0.486173
-0.211024 -0.036221 -0.485988
-0.212673 -0.036221 -0.485802
-0.214322 -0.036221 -0.485617
-0.215961 -0.035643 -0.486590
-0.217609 -0.035643 -0.486404
-0.219256 -0.035643 -0.486219
-0.220904 -0.035643 -0.486034
-0.222551 -0.035643 -0.485849
-0.224198 -0.035643 -0.485663
-0.225846 -0.035643 -0.485478
-0.227493 -0.035643 -0.485293
-0.229141 -0.035643 -0.485107
-0.230788 -0.035643 -0.484922
-0.232435 -0.035643 -0.484737
-0.234058 -0.035067 -0.485709
-0.235704 -0.035067 -0.485524
-0.237350 -0.035067 -0.485339
-0.238996 -0.035067 -0.485154
-0.240672 -0.035643 -0.483810
-0.242320 -0.035643 -0.483625
-0.243967 -0.035643 -0.483440
-0.245650 -0.036221 -0.482093
-0.247299 -0.036221 -0.481908
-0.248947 -0.036221 -0.481723
-0.250636 -0.036799 -0.480374
-0.252286 -0.036799 -0.480188
-0.253936 -0.036799 -0.480002
-0.255630 -0.037378 -0.478651
-0.257282 -0.037378 -0.478465
-0.258934 -0.037378 -0.478279
-0.260634 -0.037958 -0.476925
-0.262287 -0.037958 -0.476739
-0.263991 -0.038540 -0.475382
-0.265698 -0.039122 -0.474023
-0.267354 -0.039122 -0.473837
-0.269010 -0.039122 -0.473650
-0.270724 -0.039705 -0.472288
-0.272381 -0.039705 -0.472102
-0.274099 -0.040289 -0.470738
-0.275757 -0.040289 -0.470551
-0.277479 -0.040875 -0.469184
-0.279140 -0.040875 -0.468997
-0.280866 -0.041461 -0.467628
-0.282596 -0.042048 -0.466256
-0.284328 -0.042637 -0.464881
-0.286064 -0.043226 -0.463505
-0.287802 -0.043817 -0.462126
-0.289544 -0.044408 -0.460744
-0.291289 -0.045001 -0.459360
-0.293037 -0.045594 -0.457974
-0.294788 -0.046189 -0.456585
-0.296622 -0.047381 -0.453988
-0.298381 -0.047979 -0.452592
-0.300142 -0.048578 -0.451193
-0.301907 -0.049178 -0.449792
-0.303675 -0.049779 -0.448389
-0.305447 -0.050381 -0.446983
-0.307221 -0.050984 -0.445574
-0.308998 -0.051588 -0.444164
-0.310779 -0.052193 -0.442750
-0.312658 -0.053407 -0.440106
-0.314544 -0.054625 -0.437452
-0.316437 -0.055847 -0.434789
-0.318336 -0.057074 -0.432116
-0.320243 -0.058305 -0.429434
-0.322156 -0.059541 -0.426742
-0.324398 -0.062649 -0.420259
-0.330520 -0.087892 -0.368970
0.279798 -0.063031 -0.491277
0.278086 -0.063031 -0.491085
0.276375 -0.063031 -0.490892
0.274233 -0.062408 -0.491897
0.272523 -0.062408 -0.491705
0.270813 -0.062408 -0.491512
0.268678 -0.061786 -0.492516
0.266970 -0.061786 -0.492323
0.265261 -0.061786 -0.492131
0.263133 -0.061165 -0.493133
0.261426 -0.061165 -0.492941
0.259719 -0.061165 -0.492749
0.257597 -0.060545 -0.493750
0.255892 -0.060545 -0.493558
0.254187 -0.060545 -0.493366
0.252482 -0.060545 -0.493174
0.250369 -0.059926 -0.494173
0.248665 -0.059926 -0.493982
0.246962 -0.059926 -0.493790
0.245258 -0.059926 -0.493598
0.243555 -0.059926 -0.493407
0.241851 -0.059926 -0.493215
0.239749 -0.059309 -0.494213
0.238047 -0.059309 -0.494022
0.236345 -0.059309 -0.493831
0.234643 -0.059309 -0.493639
0.232941 -0.059309 -0.493448
0.231239 -0.059309 -0.493256
0.229148 -0.058692 -0.494253
0.227448 -0.058692 -0.494062
0.225748 -0.058692 -0.493871
0.224047 -0.058692 -0.493680
0.222347 -0.058692 -0.493488
0.220646 -0.058692 -0.493297
0.218946 -0.058692 -0.493106
0.217245 -0.058692 -0.492915
0.215545 -0.058692 -0.492723
0.213844 -0.058692 -0.492532
0.211771 -0.058077 -0.493529
0.210072 -0.058077 -0.493338
0.208373 -0.058077 -0.493147
0.206674 -0.058077 -0.492956
0.204975 -0.058077 -0.492765
0.203276 -0.058077 -0.492574
0.201214 -0.057463 -0.493570
0.199517 -0.057463 -0.493379
0.197819 -0.057463 -0.493188
0.196122 -0.057463 -0.492997
0.194424 -0.057463 -0.492806
0.192727 -0.057463 -0.492615
0.190676 -0.056849 -0.493610
0.188980 -0.056849 -0.493419
0.187284 -0.056849 -0.493229
0.185588 -0.056849 -0.493038
0.183546 -0.056237 -0.494032
0.181851 -0.056237 -0.493841
0.180157 -0.056237 -0.493651
0.178463 -0.056237 -0.493460
0.176768 -0.056237 -0.493269
0.175074 -0.056237 -0.493079
0.173042 -0.055626 -0.494072
0.171349 -0.055626 -0.493881
0.169657 -0.055626 -0.493691
0.167964 -0.055626 -0.493501
0.166271 -0.055626 -0.493310
0.164578 -0.055626 -0.493120
0.162558 -0.055016 -0.494112
0.160866 -0.055016 -0.493922
0.159175 -0.055016 -0.493731
0.157483 -0.055016 -0.493541
0.155471 -0.054408 -0.494532
0.153781 -0.054408 -0.494342
0.152091 -0.054408 -0.494152
0.150402 -0.054408 -0.493962
0.148712 -0.054408 -0.493772
0.147022 -0.054408 -0.493581
0.145021 -0.053800 -0.494571
0.143332 -0.053800 -0.494381
0.141644 -0.053800 -0.494191
0.139956 -0.053800 -0.494002
0.138267 -0.053800 -0.493812
0.136579 -0.053800 -0.493622
0.134890 -0.053800 -0.493432
0.133202 -0.053800 -0.493242
0.131514 -0.053800 -0.493052
0.129825 -0.053800 -0.492862
0.127841 -0.053193 -0.493852
0.126154 -0.053193 -0.493662
0.124467 -0.053193 -0.493472
0.122781 -0.053193 -0.493283
0.121094 -0.053193 -0.493093
0.119407 -0.053193 -0.492903
0.117434 -0.052588 -0.493892
0.115748 -0.052588 -0.493702
0.114063 -0.052588 -0.493513
0.112378 -0.052588 -0.493323
0.110692 -0.052588 -0.493134
0.109007 -0.052588 -0.492944
0.107045 -0.051983 -0.493932
0.105361 -0.051983 -0.493742
0.103677 -0.051983 -0.493553
0.101993 -0.051983 -0.493364
0.100309 -0.051983 -0.493174
0.098625 -0.051983 -0.492985
0.096941 -0.051983 -0.492795
0.095257 -0.051983 -0.492606
0.093309 -0.051380 -0.493593
0.091627 -0.051380 -0.493404
0.089944 -0.051380 -0.493215
0.088262 -0.051380 -0.493025
0.086580 -0.051380 -0.492836
0.084897 -0.051380 -0.492647
0.083215 -0.051380 -0.492458
0.081532 -0.051380 -0.492269
0.079598 -0.050777 -0.493255
0.077917 -0.050777 -0.493066
0.076236 -0.050777 -0.492877
0.074555 -0.050777 -0.492688
0.072874 -0.050777 -0.492499
0.070949 -0.050176 -0.493484
0.069270 -0.050176 -0.493296
0.067590 -0.050176 -0.493107
0.065911 -0.050176 -0.492918
0.064232 -0.050176 -0.492729
0.062552 -0.050176 -0.492540
0.060873 -0.050176 -0.492351
0.058960 -0.049576 -0.493336
0.057282 -0.049576 -0.493147
0.055604 -0.049576 -0.492958
0.053926 -0.049576 -0.492770
0.052248 -0.049576 -0.492581
0.050570 -0.049576 -0.492392
0.048892 -0.049576 -0.492204
0.047214 -0.049576 -0.492015
0.045536 -0.049576 -0.491826
0.043639 -0.048977 -0.492810
0.041962 -0.048977 -0.492622
0.040286 -0.048977 -0.492433
0.038609 -0.048977 -0.492245
0.036933 -0.048977 -0.492056
0.035257 -0.048977 -0.491868
0.033580 -0.048977 -0.491679
0.031695 -0.048378 -0.492663
0.030020 -0.048378 -0.492474
0.028345 -0.048378 -0.492286
0.026670 -0.048378 -0.492098
0.024995 -0.048378 -0.491909
0.023320 -0.048378 -0.491721
0.021645 -0.048378 -0.491532
0.019970 -0.048378 -0.491344
0.018295 -0.048378 -0.491156
0.016425 -0.047781 -0.492139
0.014751 -0.047781 -0.491951
0.013078 -0.047781 -0.491762
0.011404 -0.047781 -0.491574
0.009731 -0.047781 -0.491386
0.008057 -0.047781 -0.491198
0.006384 -0.047781 -0.491009
0.004525 -0.047185 -0.491992
0.002853 -0.047185 -0.491804
0.001181 -0.047185 -0.491616
-0.000491 -0.047185 -0.491428
-0.002163 -0.047185 -0.491240
-0.003835 -0.047185 -0.491052
-0.005507 -0.047185 -0.490864
-0.007179 -0.047185 -0.490676
-0.008851 -0.047185 -0.490488
-0.010694 -0.046590 -0.491470
-0.012365 -0.046590 -0.491282
-0.014035 -0.046590 -0.491094
-0.015706 -0.046590 -0.490906
-0.017376 -0.046590 -0.490718
-0.019047 -0.046590 -0.490530
-0.020717 -0.046590 -0.490342
-0.022548 -0.045996 -0.491324
-0.024218 -0.045996 -0.491136
-0.025887 -0.045996 -0.490948
-0.027556 -0.045996 -0.490760
-0.029379 -0.045404 -0.491741
-0.031047 -0.045404 -0.491553
-0.032714 -0.045404 -0.491365
-0.034382 -0.045404 -0.491178
-0.036050 -0.045404 -0.490990
-0.037864 -0.044812 -0.491969
-0.039530 -0.044812 -0.491782
-0.041196 -0.044812 -0.491594
-0.042863 -0.044812 -0.491407
-0.044529 -0.044812 -0.491220
-0.046195 -0.044812 -0.491032
-0.047861 -0.044812 -0.490845
-0.049664 -0.044221 -0.491823
-0.051328 -0.044221 -0.491636
-0.052993 -0.044221 -0.491449
-0.054658 -0.044221 -0.491262
-0.056323 -0.044221 -0.491074
-0.057987 -0.044221 -0.490887
-0.059652 -0.044221 -0.490700
-0.061317 -0.044221 -0.490513
-0.062981 -0.044221 -0.490325
-0.064769 -0.043631 -0.491303
-0.066432 -0.043631 -0.491116
-0.068096 -0.043631 -0.490929
-0.069759 -0.043631 -0.490742
-0.071422 -0.043631 -0.490555
-0.073085 -0.043631 -0.490368
-0.074749 -0.043631 -0.490181
-0.076412 -0.043631 -0.489994
-0.078186 -0.043042 -0.490971
-0.079848 -0.043042 -0.490784
-0.081510 -0.043042 -0.490597
-0.083172 -0.043042 -0.490410
-0.084834 -0.043042 -0.490223
-0.086495 -0.043042 -0.490037
-0.088157 -0.043042 -0.489850
-0.089819 -0.043042 -0.489663
-0.091580 -0.042455 -0.490640
-0.093240 -0.042455 -0.490453
-0.094901 -0.042455 -0.490266
-0.096561 -0.042455 -0.490079
-0.098221 -0.042455 -0.489893
-0.099882 -0.042455 -0.489706
-0.101542 -0.042455 -0.489519
-0.103203 -0.042455 -0.489332
-0.104950 -0.041868 -0.490309
-0.106609 -0.041868 -0.490122
-0.108268 -0.041868 -0.489935
-0.109927 -0.041868 -0.489749
-0.111586 -0.041868 -0.489562
-0.113245 -0.041868 -0.489376
-0.114904 -0.041868 -0.489189
-0.116563 -0.041868 -0.489003
-0.118298 -0.041282 -0.489978
-0.119955 -0.041282 -0.489792
-0.121612 -0.041282 -0.489605
-0.123270 -0.041282 -0.489419
-0.124927 -0.041282 -0.489233
-0.126585 -0.041282 -0.489046
-0.128242 -0.041282 -0.488860
-0.129900 -0.041282 -0.488673
-0.131621 -0.040698 -0.489648
-0.133277 -0.040698 -0.489462
-0.134933 -0.040698 -0.489276
-0.136589 -0.040698 -0.489090
-0.138245 -0.040698 -0.488903
-0.139901 -0.040698 -0.488717
-0.141557 -0.040698 -0.488531
-0.143213 -0.040698 -0.488345
-0.144922 -0.040114 -0.489319
-0.146577 -0.040114 -0.489133
-0.148231 -0.040114 -0.488947
-0.149886 -0.040114 -0.488761
-0.151540 -0.040114 -0.488575
-0.153195 -0.040114 -0.488389
-0.154849 -0.040114 -0.488202
-0.156504 -0.040114 -0.488016
-0.158199 -0.039531 -0.488990
-0.159853 -0.039531 -0.488804
-0.161506 -0.039531 -0.488619
-0.163159 -0.039531 -0.488433
-0.164812 -0.039531 -0.488247
-0.166465 -0.039531 -0.488061
-0.168118 -0.039531 -0.487875
-0.169771 -0.039531 -0.487689
-0.171454 -0.038950 -0.488662
-0.173106 -0.038950 -0.488477
-0.174757 -0.038950 -0.488291
-0.176409 -0.038950 -0.488105
-0.178061 -0.038950 -0.487919
-0.179712 -0.038950 -0.487733
-0.181364 -0.038950 -0.487548
-0.183016 -0.038950 -0.487362
-0.184668 -0.038950 -0.487176
-0.186336 -0.038369 -0.488149
-0.187986 -0.038369 -0.487964
-0.189636 -0.038369 -0.487778
-0.191286 -0.038369 -0.487592
-0.192937 -0.038369 -0.487407
-0.194587 -0.038369 -0.487221
-0.196237 -0.038369 -0.487035
-0.197894 -0.037790 -0.488008
-0.199543 -0.037790 -0.487822
-0.201191 -0.037790 -0.487637
-0.202840 -0.037790 -0.487451
-0.204489 -0.037790 -0.487266
-0.206138 -0.037790 -0.487081
-0.207787 -0.037790 -0.486895
-0.209436 -0.037790 -0.486710
-0.211085 -0.037790 -0.486524
-0.212733 -0.037790 -0.486339
-0.214382 -0.037790 -0.486153
-0.216031 -0.037790 -0.485968
-0.217680 -0.037790 -0.485782
-0.219329 -0.037790 -0.485597
-0.220978 -0.037790 -0.485412
-0.222626 -0.037790 -0.485226
-0.224275 -0.037790 -0.485041
-0.225924 -0.037790 -0.484855
-0.227553 -0.037211 -0.485829
-0.229201 -0.037211 -0.485643
-0.230848 -0.037211 -0.485458
-0.232496 -0.037211 -0.485273
-0.234143 -0.037211 -0.485087
-0.235791 -0.037211 -0.484902
-0.237438 -0.037211 -0.484717
-0.239115 -0.037790 -0.483372
-0.240764 -0.037790 -0.483186
-0.242412 -0.037790 -0.483001
-0.244061 -0.037790 -0.482815
-0.245745 -0.038369 -0.481467
-0.247396 -0.038369 -0.481282
-0.249046 -0.038369 -0.481096
-0.250736 -0.038950 -0.479745
-0.252387 -0.038950 -0.479559
-0.254039 -0.038950 -0.479374
-0.255691 -0.038950 -0.479188
-0.257388 -0.039531 -0.477834
-0.259088 -0.040114 -0.476478
-0.260742 -0.040114 -0.476292
-0.262447 -0.040698 -0.474934
-0.264103 -0.040698 -0.474748
-0.265812 -0.041282 -0.473387
-0.267469 -0.041282 -0.473200
-0.269127 -0.041282 -0.473014
-0.270841 -0.041868 -0.471650
-0.272500 -0.041868 -0.471464
-0.274220 -0.042455 -0.470098
-0.275880 -0.042455 -0.469911
-0.277603 -0.043042 -0.468542
-0.279265 -0.043042 -0.468355
-0.281060 -0.044221 -0.465797
-0.282792 -0.044812 -0.464421
-0.284528 -0.045404 -0.463043
-0.286267 -0.045996 -0.461662
-0.288009 -0.046590 -0.460279
-0.289754 -0.047185 -0.458894
-0.291502 -0.047781 -0.457505
-0.293253 -0.048378 -0.456115
-0.295007 -0.048977 -0.454722
-0.296845 -0.050176 -0.452118
-0.298607 -0.050777 -0.450717
-0.300372 -0.051380 -0.449315
-0.302140 -0.051983 -0.447909
-0.303912 -0.052588 -0.446502
-0.305686 -0.053193 -0.445092
-0.307464 -0.053800 -0.443679
-0.309245 -0.054408 -0.442264
-0.311123 -0.055626 -0.439616
-0.313008 -0.056849 -0.436959
-0.314900 -0.058077 -0.434293
-0.316798 -0.059309 -0.431617
-0.318703 -0.060545 -0.428931
-0.320823 -0.063031 -0.423724
-0.323386 -0.068057 -0.413389
0.276313 -0.064659 -0.491449
0.274602 -0.064659 -0.491257
0.272890 -0.064659 -0.491064
0.270751 -0.064034 -0.492068
0.269041 -0.064034 -0.491876
0.267332 -0.064034 -0.491684
0.265199 -0.063411 -0.492687
0.263491 -0.063411 -0.492495
0.261783 -0.063411 -0.492303
0.260075 -0.063411 -0.492111
0.257950 -0.062789 -0.493112
0.256244 -0.062789 -0.492920
0.254125 -0.062167 -0.493921
0.252420 -0.062167 -0.493729
0.250715 -0.062167 -0.493537
0.249010 -0.062167 -0.493345
0.246899 -0.061547 -0.494344
0.245196 -0.061547 -0.494153
0.243492 -0.061547 -0.493961
0.241789 -0.061547 -0.493769
0.240085 -0.061547 -0.493578
0.238382 -0.061547 -0.493386
0.236678 -0.061547 -0.493195
0.234581 -0.060928 -0.494193
0.232879 -0.060928 -0.494001
0.231177 -0.060928 -0.493810
0.229475 -0.060928 -0.493618
0.227773 -0.060928 -0.493427
0.226071 -0.060928 -0.493236
0.223985 -0.060310 -0.494233
0.222284 -0.060310 -0.494042
0.220584 -0.060310 -0.493850
0.219263 -0.060928 -0.492470
0.217183 -0.060310 -0.493468
0.215483 -0.060310 -0.493277
0.213782 -0.060310 -0.493085
0.212082 -0.060310 -0.492894
0.210381 -0.060310 -0.492703
0.208681 -0.060310 -0.492512
0.206612 -0.059694 -0.493508
0.204913 -0.059694 -0.493317
0.203214 -0.059694 -0.493126
0.201515 -0.059694 -0.492935
0.199816 -0.059694 -0.492744
0.198117 -0.059694 -0.492553
0.196060 -0.059078 -0.493549
0.194362 -0.059078 -0.493358
0.192665 -0.059078 -0.493167
0.190968 -0.059078 -0.492976
0.188918 -0.058463 -0.493971
0.187222 -0.058463 -0.493780
0.185526 -0.058463 -0.493590
0.183831 -0.058463 -0.493399
0.182135 -0.058463 -0.493208
0.180439 -0.058463 -0.493017
0.178401 -0.057850 -0.494011
0.176706 -0.057850 -0.493821
0.175012 -0.057850 -0.493630
0.173317 -0.057850 -0.493439
0.171623 -0.057850 -0.493249
0.169929 -0.057850 -0.493058
0.167902 -0.057237 -0.494051
0.166209 -0.057237 -0.493861
0.164516 -0.057237 -0.493670
0.162823 -0.057237 -0.493480
0.160804 -0.056626 -0.494472
0.159113 -0.056626 -0.494281
0.157422 -0.056626 -0.494091
0.155730 -0.056626 -0.493901
0.154039 -0.056626 -0.493711
0.152347 -0.056626 -0.493521
0.150340 -0.056016 -0.494511
0.148650 -0.056016 -0.494321
0.146960 -0.056016 -0.494131
0.145270 -0.056016 -0.493941
0.143580 -0.056016 -0.493751
0.141890 -0.056016 -0.493561
0.139894 -0.055406 -0.494551
0.138205 -0.055406 -0.494361
0.136517 -0.055406 -0.494171
0.135131 -0.056016 -0.492801
0.133140 -0.055406 -0.493791
0.131452 -0.055406 -0.493601
0.129764 -0.055406 -0.493411
0.128075 -0.055406 -0.493222
0.126387 -0.055406 -0.493032
0.124698 -0.055406 -0.492842
0.122719 -0.054798 -0.493831
0.121032 -0.054798 -0.493642
0.119345 -0.054798 -0.493452
0.117658 -0.054798 -0.493262
0.115971 -0.054798 -0.493072
0.114284 -0.054798 -0.492883
0.112316 -0.054191 -0.493871
0.110631 -0.054191 -0.493682
0.108945 -0.054191 -0.493492
0.107260 -0.054191 -0.493303
0.105574 -0.054191 -0.493113
0.103889 -0.054191 -0.492924
0.101931 -0.053585 -0.493911
0.100247 -0.053585 -0.493722
0.098564 -0.053585 -0.493533
0.096880 -0.053585 -0.493343
0.095196 -0.053585 -0.493154
0.093512 -0.053585 -0.492964
0.091828 -0.053585 -0.492775
0.090144 -0.053585 -0.492586
0.088460 -0.053585 -0.492396
0.086518 -0.052981 -0.493383
0.084836 -0.052981 -0.493194
0.083153 -0.052981 -0.493005
0.081471 -0.052981 -0.492816
0.079788 -0.052981 -0.492627
0.077856 -0.052377 -0.493613
0.076175 -0.052377 -0.493424
0.074494 -0.052377 -0.493235
0.072813 -0.052377 -0.493046
0.071132 -0.052377 -0.492857
0.069451 -0.052377 -0.492668
0.067770 -0.052377 -0.492479
0.065850 -0.051774 -0.493464
0.064170 -0.051774 -0.493275
0.062491 -0.051774 -0.493086
0.060811 -0.051774 -0.492897
0.059132 -0.051774 -0.492709
0.057452 -0.051774 -0.492520
0.055773 -0.051774 -0.492331
0.053865 -0.051172 -0.493315
0.052414 -0.051774 -0.491953
0.050509 -0.051172 -0.492938
0.048831 -0.051172 -0.492749
0.047153 -0.051172 -0.492561
0.045475 -0.051172 -0.492372
0.043797 -0.051172 -0.492183
0.042119 -0.051172 -0.491994
0.040441 -0.051172 -0.491806
0.038548 -0.050572 -0.492790
0.036872 -0.050572 -0.492602
0.035195 -0.050572 -0.492413
0.033519 -0.050572 -0.492224
0.031842 -0.050572 -0.492036
0.030166 -0.050572 -0.491847
0.028489 -0.050572 -0.491659
0.026609 -0.049972 -0.492642
0.025136 -0.050572 -0.491282
0.023259 -0.049972 -0.492266
0.021584 -0.049972 -0.492077
0.019909 -0.049972 -0.491889
0.018234 -0.049972 -0.491700
0.016559 -0.049972 -0.491512
0.014884 -0.049972 -0.491324
0.013209 -0.049972 -0.491135
0.011343 -0.049374 -0.492119
0.009669 -0.049374 -0.491930
0.007996 -0.049374 -0.491742
0.006322 -0.049374 -0.491554
0.004649 -0.049374 -0.491366
0.002975 -0.049374 -0.491177
0.001302 -0.049374 -0.490989
-0.000552 -0.048776 -0.491972
-0.002045 -0.049374 -0.490613
-0.003896 -0.048776 -0.491596
-0.005568 -0.048776 -0.491408
-0.007240 -0.048776 -0.491219
-0.008912 -0.048776 -0.491031
-0.010584 -0.048776 -0.490843
-0.012256 -0.048776 -0.490655
-0.013928 -0.048776 -0.490467
-0.015767 -0.048180 -0.491449
-0.017437 -0.048180 -0.491261
-0.019108 -0.048180 -0.491074
-0.020779 -0.048180 -0.490886
-0.022449 -0.048180 -0.490698
-0.024120 -0.048180 -0.490510
-0.025790 -0.048180 -0.490322
-0.027617 -0.047585 -0.491303
-0.029286 -0.047585 -0.491116
-0.031108 -0.046990 -0.492095
-0.032775 -0.046990 -0.491908
-0.034443 -0.046990 -0.491720
-0.036111 -0.046990 -0.491533
-0.037778 -0.046990 -0.491345
-0.039446 -0.046990 -0.491158
-0.041114 -0.046990 -0.490970
-0.042924 -0.046397 -0.491949
-0.044590 -0.046397 -0.491762
-0.046256 -0.046397 -0.491574
-0.047922 -0.046397 -0.491387
-0.049588 -0.046397 -0.491199
-0.051255 -0.046397 -0.491012
-0.052921 -0.046397 -0.490825
-0.054719 -0.045805 -0.491803
-0.056253 -0.046397 -0.490450
-0.058048 -0.045805 -0.491429
-0.059713 -0.045805 -0.491241
-0.061378 -0.045805 -0.491054
-0.063042 -0.045805 -0.490867
-0.064707 -0.045805 -0.490680
-0.066372 -0.045805 -0.490492
-0.068036 -0.045805 -0.490305
-0.069701 -0.045805 -0.490118
-0.071483 -0.045214 -0.491096
-0.073146 -0.045214 -0.490909
-0.074810 -0.045214 -0.490722
-0.076473 -0.045214 -0.490535
-0.078136 -0.045214 -0.490348
-0.079799 -0.045214 -0.490161
-0.081463 -0.045214 -0.489974
-0.083126 -0.045214 -0.489787
-0.084894 -0.044624 -0.490764
-0.086556 -0.044624 -0.490577
-0.088218 -0.044624 -0.490390
-0.089880 -0.044624 -0.490203
-0.091542 -0.044624 -0.490016
-0.093203 -0.044624 -0.489830
-0.094865 -0.044624 -0.489643
-0.096527 -0.044624 -0.489456
-0.098282 -0.044035 -0.490433
-0.099943 -0.044035 -0.490246
-0.101603 -0.044035 -0.490059
-0.103263 -0.044035 -0.489872
-0.104924 -0.044035 -0.489686
-0.106584 -0.044035 -0.489499
-0.108244 -0.044035 -0.489312
-0.109905 -0.044035 -0.489125
-0.111647 -0.043447 -0.490102
-0.113306 -0.043447 -0.489915
-0.114965 -0.043447 -0.489729
-0.116624 -0.043447 -0.489542
-0.118282 -0.043447 -0.489356
-0.119941 -0.043447 -0.489169
-0.121600 -0.043447 -0.488982
-0.123259 -0.043447 -0.488796
-0.124988 -0.042859 -0.489772
-0.126645 -0.042859 -0.489585
-0.128303 -0.042859 -0.489399
-0.129960 -0.042859 -0.489212
-0.131618 -0.042859 -0.489026
-0.133275 -0.042859 -0.488840
-0.134933 -0.042859 -0.488653
-0.136590 -0.042859 -0.488467
-0.138306 -0.042273 -0.489442
-0.139962 -0.042273 -0.489256
-0.141618 -0.042273 -0.489069
-0.143274 -0.042273 -0.488883
-0.144930 -0.042273 -0.488697
-0.146586 -0.042273 -0.488511
-0.148242 -0.042273 -0.488324
-0.149898 -0.042273 -0.488138
-0.151601 -0.041688 -0.489113
-0.153255 -0.041688 -0.488927
-0.154910 -0.041688 -0.488741
-0.156565 -0.041688 -0.488555
-0.158219 -0.041688 -0.488369
-0.159874 -0.041688 -0.488182
-0.161528 -0.041688 -0.487996
-0.163183 -0.041688 -0.487810
-0.164873 -0.041104 -0.488784
-0.166526 -0.041104 -0.488598
-0.168179 -0.041104 -0.488413
-0.169832 -0.041104 -0.488227
-0.171485 -0.041104 -0.488041
-0.173138 -0.041104 -0.487855
-0.174791 -0.041104 -0.487669
-0.176445 -0.041104 -0.487483
-0.178121 -0.040521 -0.488456
-0.179773 -0.040521 -0.488271
-0.181425 -0.040521 -0.488085
-0.183076 -0.040521 -0.487899
-0.184728 -0.040521 -0.487713
-0.186380 -0.040521 -0.487528
-0.188031 -0.040521 -0.487342
-0.189683 -0.040521 -0.487156
-0.191347 -0.039939 -0.488129
-0.192997 -0.039939 -0.487944
-0.194647 -0.039939 -0.487758
-0.196298 -0.039939 -0.487572
-0.197948 -0.039939 -0.487387
-0.199598 -0.039939 -0.487201
-0.201248 -0.039939 -0.487015
-0.202899 -0.039939 -0.486830
-0.204549 -0.039359 -0.487802
-0.206199 -0.039939 -0.486459
-0.207849 -0.039939 -0.486273
-0.209500 -0.039939 -0.486087
-0.211150 -0.039939 -0.485902
-0.212800 -0.039939 -0.485716
-0.214451 -0.039939 -0.485531
-0.216091 -0.039359 -0.486504
-0.217740 -0.039359 -0.486319
-0.219401 -0.039939 -0.484974
-0.221038 -0.039359 -0.485948
-0.222687 -0.039359 -0.485762
-0.224336 -0.039359 -0.485577
-0.225984 -0.039359 -0.485392
-0.227633 -0.039359 -0.485206
-0.229282 -0.039359 -0.485021
-0.230931 -0.039359 -0.484835
-0.232556 -0.038779 -0.485809
-0.234203 -0.038779 -0.485623
-0.235851 -0.038779 -0.485438
-0.237526 -0.039359 -0.484093
-0.239175 -0.039359 -0.483908
-0.240855 -0.039939 -0.482561
-0.242505 -0.039939 -0.482375
-0.244155 -0.039939 -0.482190
-0.245806 -0.039939 -0.482004
-0.247493 -0.040521 -0.480654
-0.249144 -0.040521 -0.480468
-0.250796 -0.040521 -0.480283
-0.252489 -0.041104 -0.478930
-0.254142 -0.041104 -0.478744
-0.255839 -0.041688 -0.477389
-0.257494 -0.041688 -0.477203
-0.259195 -0.042273 -0.475845
-0.260851 -0.042273 -0.475659
-0.262557 -0.042859 -0.474299
-0.264215 -0.042859 -0.474112
-0.265925 -0.043447 -0.472750
-0.267584 -0.043447 -0.472563
-0.269243 -0.043447 -0.472377
-0.270960 -0.044035 -0.471011
-0.272620 -0.044035 -0.470824
-0.274341 -0.044624 -0.469456
-0.276002 -0.044624 -0.469270
-0.277728 -0.045214 -0.467899
-0.279456 -0.045805 -0.466526
-0.281254 -0.046990 -0.463961
-0.282990 -0.047585 -0.462581
-0.284729 -0.048180 -0.461198
-0.286471 -0.048776 -0.459814
-0.288216 -0.049374 -0.458426
-0.289964 -0.049972 -0.457036
-0.291715 -0.050572 -0.455644
-0.293470 -0.051172 -0.454250
-0.295227 -0.051774 -0.452853
-0.296988 -0.052377 -0.451453
-0.298751 -0.052981 -0.450051
-0.300603 -0.054191 -0.447429
-0.302374 -0.054798 -0.446020
-0.304149 -0.055406 -0.444608
-0.305927 -0.056016 -0.443194
-0.307799 -0.057237 -0.440548
-0.309678 -0.058463 -0.437892
-0.311564 -0.059694 -0.435228
-0.313359 -0.060310 -0.433796
-0.315257 -0.061547 -0.431117
-0.317262 -0.063411 -0.427176
-0.319794 -0.068430 -0.416885
0.274971 -0.066915 -0.490615
0.272828 -0.066287 -0.491621
0.271117 -0.066287 -0.491428
0.269405 -0.066287 -0.491236
0.267269 -0.065661 -0.492240
0.265559 -0.065661 -0.492048
0.263850 -0.065661 -0.491855
0.261720 -0.065036 -0.492858
0.260012 -0.065036 -0.492666
0.258304 -0.065036 -0.492474
0.256181 -0.064413 -0.493476
0.254475 -0.064413 -0.493284
0.252768 -0.064413 -0.493092
0.250653 -0.063790 -0.494092
0.248948 -0.063790 -0.493900
0.247243 -0.063790 -0.493708
0.245538 -0.063790 -0.493516
0.243832 -0.063790 -0.493325
0.241727 -0.063168 -0.494324
0.240023 -0.063168 -0.494132
0.238320 -0.063168 -0.493940
0.236616 -0.063168 -0.493749
0.234913 -0.063168 -0.493557
0.233209 -0.063168 -0.493366
0.231506 -0.063168 -0.493174
0.229413 -0.062548 -0.494172
0.227711 -0.062548 -0.493981
0.226009 -0.062548 -0.493789
0.224307 -0.062548 -0.493598
0.222605 -0.062548 -0.493406
0.220903 -0.062548 -0.493215
0.219201 -0.062548 -0.493024
0.217499 -0.062548 -0.492832
0.215797 -0.062548 -0.492641
0.214095 -0.062548 -0.492449
0.212019 -0.061928 -0.493447
0.210319 -0.061928 -0.493256
0.208619 -0.061928 -0.493065
0.206918 -0.061928 -0.492873
0.205218 -0.061928 -0.492682
0.203517 -0.061928 -0.492491
0.201453 -0.061310 -0.493488
0.199754 -0.061310 -0.493297
0.198055 -0.061310 -0.493106
0.196356 -0.061310 -0.492915
0.194657 -0.061310 -0.492724
0.192958 -0.061310 -0.492532
0.190905 -0.060693 -0.493529
0.189208 -0.060693 -0.493338
0.187511 -0.060693 -0.493147
0.185813 -0.060693 -0.492956
0.183768 -0.060077 -0.493951
0.182073 -0.060077 -0.493760
0.180377 -0.060077 -0.493569
0.178681 -0.060077 -0.493378
0.176985 -0.060077 -0.493188
0.175289 -0.060077 -0.492997
0.173255 -0.059462 -0.493991
0.171561 -0.059462 -0.493800
0.169867 -0.059462 -0.493609
0.168172 -0.059462 -0.493419
0.166478 -0.059462 -0.493228
0.164783 -0.059462 -0.493038
0.162761 -0.058848 -0.494031
0.161068 -0.058848 -0.493840
0.159375 -0.058848 -0.493650
0.157683 -0.058848 -0.493459
0.155668 -0.058235 -0.494451
0.153977 -0.058235 -0.494261
0.152286 -0.058235 -0.494071
0.150594 -0.058235 -0.493880
0.148903 -0.058235 -0.493690
0.147211 -0.058235 -0.493500
0.145208 -0.057624 -0.494491
0.143518 -0.057624 -0.494301
0.141829 -0.057624 -0.494111
0.140139 -0.057624 -0.493921
0.138449 -0.057624 -0.493731
0.136759 -0.057624 -0.493540
0.135069 -0.057624 -0.493350
0.133379 -0.057624 -0.493160
0.131689 -0.057624 -0.492970
0.129999 -0.057624 -0.492780
0.128013 -0.057013 -0.493771
0.126325 -0.057013 -0.493581
0.124637 -0.057013 -0.493391
0.122948 -0.057013 -0.493201
0.121260 -0.057013 -0.493011
0.119572 -0.057013 -0.492821
0.117597 -0.056404 -0.493811
0.115910 -0.056404 -0.493621
0.114223 -0.056404 -0.493431
0.112536 -0.056404 -0.493242
0.110849 -0.056404 -0.493052
0.109162 -0.056404 -0.492862
0.107198 -0.055795 -0.493851
0.105513 -0.055795 -0.493661
0.103827 -0.055795 -0.493472
0.102142 -0.055795 -0.493282
0.100457 -0.055795 -0.493093
0.098771 -0.055795 -0.492903
0.097086 -0.055795 -0.492714
0.095134 -0.055188 -0.493701
0.093450 -0.055188 -0.493512
0.091766 -0.055188 -0.493323
0.090083 -0.055188 -0.493133
0.088399 -0.055188 -0.492944
0.086715 -0.055188 -0.492754
0.085031 -0.055188 -0.492565
0.083347 -0.055188 -0.492376
0.081663 -0.055188 -0.492186
0.079727 -0.054582 -0.493174
0.078044 -0.054582 -0.492985
0.076362 -0.054582 -0.492795
0.074680 -0.054582 -0.492606
0.072751 -0.053976 -0.493592
0.071070 -0.053976 -0.493403
0.069389 -0.053976 -0.493214
0.067709 -0.053976 -0.493025
0.066028 -0.053976 -0.492836
0.064347 -0.053976 -0.492647
0.062666 -0.053976 -0.492458
0.060750 -0.053372 -0.493444
0.059070 -0.053372 -0.493255
0.057391 -0.053372 -0.493066
0.055712 -0.053372 -0.492877
0.054032 -0.053372 -0.492688
0.052353 -0.053372 -0.492499
0.050673 -0.053372 -0.492310
0.048994 -0.053372 -0.492121
0.047314 -0.053372 -0.491933
0.045414 -0.052769 -0.492918
0.043736 -0.052769 -0.492729
0.042058 -0.052769 -0.492540
0.040380 -0.052769 -0.492351
0.038702 -0.052769 -0.492163
0.037024 -0.052769 -0.491974
0.035346 -0.052769 -0.491785
0.033457 -0.052167 -0.492770
0.031781 -0.052167 -0.492581
0.030104 -0.052167 -0.492393
0.028428 -0.052167 -0.492204
0.026752 -0.052167 -0.492016
0.025075 -0.052167 -0.491827
0.023399 -0.052167 -0.491638
0.021722 -0.052167 -0.491450
0.020046 -0.052167 -0.491261
0.018172 -0.051566 -0.492245
0.016497 -0.051566 -0.492057
0.014822 -0.051566 -0.491868
0.013147 -0.051566 -0.491680
0.011472 -0.051566 -0.491492
0.009797 -0.051566 -0.491303
0.008122 -0.051566 -0.491115
0.006261 -0.050966 -0.492098
0.004588 -0.050966 -0.491910
0.002914 -0.050966 -0.491722
0.001241 -0.050966 -0.491534
-0.000433 -0.050966 -0.491345
-0.002106 -0.050966 -0.491157
-0.003780 -0.050966 -0.490969
-0.005453 -0.050966 -0.490781
-0.007127 -0.050966 -0.490592
-0.008973 -0.050367 -0.491575
-0.010645 -0.050367 -0.491387
-0.012317 -0.050367 -0.491199
-0.013989 -0.050367 -0.491011
-0.015661 -0.050367 -0.490823
-0.017333 -0.050367 -0.490635
-0.019005 -0.050367 -0.490447
-0.020840 -0.049770 -0.491429
-0.022510 -0.049770 -0.491241
-0.024181 -0.049770 -0.491053
-0.025851 -0.049770 -0.490865
-0.027522 -0.049770 -0.490677
-0.029347 -0.049173 -0.491658
-0.031016 -0.049173 -0.491471
-0.032685 -0.049173 -0.491283
-0.034354 -0.049173 -0.491095
-0.036172 -0.048577 -0.492075
-0.037839 -0.048577 -0.491888
-0.039507 -0.048577 -0.491700
-0.041175 -0.048577 -0.491512
-0.042842 -0.048577 -0.491325
-0.044510 -0.048577 -0.491137
-0.046178 -0.048577 -0.490950
-0.047983 -0.047983 -0.491929
-0.049649 -0.047983 -0.491741
-0.051315 -0.047983 -0.491554
-0.052982 -0.047983 -0.491367
-0.054648 -0.047983 -0.491179
-0.056314 -0.047983 -0.490992
-0.057980 -0.047983 -0.490804
-0.059646 -0.047983 -0.490617
-0.061313 -0.047983 -0.490430
-0.062979 -0.047983 -0.490242
-0.064768 -0.047389 -0.491221
-0.066433 -0.047389 -0.491034
-0.068097 -0.047389 -0.490847
-0.069762 -0.047389 -0.490659
-0.071427 -0.047389 -0.490472
-0.073092 -0.047389 -0.490285
-0.074756 -0.047389 -0.490098
-0.076421 -0.047389 -0.489910
-0.078197 -0.046797 -0.490889
-0.079860 -0.046797 -0.490702
-0.081523 -0.046797 -0.490515
-0.083187 -0.046797 -0.490328
-0.084850 -0.046797 -0.490140
-0.086513 -0.046797 -0.489953
-0.088176 -0.046797 -0.489766
-0.089840 -0.046797 -0.489579
-0.091602 -0.046205 -0.490557
-0.093264 -0.046205 -0.490370
-0.094926 -0.046205 -0.490183
-0.096588 -0.046205 -0.489996
-0.098250 -0.046205 -0.489809
-0.099911 -0.046205 -0.489622
-0.101573 -0.046205 -0.489436
-0.103235 -0.046205 -0.489249
-0.104984 -0.045615 -0.490226
-0.106645 -0.045615 -0.490039
-0.108305 -0.045615 -0.489852
-0.109965 -0.045615 -0.489666
-0.111626 -0.045615 -0.489479
-0.113286 -0.045615 -0.489292
-0.114947 -0.045615 -0.489105
-0.116607 -0.045615 -0.488919
-0.118343 -0.045025 -0.489895
-0.120002 -0.045025 -0.489709
-0.121661 -0.045025 -0.489522
-0.123320 -0.045025 -0.489335
-0.124979 -0.045025 -0.489149
-0.126638 -0.045025 -0.488962
-0.128297 -0.045025 -0.488776
-0.129955 -0.045025 -0.488589
-0.131679 -0.044437 -0.489565
-0.133336 -0.044437 -0.489379
-0.134993 -0.044437 -0.489192
-0.136651 -0.044437 -0.489006
-0.138308 -0.044437 -0.488819
-0.139966 -0.044437 -0.488633
-0.141623 -0.044437 -0.488447
-0.143281 -0.044437 -0.488260
-0.144991 -0.043849 -0.489236
-0.146647 -0.043849 -0.489049
-0.148303 -0.043849 -0.488863
-0.149959 -0.043849 -0.488677
-0.151615 -0.043849 -0.488491
-0.153271 -0.043849 -0.488304
-0.154927 -0.043849 -0.488118
-0.156583 -0.043849 -0.487932
-0.158280 -0.043263 -0.488907
-0.159934 -0.043263 -0.488721
-0.161589 -0.043263 -0.488535
-0.163243 -0.043263 -0.488348
-0.164898 -0.043263 -0.488162
-0.166553 -0.043263 -0.487976
-0.168207 -0.043263 -0.487790
-0.169862 -0.043263 -0.487604
-0.171546 -0.042678 -0.488578
-0.173199 -0.042678 -0.488392
-0.174852 -0.042678 -0.488207
-0.176505 -0.042678 -0.488021
-0.178158 -0.042678 -0.487835
-0.179811 -0.042678 -0.487649
-0.181464 -0.042678 -0.487463
-0.183118 -0.042678 -0.487277
-0.184788 -0.042093 -0.488251
-0.186440 -0.042093 -0.488065
-0.188092 -0.042093 -0.487879
-0.189744 -0.042093 -0.487693
-0.191395 -0.042093 -0.487508
-0.193047 -0.042093 -0.487322
-0.194699 -0.042093 -0.487136
-0.196350 -0.042093 -0.486950
-0.198008 -0.041510 -0.487923
-0.199659 -0.041510 -0.487738
-0.201309 -0.041510 -0.487552
-0.202959 -0.041510 -0.487367
-0.204609 -0.041510 -0.487181
-0.206260 -0.041510 -0.486995
-0.207910 -0.041510 -0.486810
-0.209560 -0.041510 -0.486624
-0.211210 -0.041510 -0.486439
-0.212861 -0.041510 -0.486253
-0.214511 -0.041510 -0.486067
-0.216161 -0.041510 -0.485882
-0.217811 -0.041510 -0.485696
-0.219462 -0.041510 -0.485511
-0.221112 -0.041510 -0.485325
