ply
format ascii 1.0
element vertex 1693
property float x
property float y
property float z
end_header
-0.175739 -0.005590 0.114899
-0.173812 -0.005590 0.115466
-0.171884 -0.005590 0.116034
-0.169956 -0.005590 0.116602
-0.167641 -0.006005 0.115378
-0.165711 -0.006005 0.115946
-0.163781 -0.006005 0.116514
-0.161852 -0.006005 0.117083
-0.159922 -0.006005 0.117651
-0.157992 -0.006005 0.118219
-0.156462 -0.005590 0.120575
-0.154133 -0.006005 0.119356
-0.152203 -0.006005 0.119924
-0.149866 -0.006421 0.118703
-0.147935 -0.006421 0.119271
-0.145591 -0.006838 0.118048
-0.143657 -0.006838 0.118617
-0.141307 -0.007256 0.117392
-0.139371 -0.007256 0.117962
-0.137014 -0.007674 0.116735
-0.134651 -0.008094 0.115505
-0.132712 -0.008094 0.116076
-0.130772 -0.008094 0.116647
-0.128400 -0.008514 0.115416
-0.126458 -0.008514 0.115988
-0.124516 -0.008514 0.116559
-0.122136 -0.008935 0.115327
-0.120191 -0.008935 0.115899
-0.118247 -0.008935 0.116472
-0.115858 -0.009357 0.115237
-0.113912 -0.009357 0.115810
-0.111965 -0.009357 0.116384
-0.109566 -0.009780 0.115148
-0.107618 -0.009780 0.115722
-0.105670 -0.009780 0.116295
-0.103262 -0.010204 0.115058
-0.101312 -0.010204 0.115633
-0.099361 -0.010204 0.116207
-0.097411 -0.010204 0.116781
-0.094991 -0.010629 0.115543
-0.093039 -0.010629 0.116118
-0.091087 -0.010629 0.116693
-0.089135 -0.010629 0.117268
-0.086704 -0.011054 0.116029
-0.084267 -0.011481 0.114788
-0.082311 -0.011481 0.115364
-0.079867 -0.011909 0.114121
-0.077909 -0.011909 0.114698
-0.075950 -0.011909 0.115275
-0.073497 -0.012337 0.114030
-0.071537 -0.012337 0.114607
-0.069077 -0.012766 0.113361
-0.067114 -0.012766 0.113939
-0.064646 -0.013197 0.112690
-0.062681 -0.013197 0.113268
-0.060206 -0.013628 0.112017
-0.058240 -0.013628 0.112597
-0.056273 -0.013628 0.113176
-0.053788 -0.014060 0.111924
-0.051819 -0.014060 0.112503
-0.049327 -0.014493 0.111249
-0.047356 -0.014493 0.111830
-0.044856 -0.014927 0.110573
-0.042883 -0.014927 0.111154
-0.040910 -0.014927 0.111735
-0.038401 -0.015362 0.110477
-0.036425 -0.015362 0.111059
-0.033909 -0.015798 0.109799
-0.032474 -0.015362 0.112222
-0.029954 -0.015798 0.110964
-0.027976 -0.015798 0.111546
-0.025448 -0.016234 0.110285
-0.023468 -0.016234 0.110868
-0.021488 -0.016234 0.111451
-0.018950 -0.016672 0.110189
-0.016968 -0.016672 0.110772
-0.014422 -0.017111 0.109508
-0.012438 -0.017111 0.110092
-0.009885 -0.017550 0.108826
-0.007899 -0.017550 0.109411
-0.005913 -0.017550 0.109996
-0.003350 -0.017991 0.108728
-0.001361 -0.017991 0.109313
0.001210 -0.018432 0.108043
0.003200 -0.018432 0.108629
0.005779 -0.018875 0.107357
0.007772 -0.018875 0.107944
0.010358 -0.019318 0.106670
0.012353 -0.019318 0.107257
0.014348 -0.019318 0.107844
0.016944 -0.019763 0.106569
0.018941 -0.019763 0.107157
0.021545 -0.020208 0.105879
0.023544 -0.020208 0.106467
0.026157 -0.020654 0.105187
0.028158 -0.020654 0.105777
0.030159 -0.020654 0.106366
0.033404 -0.021550 0.103209
0.035409 -0.021550 0.103800
0.038043 -0.021999 0.102513
0.040051 -0.021999 0.103104
0.042693 -0.022450 0.101815
0.044703 -0.022450 0.102406
0.047352 -0.022901 0.101115
0.049365 -0.022901 0.101707
0.052022 -0.023353 0.100414
0.054037 -0.023353 0.101007
0.056051 -0.023353 0.101600
0.058719 -0.023806 0.100305
0.061393 -0.024261 0.099007
0.063412 -0.024261 0.099601
0.065431 -0.024261 0.100196
0.068115 -0.024716 0.098896
0.070136 -0.024716 0.099491
0.072829 -0.025172 0.098189
0.074852 -0.025172 0.098785
0.077552 -0.025629 0.097481
0.080259 -0.026087 0.096174
0.082287 -0.026087 0.096771
0.085001 -0.026547 0.095462
0.087032 -0.026547 0.096060
0.089754 -0.027007 0.094748
0.091787 -0.027007 0.095347
0.094518 -0.027468 0.094033
0.096553 -0.027468 0.094632
0.099292 -0.027931 0.093316
0.101329 -0.027931 0.093916
0.103366 -0.027931 0.094516
0.106116 -0.028394 0.093198
0.108155 -0.028394 0.093799
0.110914 -0.028858 0.092479
0.112955 -0.028858 0.093080
0.114996 -0.028858 0.093681
0.117766 -0.029324 0.092360
0.119809 -0.029324 0.092962
0.122587 -0.029790 0.091638
0.124633 -0.029790 0.092240
0.126679 -0.029790 0.092843
0.129467 -0.030258 0.091518
0.131516 -0.030258 0.092121
0.133564 -0.030258 0.092724
0.135612 -0.030258 0.093327
0.137660 -0.030258 0.093930
0.139708 -0.030258 0.094533
0.141000 -0.029790 0.097060
0.143046 -0.029790 0.097662
0.145092 -0.029790 0.098265
0.147138 -0.029790 0.098867
0.149184 -0.029790 0.099470
0.151230 -0.029790 0.100072
0.153276 -0.029790 0.100675
0.155322 -0.029790 0.101277
0.156595 -0.029324 0.103793
0.158639 -0.029324 0.104395
0.160682 -0.029324 0.104997
0.162726 -0.029324 0.105599
0.164769 -0.029324 0.106201
0.166813 -0.029324 0.106802
0.168857 -0.029324 0.107404
0.089345 0.018907 0.305426
0.088076 0.020722 0.313383
0.089261 0.021083 0.315389
0.091059 0.021083 0.315918
0.092240 0.021443 0.317919
0.094036 0.021443 0.318448
0.095213 0.021802 0.320444
0.097007 0.021802 0.320973
0.098181 0.022161 0.322965
0.099973 0.022161 0.323493
0.101142 0.022519 0.325481
0.102309 0.022876 0.327465
0.104098 0.022876 0.327991
0.105261 0.023233 0.329971
0.107048 0.023233 0.330497
0.108207 0.023588 0.332472
0.109364 0.023944 0.334444
0.111147 0.023944 0.334969
0.112300 0.024298 0.336936
0.114082 0.024298 0.337461
0.115231 0.024652 0.339423
0.116377 0.025005 0.341382
0.118156 0.025005 0.341906
0.119298 0.025358 0.343861
0.121075 0.025358 0.344384
0.122214 0.025709 0.346334
0.123989 0.025709 0.346857
0.125123 0.026060 0.348803
0.126897 0.026060 0.349325
0.128028 0.026411 0.351267
0.129156 0.026761 0.353205
0.130926 0.026761 0.353726
0.132051 0.027110 0.355660
0.133819 0.027110 0.356180
0.134940 0.027458 0.358110
0.136706 0.027458 0.358630
0.137823 0.027806 0.360555
0.138939 0.028153 0.362477
0.140701 0.028153 0.362996
0.141813 0.028499 0.364914
0.143574 0.028499 0.365432
0.144681 0.028845 0.367346
0.146441 0.028845 0.367864
0.148200 0.028845 0.368382
0.149302 0.029190 0.370291
0.151719 0.028845 0.369418
0.153479 0.028845 0.369936
0.155238 0.028845 0.370454
0.156998 0.028845 0.370973
0.158757 0.028845 0.371491
0.160517 0.028845 0.372009
0.162277 0.028845 0.372527
0.164036 0.028845 0.373045
0.166470 0.028499 0.372174
0.168908 0.028153 0.371302
0.171351 0.027806 0.370428
0.173799 0.027458 0.369552
0.176251 0.027110 0.368675
0.177331 0.027458 0.370592
0.179098 0.027458 0.371112
0.181555 0.027110 0.370237
0.184017 0.026761 0.369359
0.185787 0.026761 0.369880
0.187557 0.026761 0.370401
0.189327 0.026761 0.370922
0.191799 0.026411 0.370045
0.194276 0.026060 0.369165
0.197467 0.025358 0.366878
0.199244 0.025358 0.367401
0.202451 0.024652 0.365106
0.205671 0.023944 0.362802
0.208904 0.023233 0.360489
0.213613 0.021802 0.355308
0.216880 0.021083 0.352967
0.220903 0.019998 0.349173
0.224200 0.019271 0.346808
0.228265 0.018176 0.342976
0.231593 0.017442 0.340588
0.236467 0.015966 0.335245
0.242935 0.013730 0.326881
0.252653 0.009942 0.312353
0.282611 -0.003528 0.259331
0.283672 -0.003118 0.261525
0.283874 -0.002301 0.265336
0.284076 -0.001488 0.269131
0.285130 -0.001082 0.271304
0.285328 -0.000273 0.275075
0.286377 0.000130 0.277234
0.286573 0.000933 0.280981
0.286767 0.001734 0.284713
0.287809 0.002133 0.286851
0.288849 0.002531 0.288985
0.289887 0.002928 0.291115
0.290923 0.003324 0.293240
0.292807 0.003324 0.293795
0.293838 0.003720 0.295915
0.295721 0.003720 0.296469
0.296748 0.004115 0.298585
0.298629 0.004115 0.299138
0.299652 0.004509 0.301249
0.301530 0.004509 0.301802
0.303409 0.004509 0.302355
0.304426 0.004902 0.304460
0.306303 0.004902 0.305013
0.308179 0.004902 0.305565
0.309191 0.005295 0.307665
0.311066 0.005295 0.308217
0.312940 0.005295 0.308769
0.313946 0.005686 0.310863
0.315818 0.005686 0.311414
0.317691 0.005686 0.311966
0.319564 0.005686 0.312517
0.321436 0.005686 0.313069
0.323309 0.005686 0.313620
0.325182 0.005686 0.314171
0.327054 0.005686 0.314723
0.328927 0.005686 0.315274
0.329915 0.006077 0.317360
0.332672 0.005686 0.316377
0.334545 0.005686 0.316928
0.336418 0.005686 0.317480
0.338290 0.005686 0.318031
0.340163 0.005686 0.318583
0.342933 0.005295 0.317600
0.344808 0.005295 0.318152
0.346682 0.005295 0.318704
0.349462 0.004902 0.317721
0.351338 0.004902 0.318274
0.353215 0.004902 0.318826
0.356004 0.004509 0.317842
0.358799 0.004115 0.316856
0.360679 0.004115 0.317410
0.363482 0.003720 0.316422
0.365364 0.003720 0.316976
0.368174 0.003324 0.315987
0.370058 0.003324 0.316542
0.372876 0.002928 0.315552
0.375700 0.002531 0.314559
0.379473 0.001734 0.312011
0.382312 0.001334 0.311012
0.385157 0.000933 0.310010
0.388966 0.000130 0.307442
0.392790 -0.000677 0.304863
0.396630 -0.001488 0.302274
0.403423 -0.003528 0.294905
-0.372946 -0.047453 -0.124957
-0.371397 -0.045944 -0.117610
-0.369859 -0.044446 -0.110314
-0.368139 -0.043453 -0.105271
-0.366621 -0.041971 -0.098058
-0.364918 -0.040989 -0.093072
-0.363223 -0.040012 -0.088109
-0.361734 -0.038554 -0.081011
-0.360055 -0.037588 -0.076103
-0.358585 -0.036146 -0.069087
-0.356923 -0.035191 -0.064233
-0.355269 -0.034239 -0.059401
-0.353621 -0.033292 -0.054591
-0.351775 -0.032820 -0.051891
-0.350142 -0.031880 -0.047114
-0.348515 -0.030943 -0.042358
-0.346896 -0.030011 -0.037622
-0.345284 -0.029082 -0.032908
-0.343465 -0.028620 -0.030260
-0.341651 -0.028158 -0.027618
-0.339840 -0.027698 -0.024981
-0.338253 -0.026780 -0.020321
-0.336452 -0.026322 -0.017701
-0.334877 -0.025410 -0.013072
-0.333086 -0.024956 -0.010469
-0.331299 -0.024502 -0.007871
-0.329742 -0.023598 -0.003284
-0.328192 -0.022698 0.001284
-0.326420 -0.022250 0.003854
-0.324651 -0.021802 0.006419
-0.322654 -0.021802 0.007007
-0.320892 -0.021355 0.009566
-0.319134 -0.020910 0.012119
-0.317379 -0.020465 0.014667
-0.315868 -0.019578 0.019161
-0.314122 -0.019137 0.021693
-0.312381 -0.018696 0.024219
-0.310643 -0.018256 0.026740
-0.308909 -0.017817 0.029255
-0.306931 -0.017817 0.029837
-0.305203 -0.017379 0.032347
-0.303228 -0.017379 0.032929
-0.301505 -0.016942 0.035432
-0.299787 -0.016506 0.037930
-0.297815 -0.016506 0.038510
-0.296103 -0.016071 0.041002
-0.294393 -0.015636 0.043489
-0.292426 -0.015636 0.044068
-0.290723 -0.015203 0.046549
-0.288758 -0.015203 0.047127
-0.287060 -0.014771 0.049602
-0.285098 -0.014771 0.050180
-0.283406 -0.014339 0.052649
-0.281445 -0.014339 0.053226
-0.279759 -0.013909 0.055689
-0.277800 -0.013909 0.056266
-0.276120 -0.013479 0.058723
-0.274163 -0.013479 0.059299
-0.272488 -0.013050 0.061751
-0.270534 -0.013050 0.062326
-0.268864 -0.012622 0.064772
-0.266912 -0.012622 0.065346
-0.265248 -0.012196 0.067786
-0.263298 -0.012196 0.068360
-0.261348 -0.012196 0.068935
-0.259692 -0.011770 0.071368
-0.257744 -0.011770 0.071942
-0.256093 -0.011344 0.074369
-0.254147 -0.011344 0.074942
-0.252201 -0.011344 0.075515
-0.250558 -0.010920 0.077936
-0.248614 -0.010920 0.078509
-0.246977 -0.010497 0.080924
-0.245035 -0.010497 0.081496
-0.243093 -0.010497 0.082068
-0.241151 -0.010497 0.082640
-0.239523 -0.010075 0.085048
-0.237584 -0.010075 0.085619
-0.235644 -0.010075 0.086191
-0.233704 -0.010075 0.086762
-0.232086 -0.009653 0.089163
-0.230148 -0.009653 0.089734
-0.228210 -0.009653 0.090305
-0.226272 -0.009653 0.090875
-0.224663 -0.009232 0.093270
-0.222728 -0.009232 0.093840
-0.220792 -0.009232 0.094410
-0.218856 -0.009232 0.094980
-0.217257 -0.008813 0.097368
-0.215323 -0.008813 0.097937
-0.213389 -0.008813 0.098507
-0.211455 -0.008813 0.099076
-0.209522 -0.008813 0.099646
-0.207934 -0.008394 0.102026
-0.206002 -0.008394 0.102595
-0.204071 -0.008394 0.103164
-0.202139 -0.008394 0.103733
-0.200207 -0.008394 0.104301
-0.198275 -0.008394 0.104870
-0.196343 -0.008394 0.105439
-0.194412 -0.008394 0.106008
-0.192480 -0.008394 0.106577
-0.190548 -0.008394 0.107145
-0.188616 -0.008394 0.107714
-0.186685 -0.008394 0.108283
-0.185123 -0.007976 0.110652
-0.183193 -0.007976 0.111220
-0.181263 -0.007976 0.111788
-0.179334 -0.007976 0.112357
-0.177404 -0.007976 0.112925
-0.175474 -0.007976 0.113493
-0.173544 -0.007976 0.114061
-0.171615 -0.007976 0.114630
-0.169685 -0.007976 0.115198
-0.167367 -0.008394 0.113971
-0.165435 -0.008394 0.114540
-0.163503 -0.008394 0.115109
-0.161571 -0.008394 0.115678
-0.159640 -0.008394 0.116247
-0.157708 -0.008394 0.116816
-0.156177 -0.007976 0.119175
-0.153844 -0.008394 0.117953
-0.151913 -0.008394 0.118522
-0.149573 -0.008813 0.117298
-0.147640 -0.008813 0.117867
-0.145293 -0.009232 0.116641
-0.143358 -0.009232 0.117211
-0.141004 -0.009653 0.115983
-0.139066 -0.009653 0.116554
-0.136706 -0.010075 0.115323
-0.134341 -0.010497 0.114091
-0.132399 -0.010497 0.114662
-0.130457 -0.010497 0.115234
-0.128083 -0.010920 0.114000
-0.126139 -0.010920 0.114573
-0.124195 -0.010920 0.115145
-0.121811 -0.011344 0.113910
-0.119865 -0.011344 0.114483
-0.117919 -0.011344 0.115056
-0.115526 -0.011770 0.113819
-0.113578 -0.011770 0.114392
-0.111630 -0.011770 0.114966
-0.109228 -0.012196 0.113728
-0.107278 -0.012196 0.114302
-0.105328 -0.012196 0.114876
-0.102916 -0.012622 0.113636
-0.100964 -0.012622 0.114211
-0.099012 -0.012622 0.114786
-0.097059 -0.012622 0.115361
-0.094637 -0.013050 0.114120
-0.092682 -0.013050 0.114696
-0.090728 -0.013050 0.115271
-0.088774 -0.013050 0.115847
-0.086819 -0.013050 0.116422
-0.084383 -0.013479 0.115182
-0.081942 -0.013909 0.113938
-0.079983 -0.013909 0.114515
-0.077535 -0.014339 0.113269
-0.075574 -0.014339 0.113847
-0.073118 -0.014771 0.112599
-0.071156 -0.014771 0.113177
-0.069193 -0.014771 0.113755
-0.066728 -0.015203 0.112506
-0.064763 -0.015203 0.113085
-0.062290 -0.015636 0.111834
-0.060323 -0.015636 0.112413
-0.057843 -0.016071 0.111160
-0.055874 -0.016071 0.111740
-0.053386 -0.016506 0.110485
-0.051415 -0.016506 0.111065
-0.049444 -0.016506 0.111645
-0.046947 -0.016942 0.110389
-0.044973 -0.016942 0.110970
-0.042469 -0.017379 0.109711
-0.040493 -0.017379 0.110293
-0.037981 -0.017817 0.109032
-0.036003 -0.017817 0.109614
-0.034026 -0.017817 0.110197
-0.032048 -0.017817 0.110779
-0.030071 -0.017817 0.111361
-0.027545 -0.018256 0.110100
-0.025565 -0.018256 0.110683
-0.023031 -0.018696 0.109420
-0.021049 -0.018696 0.110004
-0.018508 -0.019137 0.108739
-0.016524 -0.019137 0.109323
-0.014540 -0.019137 0.109907
-0.011989 -0.019578 0.108640
-0.010003 -0.019578 0.109225
-0.007444 -0.020021 0.107957
-0.005455 -0.020021 0.108542
-0.002889 -0.020465 0.107271
-0.000898 -0.020465 0.107857
0.001092 -0.020465 0.108443
0.003668 -0.020910 0.107171
0.005661 -0.020910 0.107758
0.008245 -0.021355 0.106483
0.010240 -0.021355 0.107071
0.012832 -0.021802 0.105794
0.014829 -0.021802 0.106382
0.017429 -0.022250 0.105103
0.019428 -0.022250 0.105692
0.021427 -0.022250 0.106281
0.024037 -0.022698 0.105000
0.026038 -0.022698 0.105590
0.029274 -0.023598 0.102431
0.031279 -0.023598 0.103022
0.033908 -0.024050 0.101734
0.036543 -0.024502 0.100443
0.038553 -0.024502 0.101035
0.040564 -0.024502 0.101627
0.043209 -0.024956 0.100334
0.045221 -0.024956 0.100927
0.047874 -0.025410 0.099632
0.049889 -0.025410 0.100226
0.052550 -0.025866 0.098929
0.054566 -0.025866 0.099523
0.057236 -0.026322 0.098224
0.059255 -0.026322 0.098818
0.061932 -0.026780 0.097517
0.063953 -0.026780 0.098112
0.066639 -0.027238 0.096809
0.068662 -0.027238 0.097405
0.071356 -0.027698 0.096099
0.073381 -0.027698 0.096695
0.076083 -0.028158 0.095388
0.078111 -0.028158 0.095985
0.080821 -0.028620 0.094675
0.082851 -0.028620 0.095272
0.085570 -0.029082 0.093960
0.087602 -0.029082 0.094559
0.090328 -0.029546 0.093244
0.092363 -0.029546 0.093843
0.095098 -0.030011 0.092526
0.097135 -0.030011 0.093126
0.099878 -0.030476 0.091807
0.101917 -0.030476 0.092407
0.104669 -0.030943 0.091086
0.106710 -0.030943 0.091687
0.109470 -0.031411 0.090364
0.111514 -0.031411 0.090965
0.114282 -0.031880 0.089640
0.115601 -0.031411 0.092169
0.118374 -0.031880 0.090844
0.120420 -0.031880 0.091447
0.123202 -0.032349 0.090120
0.125250 -0.032349 0.090723
0.127298 -0.032349 0.091326
0.130090 -0.032820 0.089998
0.132141 -0.032820 0.090602
0.134191 -0.032820 0.091205
0.136242 -0.032820 0.091809
0.138292 -0.032820 0.092413
0.139587 -0.032349 0.094945
0.141635 -0.032349 0.095548
0.143684 -0.032349 0.096151
0.145732 -0.032349 0.096754
0.147780 -0.032349 0.097357
0.149063 -0.031880 0.099881
0.151109 -0.031880 0.100483
0.153155 -0.031880 0.101086
0.155201 -0.031880 0.101688
0.157247 -0.031880 0.102291
0.159293 -0.031880 0.102893
0.161338 -0.031880 0.103496
0.163384 -0.031880 0.104098
0.165430 -0.031880 0.104701
0.167476 -0.031880 0.105303
0.085591 0.018157 0.309723
0.085560 0.019247 0.314691
0.086747 0.019609 0.316694
0.087931 0.019970 0.318692
0.089725 0.019970 0.319220
0.090906 0.020331 0.321214
0.092698 0.020331 0.321742
0.094490 0.020331 0.322270
0.095665 0.020690 0.324259
0.096837 0.021049 0.326244
0.098626 0.021049 0.326771
0.099794 0.021408 0.328752
0.101581 0.021408 0.329278
0.102746 0.021765 0.331254
0.103908 0.022122 0.333227
0.105691 0.022122 0.333752
0.106849 0.022479 0.335720
0.108631 0.022479 0.336245
0.109785 0.022834 0.338209
0.111565 0.022834 0.338733
0.112716 0.023189 0.340693
0.113864 0.023543 0.342648
0.115640 0.023543 0.343172
0.116784 0.023897 0.345123
0.118559 0.023897 0.345646
0.119699 0.024250 0.347593
0.121472 0.024250 0.348115
0.122608 0.024602 0.350058
0.124380 0.024602 0.350580
0.125512 0.024953 0.352518
0.126642 0.025304 0.354453
0.128410 0.025304 0.354974
0.129537 0.025654 0.356905
0.131303 0.025654 0.357425
0.132425 0.026004 0.359351
0.134190 0.026004 0.359871
0.135308 0.026353 0.361793
0.136425 0.026701 0.363712
0.138186 0.026701 0.364231
0.139298 0.027048 0.366145
0.141058 0.027048 0.366663
0.142167 0.027395 0.368574
0.143925 0.027395 0.369091
0.145030 0.027741 0.370997
0.146786 0.027741 0.371514
0.148542 0.027741 0.372032
0.150298 0.027741 0.372549
0.152054 0.027741 0.373066
0.153810 0.027741 0.373583
0.155567 0.027741 0.374100
0.157987 0.027395 0.373232
0.159745 0.027395 0.373750
0.160835 0.027741 0.375651
0.163261 0.027395 0.374785
0.165691 0.027048 0.373917
0.168127 0.026701 0.373047
0.170567 0.026353 0.372175
0.173011 0.026004 0.371302
0.175460 0.025654 0.370427
0.177914 0.025304 0.369551
0.178993 0.025654 0.371468
0.180759 0.025654 0.371988
0.183913 0.024953 0.369715
0.185682 0.024953 0.370236
0.187452 0.024953 0.370757
0.189222 0.024953 0.371278
0.191694 0.024602 0.370401
0.194171 0.024250 0.369522
0.196652 0.023897 0.368641
0.199139 0.023543 0.367758
0.202346 0.022834 0.365464
0.205566 0.022122 0.363161
0.209524 0.021049 0.359426
0.213506 0.019970 0.355669
0.217512 0.018884 0.351890
0.220796 0.018157 0.349535
0.224843 0.017061 0.345719
0.228158 0.016326 0.343341
0.232247 0.015219 0.339488
0.238669 0.012985 0.331174
0.243605 0.011480 0.325757
0.283150 -0.006727 0.254241
0.283354 -0.005899 0.258084
0.283558 -0.005075 0.261910
0.284617 -0.004664 0.264099
0.284817 -0.003844 0.267901
0.285871 -0.003436 0.270077
0.286068 -0.002621 0.273854
0.286265 -0.001810 0.277616
0.287312 -0.001406 0.279771
0.287505 -0.000600 0.283509
0.288547 -0.000198 0.285650
0.289588 0.000203 0.287788
0.290626 0.000603 0.289921
0.291662 0.001002 0.292049
0.293548 0.001002 0.292605
0.294580 0.001400 0.294728
0.295609 0.001798 0.296848
0.297492 0.001798 0.297402
0.298517 0.002195 0.299516
0.300398 0.002195 0.300070
0.301419 0.002591 0.302179
0.303298 0.002591 0.302733
0.305176 0.002591 0.303286
0.306192 0.002986 0.305390
0.308068 0.002986 0.305942
0.309080 0.003380 0.308042
0.310955 0.003380 0.308594
0.312829 0.003380 0.309146
0.314704 0.003380 0.309697
0.315708 0.003774 0.311791
0.317580 0.003774 0.312342
0.319453 0.003774 0.312894
0.321326 0.003774 0.313445
0.323198 0.003774 0.313996
0.325071 0.003774 0.314548
0.326943 0.003774 0.315099
0.328816 0.003774 0.315651
0.330689 0.003774 0.316202
0.332561 0.003774 0.316753
0.334434 0.003774 0.317305
0.336307 0.003774 0.317856
0.338179 0.003774 0.318408
0.340947 0.003380 0.317425
0.342822 0.003380 0.317977
0.344697 0.003380 0.318529
0.346571 0.003380 0.319081
0.349351 0.002986 0.318098
0.351227 0.002986 0.318651
0.354014 0.002591 0.317667
0.355893 0.002591 0.318220
0.358687 0.002195 0.317234
0.361488 0.001798 0.316246
0.363370 0.001798 0.316800
0.365252 0.001798 0.317355
0.368062 0.001400 0.316366
0.370878 0.001002 0.315375
0.372765 0.001002 0.315931
0.376528 0.000203 0.313388
0.379361 -0.000198 0.312391
0.382200 -0.000600 0.311392
0.385998 -0.001406 0.308830
0.389812 -0.002215 0.306256
0.393642 -0.003028 0.303672
0.398461 -0.004253 0.299494
-0.372312 -0.051658 -0.133567
-0.370950 -0.049619 -0.123906
-0.369215 -0.048607 -0.118797
-0.367683 -0.047098 -0.111488
-0.366161 -0.045599 -0.104229
-0.364650 -0.044111 -0.097020
-0.363149 -0.042632 -0.089860
-0.361460 -0.041652 -0.084910
-0.359778 -0.040676 -0.079982
-0.358306 -0.039221 -0.072936
-0.356641 -0.038257 -0.068063
-0.355187 -0.036818 -0.061097
-0.353333 -0.036340 -0.058382
-0.351690 -0.035388 -0.053573
-0.350055 -0.034441 -0.048787
-0.348427 -0.033498 -0.044021
-0.346595 -0.033028 -0.041346
-0.344979 -0.032091 -0.036613
-0.343372 -0.031158 -0.031901
-0.341555 -0.030693 -0.029254
-0.339743 -0.030229 -0.026613
-0.338154 -0.029304 -0.021944
-0.336351 -0.028844 -0.019319
-0.334775 -0.027925 -0.014681
-0.332982 -0.027467 -0.012074
-0.331193 -0.027011 -0.009471
-0.329408 -0.026555 -0.006875
-0.327855 -0.025646 -0.002290
-0.325849 -0.025646 -0.001699
-0.324308 -0.024742 0.002865
-0.322540 -0.024291 0.005433
-0.320776 -0.023841 0.007997
-0.319016 -0.023392 0.010554
-0.317259 -0.022944 0.013107
-0.315746 -0.022052 0.017609
-0.313999 -0.021607 0.020145
-0.312256 -0.021163 0.022676
-0.310516 -0.020720 0.025201
-0.308780 -0.020278 0.027721
-0.306801 -0.020278 0.028304
-0.305071 -0.019836 0.030817
-0.303093 -0.019836 0.031400
-0.301369 -0.019396 0.033907
-0.299649 -0.018957 0.036410
-0.297675 -0.018957 0.036991
-0.295961 -0.018519 0.039487
-0.293990 -0.018519 0.040067
-0.292281 -0.018081 0.042558
-0.290576 -0.017645 0.045043
-0.288874 -0.017209 0.047522
-0.286909 -0.017209 0.048101
-0.284945 -0.017209 0.048680
-0.283251 -0.016775 0.051153
-0.281288 -0.016775 0.051731
-0.279600 -0.016341 0.054198
-0.277640 -0.016341 0.054775
-0.275957 -0.015909 0.057237
-0.273999 -0.015909 0.057813
-0.272322 -0.015477 0.060269
-0.270366 -0.015477 0.060845
-0.268695 -0.015046 0.063294
-0.266741 -0.015046 0.063870
-0.265075 -0.014616 0.066314
-0.263123 -0.014616 0.066889
-0.261463 -0.014187 0.069327
-0.259513 -0.014187 0.069901
-0.257563 -0.014187 0.070475
-0.255911 -0.013759 0.072907
-0.253963 -0.013759 0.073481
-0.252316 -0.013332 0.075906
-0.250370 -0.013332 0.076479
-0.248729 -0.012905 0.078900
-0.246785 -0.012905 0.079472
-0.244841 -0.012905 0.080044
-0.242897 -0.012905 0.080617
-0.240953 -0.012905 0.081189
-0.239324 -0.012480 0.083602
-0.237382 -0.012480 0.084174
-0.235440 -0.012480 0.084745
-0.233498 -0.012480 0.085317
-0.231879 -0.012056 0.087723
-0.229939 -0.012056 0.088294
-0.227999 -0.012056 0.088865
-0.226387 -0.011632 0.091265
-0.224449 -0.011632 0.091835
-0.222511 -0.011632 0.092406
-0.220573 -0.011632 0.092977
-0.218635 -0.011632 0.093547
-0.217035 -0.011209 0.095939
-0.215099 -0.011209 0.096509
-0.213163 -0.011209 0.097079
-0.211227 -0.011209 0.097649
-0.209636 -0.010787 0.100034
-0.207702 -0.010787 0.100604
-0.205768 -0.010787 0.101173
-0.203835 -0.010787 0.101743
-0.201901 -0.010787 0.102312
-0.199967 -0.010787 0.102881
-0.198033 -0.010787 0.103451
-0.196099 -0.010787 0.104020
-0.194166 -0.010787 0.104590
-0.192232 -0.010787 0.105159
-0.190298 -0.010787 0.105729
-0.188364 -0.010787 0.106298
-0.186799 -0.010367 0.108671
-0.184867 -0.010367 0.109240
-0.182935 -0.010367 0.109809
-0.181004 -0.010367 0.110378
-0.179072 -0.010367 0.110947
-0.177140 -0.010367 0.111516
-0.175208 -0.010367 0.112084
-0.173276 -0.010367 0.112653
-0.171345 -0.010367 0.113222
-0.169413 -0.010367 0.113791
-0.167092 -0.010787 0.112562
-0.165158 -0.010787 0.113131
-0.163225 -0.010787 0.113701
-0.161291 -0.010787 0.114270
-0.159357 -0.010787 0.114839
-0.157423 -0.010787 0.115409
-0.155890 -0.010367 0.117773
-0.153555 -0.010787 0.116548
-0.151622 -0.010787 0.117117
-0.149280 -0.011209 0.115890
-0.147344 -0.011209 0.116460
-0.144995 -0.011632 0.115231
-0.143057 -0.011632 0.115802
-0.140701 -0.012056 0.114571
-0.138761 -0.012056 0.115142
-0.136821 -0.012056 0.115713
-0.134456 -0.012480 0.114481
-0.132086 -0.012905 0.113246
-0.130142 -0.012905 0.113819
-0.128198 -0.012905 0.114391
-0.125819 -0.013332 0.113155
-0.123873 -0.013332 0.113728
-0.121926 -0.013332 0.114301
-0.119538 -0.013759 0.113063
-0.117590 -0.013759 0.113637
-0.115642 -0.013759 0.114210
-0.113244 -0.014187 0.112971
-0.111294 -0.014187 0.113545
-0.109343 -0.014187 0.114120
-0.106937 -0.014616 0.112879
-0.104984 -0.014616 0.113454
-0.103032 -0.014616 0.114029
-0.101080 -0.014616 0.114604
-0.098661 -0.015046 0.113362
-0.096707 -0.015046 0.113938
-0.094753 -0.015046 0.114513
-0.092325 -0.015477 0.113270
-0.090369 -0.015477 0.113847
-0.088412 -0.015477 0.114423
-0.085975 -0.015909 0.113178
-0.084017 -0.015909 0.113755
-0.081572 -0.016341 0.112509
-0.079612 -0.016341 0.113086
-0.077651 -0.016341 0.113663
-0.075197 -0.016775 0.112416
-0.073235 -0.016775 0.112994
-0.070774 -0.017209 0.111744
-0.068809 -0.017209 0.112323
-0.066340 -0.017645 0.111071
-0.064373 -0.017645 0.111650
-0.061898 -0.018081 0.110396
-0.059928 -0.018081 0.110976
-0.057959 -0.018081 0.111556
-0.055474 -0.018519 0.110300
-0.053503 -0.018519 0.110881
-0.051010 -0.018957 0.109623
-0.049037 -0.018957 0.110204
-0.046536 -0.019396 0.108945
-0.044561 -0.019396 0.109527
-0.042586 -0.019396 0.110108
-0.040076 -0.019836 0.108847
-0.038098 -0.019836 0.109430
-0.035581 -0.020278 0.108167
-0.033601 -0.020278 0.108750
-0.031621 -0.020278 0.109332
-0.029641 -0.020278 0.109915
-0.027112 -0.020720 0.108651
-0.025130 -0.020720 0.109235
-0.023148 -0.020720 0.109819
-0.020609 -0.021163 0.108553
-0.018625 -0.021163 0.109137
-0.016079 -0.021607 0.107870
-0.014092 -0.021607 0.108455
-0.011538 -0.022052 0.107185
-0.009550 -0.022052 0.107771
-0.007561 -0.022052 0.108356
-0.004997 -0.022498 0.107085
-0.003007 -0.022498 0.107671
-0.000435 -0.022944 0.106398
0.001558 -0.022944 0.106985
0.004138 -0.023392 0.105710
0.006132 -0.023392 0.106297
0.008720 -0.023841 0.105019
0.010717 -0.023841 0.105607
0.012714 -0.023841 0.106195
0.015311 -0.024291 0.104916
0.017310 -0.024291 0.105505
0.019916 -0.024742 0.104224
0.023138 -0.025646 0.101063
0.025144 -0.025646 0.101653
0.027149 -0.025646 0.102244
0.029774 -0.026100 0.100955
0.031782 -0.026100 0.101546
0.034414 -0.026555 0.100255
0.036424 -0.026555 0.100847
0.039065 -0.027011 0.099554
0.041077 -0.027011 0.100146
0.043726 -0.027467 0.098851
0.045740 -0.027467 0.099444
0.048397 -0.027925 0.098147
0.050414 -0.027925 0.098740
0.053078 -0.028384 0.097441
0.055097 -0.028384 0.098035
0.057770 -0.028844 0.096733
0.059791 -0.028844 0.097328
0.062472 -0.029304 0.096024
0.064496 -0.029304 0.096620
0.067185 -0.029766 0.095313
0.069210 -0.029766 0.095910
0.071907 -0.030229 0.094601
0.073935 -0.030229 0.095198
0.076641 -0.030693 0.093887
0.078671 -0.030693 0.094485
0.081385 -0.031158 0.093172
0.083417 -0.031158 0.093770
0.086139 -0.031624 0.092455
0.088173 -0.031624 0.093054
0.090904 -0.032091 0.091736
0.092941 -0.032091 0.092336
0.095679 -0.032559 0.091016
0.097718 -0.032559 0.091617
0.100465 -0.033028 0.090294
0.102507 -0.033028 0.090895
0.105262 -0.033498 0.089571
0.107306 -0.033498 0.090173
0.110069 -0.033969 0.088846
0.112115 -0.033969 0.089448
0.114888 -0.034441 0.088119
0.116207 -0.033969 0.090653
0.118984 -0.034441 0.089326
0.121032 -0.034441 0.089929
0.123817 -0.034914 0.088599
0.125868 -0.034914 0.089202
0.128662 -0.035388 0.087870
0.130715 -0.035388 0.088475
0.132767 -0.035388 0.089079
0.134820 -0.035388 0.089683
0.136873 -0.035388 0.090288
0.138171 -0.034914 0.092825
0.140221 -0.034914 0.093429
0.142272 -0.034914 0.094033
0.144322 -0.034914 0.094636
0.146373 -0.034914 0.095240
0.148423 -0.034914 0.095844
0.149707 -0.034441 0.098372
0.151755 -0.034441 0.098975
0.153803 -0.034441 0.099578
0.155852 -0.034441 0.100182
0.157900 -0.034441 0.100785
0.159948 -0.034441 0.101388
0.161996 -0.034441 0.101991
0.164044 -0.034441 0.102594
0.083096 0.015582 0.306048
0.082465 0.017047 0.312517
0.082443 0.018138 0.317468
0.084237 0.018138 0.317996
0.086031 0.018138 0.318525
0.087215 0.018500 0.320519
0.088397 0.018862 0.322510
0.090188 0.018862 0.323037
0.091365 0.019223 0.325024
0.093154 0.019223 0.325550
0.094328 0.019583 0.327532
0.096115 0.019583 0.328058
0.097284 0.019942 0.330036
0.099070 0.019942 0.330562
0.100235 0.020301 0.332535
0.101399 0.020659 0.334504
0.103181 0.020659 0.335029
0.104340 0.021017 0.336994
0.106120 0.021017 0.337518
0.107275 0.021373 0.339479
0.109054 0.021373 0.340003
0.110205 0.021729 0.341959
0.111355 0.022084 0.343912
0.113129 0.022084 0.344435
0.114275 0.022439 0.346383
0.116048 0.022439 0.346905
0.117189 0.022793 0.348849
0.118961 0.022793 0.349371
0.120098 0.023146 0.351311
0.121868 0.023146 0.351832
0.123002 0.023499 0.353768
0.124133 0.023851 0.355699
0.125899 0.023851 0.356220
0.127027 0.024202 0.358147
0.128792 0.024202 0.358667
0.129915 0.024552 0.360590
0.131678 0.024552 0.361109
0.132798 0.024902 0.363029
0.133916 0.025251 0.364945
0.135675 0.025251 0.365463
0.136789 0.025600 0.367374
0.138547 0.025600 0.367892
0.139657 0.025948 0.369799
0.141413 0.025948 0.370316
0.142520 0.026295 0.372219
0.144274 0.026295 0.372736
0.146029 0.026295 0.373253
0.147783 0.026295 0.373769
0.149537 0.026295 0.374286
0.151292 0.026295 0.374802
0.153046 0.026295 0.375319
0.154801 0.026295 0.375836
0.156555 0.026295 0.376352
0.158310 0.026295 0.376869
0.160731 0.025948 0.376004
0.162487 0.025948 0.376522
0.164915 0.025600 0.375656
0.167347 0.025251 0.374789
0.169784 0.024902 0.373920
0.172225 0.024552 0.373049
0.174671 0.024202 0.372177
0.177122 0.023851 0.371303
0.178201 0.024202 0.373216
0.180655 0.023851 0.372343
0.183114 0.023499 0.371468
0.184882 0.023499 0.371989
0.187347 0.023146 0.371113
0.189117 0.023146 0.371634
0.191589 0.022793 0.370757
0.194066 0.022439 0.369878
0.196547 0.022084 0.368998
0.199746 0.021373 0.366708
0.202241 0.021017 0.365822
0.205460 0.020301 0.363519
0.209419 0.019223 0.359785
0.213400 0.018138 0.356029
0.217405 0.017047 0.352251
0.220689 0.016316 0.349897
0.224736 0.015214 0.346083
0.228051 0.014476 0.343705
0.232901 0.012991 0.338385
0.239334 0.010741 0.330057
0.283692 -0.009947 0.249120
0.283036 -0.008692 0.254628
0.284099 -0.008275 0.256834
0.284302 -0.007445 0.260667
0.284503 -0.006618 0.264484
0.285560 -0.006206 0.266667
0.286614 -0.005794 0.268847
0.286810 -0.004974 0.272631
0.287005 -0.004157 0.276399
0.287199 -0.003344 0.280152
0.288244 -0.002939 0.282302
0.289287 -0.002534 0.284447
0.290327 -0.002130 0.286588
0.291366 -0.001727 0.288724
0.292402 -0.001325 0.290856
0.293436 -0.000924 0.292984
0.294468 -0.000524 0.295107
0.296352 -0.000524 0.295662
0.297380 -0.000124 0.297780
0.299262 -0.000124 0.298335
0.300286 0.000275 0.300448
0.302167 0.000275 0.301002
0.303186 0.000673 0.303110
0.305065 0.000673 0.303663
0.306943 0.000673 0.304216
0.307957 0.001070 0.306320
0.309834 0.001070 0.306872
0.310844 0.001466 0.308970
0.312718 0.001466 0.309522
0.314593 0.001466 0.310074
0.316467 0.001466 0.310626
0.317469 0.001862 0.312719
0.319342 0.001862 0.313270
0.321215 0.001862 0.313821
0.323087 0.001862 0.314373
0.324960 0.001862 0.314924
0.326833 0.001862 0.315476
0.328705 0.001862 0.316027
0.330578 0.001862 0.316579
0.332451 0.001862 0.317130
0.334323 0.001862 0.317681
0.336196 0.001862 0.318233
0.338068 0.001862 0.318784
0.340836 0.001466 0.317802
0.342711 0.001466 0.318354
0.344586 0.001466 0.318906
0.346460 0.001466 0.319458
0.349240 0.001070 0.318476
0.351116 0.001070 0.319028
0.353903 0.000673 0.318044
0.355781 0.000673 0.318597
0.358576 0.000275 0.317612
0.361376 -0.000124 0.316625
0.363259 -0.000124 0.317179
0.365141 -0.000124 0.317733
0.367951 -0.000524 0.316745
0.370767 -0.000924 0.315755
0.373588 -0.001325 0.314762
0.376416 -0.001727 0.313768
0.379249 -0.002130 0.312771
0.383037 -0.002939 0.310214
0.385886 -0.003344 0.309211
0.389700 -0.004157 0.306639
0.393529 -0.004974 0.304055
0.400299 -0.007031 0.296704
-0.370306 -0.053834 -0.132511
-0.368760 -0.052296 -0.125104
-0.367224 -0.050769 -0.117748
-0.365698 -0.049252 -0.110443
-0.364184 -0.047746 -0.103188
-0.362679 -0.046250 -0.095982
-0.361185 -0.044764 -0.088826
-0.359701 -0.043288 -0.081718
-0.358025 -0.042310 -0.076803
-0.356357 -0.041336 -0.071910
-0.354901 -0.039884 -0.064915
-0.353249 -0.038921 -0.060076
-0.351605 -0.037962 -0.055259
-0.349759 -0.037485 -0.052556
-0.348128 -0.036532 -0.047772
-0.346504 -0.035585 -0.043009
-0.344887 -0.034641 -0.038267
-0.343278 -0.033701 -0.033546
-0.341460 -0.033233 -0.030894
-0.339645 -0.032766 -0.028248
-0.338055 -0.031835 -0.023570
-0.336250 -0.031371 -0.020941
-0.334450 -0.030908 -0.018318
-0.332877 -0.029984 -0.013682
-0.331086 -0.029524 -0.011075
-0.329300 -0.029065 -0.008474
-0.327517 -0.028607 -0.005879
-0.325737 -0.028150 -0.003289
-0.323962 -0.027694 -0.000705
-0.322425 -0.026785 0.003856
-0.320659 -0.026332 0.006424
-0.318897 -0.025880 0.008986
-0.317139 -0.025429 0.011543
-0.315624 -0.024530 0.016053
-0.313876 -0.024082 0.018594
-0.312131 -0.023635 0.021129
-0.310389 -0.023189 0.023659
-0.308652 -0.022743 0.026183
-0.306670 -0.022743 0.026766
-0.304938 -0.022299 0.029285
-0.302958 -0.022299 0.029868
-0.301233 -0.021856 0.032379
-0.299255 -0.021856 0.032962
-0.297535 -0.021413 0.035468
-0.295819 -0.020972 0.037969
-0.293846 -0.020972 0.038550
-0.292135 -0.020532 0.041044
-0.290164 -0.020532 0.041625
-0.288459 -0.020092 0.044113
-0.286758 -0.019654 0.046597
-0.284791 -0.019654 0.047176
-0.283096 -0.019216 0.049653
-0.281131 -0.019216 0.050232
-0.279442 -0.018779 0.052703
-0.277479 -0.018779 0.053281
-0.275795 -0.018343 0.055747
-0.273834 -0.018343 0.056324
-0.272156 -0.017909 0.058784
-0.270198 -0.017909 0.059361
-0.268525 -0.017475 0.061814
-0.266569 -0.017475 0.062390
-0.264902 -0.017042 0.064838
-0.262947 -0.017042 0.065414
-0.261286 -0.016610 0.067856
-0.259334 -0.016610 0.068431
-0.257678 -0.016179 0.070867
-0.255728 -0.016179 0.071442
-0.253778 -0.016179 0.072016
-0.252130 -0.015748 0.074446
-0.250182 -0.015748 0.075020
-0.248539 -0.015319 0.077444
-0.246593 -0.015319 0.078017
-0.244647 -0.015319 0.078590
-0.242701 -0.015319 0.079163
-0.241068 -0.014891 0.081580
-0.239124 -0.014891 0.082153
-0.237180 -0.014891 0.082725
-0.235236 -0.014891 0.083297
-0.233613 -0.014463 0.085708
-0.231671 -0.014463 0.086280
-0.229729 -0.014463 0.086851
-0.227787 -0.014463 0.087423
-0.226174 -0.014037 0.089827
-0.224234 -0.014037 0.090398
-0.222294 -0.014037 0.090969
-0.220354 -0.014037 0.091540
-0.218750 -0.013611 0.093937
-0.216812 -0.013611 0.094508
-0.214874 -0.013611 0.095078
-0.212936 -0.013611 0.095649
-0.210998 -0.013611 0.096219
-0.209406 -0.013186 0.098609
-0.207470 -0.013186 0.099179
-0.205534 -0.013186 0.099749
-0.203598 -0.013186 0.100319
-0.201662 -0.013186 0.100889
-0.199726 -0.013186 0.101459
-0.197791 -0.013186 0.102029
-0.195855 -0.013186 0.102599
-0.193919 -0.013186 0.103169
-0.191983 -0.013186 0.103739
-0.190047 -0.013186 0.104309
-0.188479 -0.012762 0.106687
-0.186545 -0.012762 0.107256
-0.184611 -0.012762 0.107826
-0.182677 -0.012762 0.108395
-0.180743 -0.012762 0.108965
-0.178810 -0.012762 0.109534
-0.176876 -0.012762 0.110103
-0.174942 -0.012762 0.110673
-0.173008 -0.012762 0.111242
-0.171074 -0.012762 0.111812
-0.169140 -0.012762 0.112381
-0.166817 -0.013186 0.111149
-0.164881 -0.013186 0.111719
-0.162945 -0.013186 0.112289
-0.161009 -0.013186 0.112859
-0.159074 -0.013186 0.113429
-0.157538 -0.012762 0.115798
-0.155604 -0.012762 0.116367
-0.153266 -0.013186 0.115139
-0.151330 -0.013186 0.115709
-0.148985 -0.013611 0.114480
-0.147047 -0.013611 0.115050
-0.144696 -0.014037 0.113818
-0.142756 -0.014037 0.114390
-0.140397 -0.014463 0.113156
-0.138455 -0.014463 0.113728
-0.136513 -0.014463 0.114300
-0.134145 -0.014891 0.113064
-0.131772 -0.015319 0.111827
-0.129826 -0.015319 0.112400
-0.127880 -0.015319 0.112973
-0.125498 -0.015748 0.111734
-0.123550 -0.015748 0.112307
-0.121602 -0.015748 0.112881
-0.119210 -0.016179 0.111640
-0.117260 -0.016179 0.112215
-0.115310 -0.016179 0.112789
-0.112909 -0.016610 0.111547
-0.110957 -0.016610 0.112122
-0.109005 -0.016610 0.112697
-0.106595 -0.017042 0.111453
-0.104640 -0.017042 0.112029
-0.102686 -0.017042 0.112604
-0.100731 -0.017042 0.113180
-0.098310 -0.017475 0.111935
-0.096354 -0.017475 0.112512
-0.094397 -0.017475 0.113088
-0.091967 -0.017909 0.111842
-0.090008 -0.017909 0.112419
-0.088050 -0.017909 0.112995
-0.085610 -0.018343 0.111748
-0.083649 -0.018343 0.112326
-0.081688 -0.018343 0.112903
-0.079239 -0.018779 0.111655
-0.077276 -0.018779 0.112232
-0.074820 -0.019216 0.110982
-0.072855 -0.019216 0.111560
-0.070391 -0.019654 0.110308
-0.068424 -0.019654 0.110887
-0.066457 -0.019654 0.111466
-0.063983 -0.020092 0.110212
-0.062014 -0.020092 0.110792
-0.059533 -0.020532 0.109536
-0.057562 -0.020532 0.110116
-0.055074 -0.020972 0.108858
-0.053100 -0.020972 0.109439
-0.051127 -0.020972 0.110020
-0.048629 -0.021413 0.108760
-0.046653 -0.021413 0.109342
-0.044148 -0.021856 0.108080
-0.042170 -0.021856 0.108663
-0.039657 -0.022299 0.107399
-0.037677 -0.022299 0.107982
-0.035157 -0.022743 0.106716
-0.033175 -0.022743 0.107299
-0.031738 -0.022299 0.109730
-0.029211 -0.022743 0.108466
-0.027229 -0.022743 0.109050
-0.024695 -0.023189 0.107784
-0.022711 -0.023189 0.108368
-0.020168 -0.023635 0.107100
-0.018182 -0.023635 0.107684
-0.016196 -0.023635 0.108269
-0.013644 -0.024082 0.107000
-0.011656 -0.024082 0.107585
-0.009096 -0.024530 0.106313
-0.007105 -0.024530 0.106899
-0.004538 -0.024979 0.105625
-0.002545 -0.024979 0.106212
0.000030 -0.025429 0.104936
0.002025 -0.025429 0.105523
0.004608 -0.025880 0.104245
0.006605 -0.025880 0.104833
0.009196 -0.026332 0.103552
0.011195 -0.026332 0.104141
0.013194 -0.026332 0.104730
0.015795 -0.026785 0.103448
0.017796 -0.026785 0.104037
0.021013 -0.027694 0.100875
0.023019 -0.027694 0.101466
0.025639 -0.028150 0.100176
0.027647 -0.028150 0.100768
0.030275 -0.028607 0.099476
0.032285 -0.028607 0.100067
0.034921 -0.029065 0.098773
0.036934 -0.029065 0.099366
0.039578 -0.029524 0.098070
0.042228 -0.029984 0.096771
0.044244 -0.029984 0.097364
0.046902 -0.030445 0.096063
0.048921 -0.030445 0.096658
0.050940 -0.030445 0.097252
0.053608 -0.030908 0.095949
0.055629 -0.030908 0.096544
0.058306 -0.031371 0.095239
0.060329 -0.031371 0.095835
0.063014 -0.031835 0.094528
0.065039 -0.031835 0.095124
0.067732 -0.032300 0.093815
0.069760 -0.032300 0.094412
0.072460 -0.032766 0.093100
0.074491 -0.032766 0.093698
0.077200 -0.033233 0.092384
0.079915 -0.033701 0.091067
0.081949 -0.033701 0.091666
0.083984 -0.033701 0.092265
0.086709 -0.034171 0.090946
0.088746 -0.034171 0.091546
0.091480 -0.034641 0.090225
0.093519 -0.034641 0.090826
0.095558 -0.034641 0.091426
0.098303 -0.035112 0.090104
0.100344 -0.035112 0.090705
0.102386 -0.035112 0.091306
0.105141 -0.035585 0.089982
0.107185 -0.035585 0.090584
0.109948 -0.036058 0.089257
0.111994 -0.036058 0.089860
0.114766 -0.036532 0.088531
0.116814 -0.036532 0.089134
0.119595 -0.037008 0.087803
0.121646 -0.037008 0.088407
0.124435 -0.037485 0.087074
0.126487 -0.037485 0.087678
0.129285 -0.037962 0.086343
0.130593 -0.037485 0.088887
0.132646 -0.037485 0.089492
0.134699 -0.037485 0.090096
0.136751 -0.037485 0.090701
0.138804 -0.037485 0.091305
0.140857 -0.037485 0.091910
0.142910 -0.037485 0.092514
0.144963 -0.037485 0.093118
0.147015 -0.037485 0.093723
0.149068 -0.037485 0.094327
0.150352 -0.037008 0.096860
0.152403 -0.037008 0.097464
0.154453 -0.037008 0.098068
0.156504 -0.037008 0.098671
0.158554 -0.037008 0.099275
0.160605 -0.037008 0.099879
0.162655 -0.037008 0.100483
0.079969 0.014475 0.308855
0.079351 0.015942 0.315301
0.081147 0.015942 0.315830
0.081733 0.016670 0.319296
0.082920 0.017034 0.321288
0.084710 0.017034 0.321816
0.085893 0.017396 0.323803
0.087682 0.017396 0.324330
0.088861 0.017758 0.326313
0.090648 0.017758 0.326839
0.091823 0.018119 0.328818
0.093608 0.018119 0.329344
0.094779 0.018480 0.331318
0.096563 0.018480 0.331843
0.097730 0.018840 0.333813
0.098895 0.019199 0.335780
0.100675 0.019199 0.336304
0.101835 0.019557 0.338266
0.103614 0.019557 0.338789
0.104770 0.019915 0.340747
0.106547 0.019915 0.341270
0.107700 0.020272 0.343224
0.108850 0.020628 0.345173
0.110624 0.020628 0.345695
0.111770 0.020984 0.347641
0.113542 0.020984 0.348162
0.114684 0.021339 0.350103
0.116454 0.021339 0.350624
0.117593 0.021693 0.352561
0.119361 0.021693 0.353082
0.120496 0.022047 0.355014
0.121629 0.022400 0.356943
0.123393 0.022400 0.357463
0.124522 0.022752 0.359387
0.126285 0.022752 0.359907
0.127410 0.023104 0.361827
0.129171 0.023104 0.362346
0.130293 0.023455 0.364262
0.131412 0.023805 0.366175
0.133169 0.023805 0.366692
0.134285 0.024154 0.368601
0.136041 0.024154 0.369118
0.137152 0.024503 0.371022
0.138907 0.024503 0.371539
0.140014 0.024851 0.373439
0.141767 0.024851 0.373955
0.143520 0.024851 0.374471
0.145273 0.024851 0.374987
0.147026 0.024851 0.375504
0.148778 0.024851 0.376020
0.150531 0.024851 0.376536
0.152284 0.024851 0.377052
0.154037 0.024851 0.377568
0.155790 0.024851 0.378084
0.157542 0.024851 0.378600
0.159961 0.024503 0.377738
0.162383 0.024154 0.376875
0.164139 0.024154 0.377392
0.166569 0.023805 0.376527
0.169002 0.023455 0.375660
0.171441 0.023104 0.374792
0.173884 0.022752 0.373922
0.176331 0.022400 0.373051
0.178096 0.022400 0.373571
0.180550 0.022047 0.372698
0.183009 0.021693 0.371823
0.184777 0.021693 0.372344
0.186545 0.021693 0.372865
0.188313 0.021693 0.373385
0.190782 0.021339 0.372511
0.193961 0.020628 0.370235
0.196442 0.020272 0.369354
0.199641 0.019557 0.367065
0.202135 0.019199 0.366180
0.206076 0.018119 0.362461
0.210040 0.017034 0.358720
0.213294 0.016306 0.356390
0.217299 0.015210 0.352613
0.220583 0.014475 0.350260
0.224629 0.013368 0.346446
0.228699 0.012254 0.342610
0.234321 0.010383 0.335808
0.242332 0.007351 0.324458
0.284441 -0.012339 0.247854
0.283782 -0.011076 0.253372
0.283986 -0.010237 0.257220
0.285047 -0.009820 0.259421
0.285247 -0.008987 0.263244
0.285447 -0.008158 0.267052
0.286501 -0.007744 0.269231
0.286697 -0.006920 0.273014
0.287747 -0.006509 0.275180
0.287940 -0.005690 0.278939
0.288132 -0.004875 0.282683
0.289175 -0.004468 0.284828
0.290215 -0.004062 0.286968
0.291254 -0.003657 0.289104
0.292290 -0.003253 0.291236
0.293324 -0.002850 0.293363
0.295211 -0.002850 0.293918
0.296241 -0.002448 0.296041
0.298125 -0.002448 0.296596
0.299151 -0.002046 0.298713
0.300175 -0.001645 0.300826
0.302055 -0.001645 0.301380
0.303075 -0.001245 0.303488
0.304954 -0.001245 0.304041
0.306832 -0.001245 0.304594
0.308710 -0.001245 0.305147
0.309723 -0.000846 0.307249
0.311599 -0.000846 0.307802
0.312607 -0.000448 0.309899
0.314482 -0.000448 0.310451
0.316356 -0.000448 0.311003
0.318231 -0.000448 0.311555
0.319231 -0.000051 0.313646
0.321104 -0.000051 0.314198
0.322976 -0.000051 0.314749
0.324849 -0.000051 0.315301
0.326722 -0.000051 0.315852
0.328594 -0.000051 0.316404
0.330467 -0.000051 0.316955
0.332340 -0.000051 0.317506
0.334212 -0.000051 0.318058
0.336085 -0.000051 0.318609
0.337958 -0.000051 0.319161
0.340726 -0.000448 0.318179
0.342600 -0.000448 0.318731
0.344475 -0.000448 0.319283
0.346349 -0.000448 0.319835
0.349128 -0.000846 0.318853
0.351005 -0.000846 0.319405
0.353792 -0.001245 0.318422
0.355670 -0.001245 0.318975
0.358465 -0.001645 0.317990
0.361265 -0.002046 0.317003
0.363147 -0.002046 0.317557
0.365030 -0.002046 0.318112
0.367839 -0.002448 0.317124
0.370655 -0.002850 0.316134
0.373477 -0.003253 0.315142
0.376304 -0.003657 0.314148
0.379137 -0.004062 0.313152
0.382925 -0.004875 0.310595
0.386728 -0.005690 0.308028
0.389587 -0.006099 0.307021
0.394383 -0.007332 0.302862
-0.368301 -0.056011 -0.131455
-0.366761 -0.054465 -0.124052
-0.365232 -0.052930 -0.116699
-0.363714 -0.051406 -0.109397
-0.362206 -0.049893 -0.102146
-0.360708 -0.048389 -0.094944
-0.359221 -0.046896 -0.087791
-0.357743 -0.045413 -0.080687
-0.356276 -0.043940 -0.073631
-0.354614 -0.042964 -0.068751
-0.352959 -0.041992 -0.063893
-0.351311 -0.041024 -0.059056
-0.349671 -0.040061 -0.054241
-0.348039 -0.039102 -0.049447
-0.346413 -0.038147 -0.044675
-0.344581 -0.037671 -0.041996
-0.343184 -0.036250 -0.035194
-0.341364 -0.035779 -0.032538
-0.339548 -0.035308 -0.029887
-0.337955 -0.034371 -0.025200
-0.336149 -0.033903 -0.022566
-0.334347 -0.033437 -0.019938
-0.332773 -0.032507 -0.015294
-0.330980 -0.032044 -0.012683
-0.329191 -0.031582 -0.010077
-0.327406 -0.031120 -0.007477
-0.325625 -0.030660 -0.004883
-0.323848 -0.030201 -0.002295
-0.322075 -0.029743 0.000288
-0.320542 -0.028829 0.004848
-0.318778 -0.028374 0.007415
-0.317018 -0.027920 0.009976
-0.315502 -0.027014 0.014494
-0.313752 -0.026563 0.017039
-0.312005 -0.026112 0.019579
-0.310262 -0.025663 0.022113
-0.308523 -0.025215 0.024642
-0.306539 -0.025215 0.025226
-0.304555 -0.025215 0.025810
-0.302823 -0.024767 0.028332
-0.301096 -0.024321 0.030848
-0.299116 -0.024321 0.031431
-0.297395 -0.023875 0.033942
-0.295677 -0.023431 0.036447
-0.293701 -0.023431 0.037028
-0.291989 -0.022987 0.039527
-0.290016 -0.022987 0.040108
-0.288309 -0.022545 0.042601
-0.286607 -0.022103 0.045089
-0.284638 -0.022103 0.045669
-0.282941 -0.021662 0.048150
-0.280974 -0.021662 0.048730
-0.279283 -0.021222 0.051205
-0.277595 -0.020784 0.053676
-0.275632 -0.020784 0.054254
-0.273950 -0.020346 0.056718
-0.271990 -0.020346 0.057296
-0.270314 -0.019909 0.059754
-0.268355 -0.019909 0.060331
-0.266685 -0.019473 0.062784
-0.264728 -0.019473 0.063360
-0.263063 -0.019038 0.065807
-0.261109 -0.019038 0.066382
-0.259450 -0.018603 0.068823
-0.257497 -0.018603 0.069398
-0.255545 -0.018603 0.069973
-0.253893 -0.018170 0.072408
-0.251943 -0.018170 0.072982
-0.250297 -0.017738 0.075411
-0.248349 -0.017738 0.075985
-0.246401 -0.017738 0.076559
-0.244453 -0.017738 0.077132
-0.242504 -0.017738 0.077706
-0.240870 -0.017306 0.080127
-0.238924 -0.017306 0.080700
-0.236978 -0.017306 0.081273
-0.235032 -0.017306 0.081846
-0.233407 -0.016876 0.084261
-0.231463 -0.016876 0.084833
-0.229519 -0.016876 0.085406
-0.227902 -0.016446 0.087814
-0.225960 -0.016446 0.088385
-0.224018 -0.016446 0.088957
-0.222076 -0.016446 0.089529
-0.220134 -0.016446 0.090101
-0.218529 -0.016018 0.092502
-0.216589 -0.016018 0.093073
-0.214649 -0.016018 0.093644
-0.212709 -0.016018 0.094215
-0.211113 -0.015590 0.096609
-0.209175 -0.015590 0.097180
-0.207237 -0.015590 0.097750
-0.205299 -0.015590 0.098321
-0.203361 -0.015590 0.098892
-0.201423 -0.015590 0.099462
-0.199485 -0.015590 0.100033
-0.197548 -0.015590 0.100603
-0.195610 -0.015590 0.101174
-0.193672 -0.015590 0.101745
-0.191734 -0.015590 0.102315
-0.190162 -0.015163 0.104698
-0.188226 -0.015163 0.105268
-0.186290 -0.015163 0.105838
-0.184354 -0.015163 0.106408
-0.182418 -0.015163 0.106978
-0.180483 -0.015163 0.107548
-0.178547 -0.015163 0.108118
-0.176611 -0.015163 0.108688
-0.174675 -0.015163 0.109258
-0.172739 -0.015163 0.109828
-0.170803 -0.015163 0.110398
-0.168867 -0.015163 0.110968
-0.166541 -0.015590 0.109733
-0.164603 -0.015590 0.110304
-0.162665 -0.015590 0.110875
-0.160727 -0.015590 0.111445
-0.159188 -0.015163 0.113818
-0.157252 -0.015163 0.114388
-0.155316 -0.015163 0.114958
-0.152976 -0.015590 0.113728
-0.151038 -0.015590 0.114299
-0.148690 -0.016018 0.113066
-0.146751 -0.016018 0.113637
-0.144396 -0.016446 0.112403
-0.142454 -0.016446 0.112974
-0.140512 -0.016446 0.113546
-0.138148 -0.016876 0.112310
-0.136204 -0.016876 0.112883
-0.133834 -0.017306 0.111645
-0.131887 -0.017306 0.112218
-0.129510 -0.017738 0.110978
-0.127561 -0.017738 0.111552
-0.125613 -0.017738 0.112125
-0.123226 -0.018170 0.110884
-0.121276 -0.018170 0.111458
-0.119326 -0.018170 0.112032
-0.116929 -0.018603 0.110790
-0.114977 -0.018603 0.111365
-0.113025 -0.018603 0.111939
-0.110619 -0.019038 0.110695
-0.108665 -0.019038 0.111271
-0.106710 -0.019038 0.111846
-0.104296 -0.019473 0.110600
-0.102339 -0.019473 0.111177
-0.100383 -0.019473 0.111753
-0.098426 -0.019473 0.112329
-0.096000 -0.019909 0.111082
-0.094041 -0.019909 0.111659
-0.092083 -0.019909 0.112236
-0.089647 -0.020346 0.110988
-0.087686 -0.020346 0.111565
-0.085726 -0.020346 0.112142
