ply
format ascii 1.0
element vertex 1708
property float x
property float y
property float z
end_header
0.488329 0.184798 0.035748
0.486902 0.184798 0.034551
0.485475 0.184798 0.033354
0.484048 0.184798 0.032156
0.483363 0.184617 0.029484
0.481938 0.184617 0.028288
0.481256 0.184437 0.025621
0.479832 0.184437 0.024426
0.478407 0.184437 0.023231
0.476983 0.184437 0.022036
0.476306 0.184258 0.019379
0.474884 0.184258 0.018185
0.473461 0.184258 0.016991
0.472038 0.184258 0.015797
0.471367 0.184078 0.013148
0.469945 0.184078 0.011956
0.468524 0.184078 0.010763
0.467857 0.183899 0.008122
0.466437 0.183899 0.006930
0.465016 0.183899 0.005738
0.463596 0.183899 0.004547
0.462176 0.183899 0.003355
0.459995 0.184078 0.003606
0.458574 0.184078 0.002414
0.457152 0.184078 0.001221
0.455731 0.184078 0.000028
0.454309 0.184078 -0.001165
0.452888 0.184078 -0.002357
0.451466 0.184078 -0.003550
0.450045 0.184078 -0.004743
0.448623 0.184078 -0.005935
0.447202 0.184078 -0.007128
0.445781 0.184078 -0.008321
0.443581 0.184258 -0.008081
0.442158 0.184258 -0.009275
0.440736 0.184258 -0.010469
0.439313 0.184258 -0.011663
0.437105 0.184437 -0.011425
0.435681 0.184437 -0.012620
0.434257 0.184437 -0.013815
0.432832 0.184437 -0.015011
0.430616 0.184617 -0.014776
0.429191 0.184617 -0.015973
0.426969 0.184798 -0.015739
0.427930 0.184258 -0.021214
0.432820 0.182833 -0.033683
0.437634 0.181431 -0.045961
0.440849 0.180393 -0.055340
0.443269 0.179537 -0.063268
0.445666 0.178689 -0.071121
0.448040 0.177849 -0.078900
0.449651 0.177183 -0.085302
0.450509 0.176686 -0.090357
0.450625 0.176357 -0.094093
0.451477 0.175865 -0.099101
0.451590 0.175539 -0.102803
0.451703 0.175213 -0.106492
0.451816 0.174889 -0.110167
0.451928 0.174567 -0.113829
0.452039 0.174245 -0.117477
0.451423 0.174085 -0.119860
0.451535 0.173765 -0.123487
0.450921 0.173605 -0.125858
0.450308 0.173446 -0.128225
0.449695 0.173287 -0.130587
0.450535 0.172812 -0.135409
0.449925 0.172655 -0.137756
0.449316 0.172497 -0.140099
0.449431 0.172183 -0.143656
0.448824 0.172026 -0.145988
0.448218 0.171870 -0.148315
0.447614 0.171714 -0.150638
0.447731 0.171403 -0.154160
0.447129 0.171248 -0.156471
0.446527 0.171093 -0.158778
0.445206 0.171093 -0.159887
0.444606 0.170938 -0.162189
0.443286 0.170938 -0.163297
0.442689 0.170784 -0.165594
0.442093 0.170630 -0.167887
0.440775 0.170630 -0.168992
0.440182 0.170476 -0.171280
0.439589 0.170322 -0.173563
0.438997 0.170169 -0.175843
0.437683 0.170169 -0.176946
0.437094 0.170016 -0.179220
0.436505 0.169863 -0.181490
0.435193 0.169863 -0.182591
0.434607 0.169711 -0.184856
0.434022 0.169559 -0.187118
0.432713 0.169559 -0.188216
0.432130 0.169407 -0.190473
0.430822 0.169407 -0.191571
0.430241 0.169255 -0.193822
0.428934 0.169255 -0.194919
0.428355 0.169104 -0.197165
0.427049 0.169104 -0.198261
0.425743 0.169104 -0.199357
0.425168 0.168953 -0.201597
0.423863 0.168953 -0.202692
0.422558 0.168953 -0.203787
0.421986 0.168802 -0.206021
0.421416 0.168652 -0.208252
0.420113 0.168652 -0.209345
0.418810 0.168652 -0.210438
0.418243 0.168501 -0.212662
0.416941 0.168501 -0.213754
0.415640 0.168501 -0.214846
0.415076 0.168351 -0.217065
0.413775 0.168351 -0.218156
0.412475 0.168351 -0.219247
0.411175 0.168351 -0.220338
0.410615 0.168202 -0.222550
0.409316 0.168202 -0.223640
0.408017 0.168202 -0.224730
0.407460 0.168052 -0.226936
0.406162 0.168052 -0.228025
0.404864 0.168052 -0.229114
0.404311 0.167903 -0.231314
0.403014 0.167903 -0.232403
0.401717 0.167903 -0.233491
0.401168 0.167754 -0.235685
0.399872 0.167754 -0.236772
0.398576 0.167754 -0.237860
0.398030 0.167605 -0.240048
0.396735 0.167605 -0.241134
0.396191 0.167457 -0.243318
0.394897 0.167457 -0.244403
0.393604 0.167457 -0.245488
0.392310 0.167457 -0.246574
0.391770 0.167309 -0.248751
0.390478 0.167309 -0.249835
0.389186 0.167309 -0.250919
0.388649 0.167161 -0.253091
0.386601 0.167309 -0.253088
0.385309 0.167309 -0.254173
0.384016 0.167309 -0.255257
0.382724 0.167309 -0.256342
0.381432 0.167309 -0.257426
0.380139 0.167309 -0.258510
0.378847 0.167309 -0.259595
0.378319 0.167161 -0.261758
0.377028 0.167161 -0.262842
0.375737 0.167161 -0.263925
0.374446 0.167161 -0.265008
0.373155 0.167161 -0.266092
0.371863 0.167161 -0.267175
0.370572 0.167161 -0.268259
0.369281 0.167161 -0.269342
0.367990 0.167161 -0.270426
0.365924 0.167309 -0.270439
0.364631 0.167309 -0.271523
0.363339 0.167309 -0.272608
0.362047 0.167309 -0.273692
0.360754 0.167309 -0.274776
0.359462 0.167309 -0.275861
0.358951 0.167161 -0.278010
0.357660 0.167161 -0.279093
0.356369 0.167161 -0.280177
0.355078 0.167161 -0.281260
0.353786 0.167161 -0.282344
0.352495 0.167161 -0.283427
0.351991 0.167013 -0.285568
0.350701 0.167013 -0.286650
0.349411 0.167013 -0.287733
0.348121 0.167013 -0.288815
0.346039 0.167161 -0.288844
0.344748 0.167161 -0.289928
0.343457 0.167161 -0.291011
0.342166 0.167161 -0.292095
0.340874 0.167161 -0.293178
0.339583 0.167161 -0.294262
0.338292 0.167161 -0.295345
0.337001 0.167161 -0.296429
0.335710 0.167161 -0.297512
0.334418 0.167161 -0.298595
0.333127 0.167161 -0.299679
0.331836 0.167161 -0.300762
0.331350 0.167013 -0.302888
0.330060 0.167013 -0.303970
0.328770 0.167013 -0.305053
0.327480 0.167013 -0.306135
0.326190 0.167013 -0.307218
0.324900 0.167013 -0.308300
0.323610 0.167013 -0.309383
0.322320 0.167013 -0.310465
0.321030 0.167013 -0.311548
0.319740 0.167013 -0.312630
0.318450 0.167013 -0.313713
0.317159 0.167013 -0.314795
0.315869 0.167013 -0.315878
0.314579 0.167013 -0.316960
0.313289 0.167013 -0.318043
0.311999 0.167013 -0.319125
0.311531 0.166866 -0.321232
0.310242 0.166866 -0.322314
0.308953 0.166866 -0.323395
0.307665 0.166866 -0.324477
0.305549 0.167013 -0.324538
0.304259 0.167013 -0.325620
0.302969 0.167013 -0.326703
0.301679 0.167013 -0.327785
0.300389 0.167013 -0.328867
0.299099 0.167013 -0.329950
0.297808 0.167013 -0.331032
0.296518 0.167013 -0.332115
0.295228 0.167013 -0.333197
0.293938 0.167013 -0.334280
0.292648 0.167013 -0.335362
0.290517 0.167161 -0.335433
0.289226 0.167161 -0.336516
0.287935 0.167161 -0.337600
0.286644 0.167161 -0.338683
0.285353 0.167161 -0.339767
0.284061 0.167161 -0.340850
0.282770 0.167161 -0.341933
0.281479 0.167161 -0.343017
0.280188 0.167161 -0.344100
0.278044 0.167309 -0.344178
0.276752 0.167309 -0.345263
0.275460 0.167309 -0.346347
0.274167 0.167309 -0.347432
0.272875 0.167309 -0.348516
0.271582 0.167309 -0.349600
0.269429 0.167457 -0.349683
0.268136 0.167457 -0.350769
0.266842 0.167457 -0.351854
0.265549 0.167457 -0.352939
0.264255 0.167457 -0.354025
0.262962 0.167457 -0.355110
0.260799 0.167605 -0.355198
0.259505 0.167605 -0.356284
0.258210 0.167605 -0.357371
0.256915 0.167605 -0.358457
0.324759 0.155861 -0.438175
0.331069 0.154586 -0.447711
0.335069 0.153706 -0.454594
0.335356 0.153456 -0.457257
0.336377 0.153083 -0.460739
0.336662 0.152836 -0.463381
0.337675 0.152466 -0.466834
0.337956 0.152220 -0.469456
0.337509 0.152098 -0.471257
0.337790 0.151853 -0.473865
0.337343 0.151731 -0.475658
0.336171 0.151731 -0.476642
0.335726 0.151610 -0.478431
0.334555 0.151610 -0.479414
0.334112 0.151488 -0.481200
0.332212 0.151610 -0.481380
0.331040 0.151610 -0.482363
0.329869 0.151610 -0.483346
0.328697 0.151610 -0.484329
0.326792 0.151731 -0.484512
0.325619 0.151731 -0.485496
0.324447 0.151731 -0.486480
0.322536 0.151853 -0.486665
0.320622 0.151975 -0.486850
0.318705 0.152098 -0.487035
0.317530 0.152098 -0.488021
0.315609 0.152220 -0.488208
0.313685 0.152343 -0.488394
0.311758 0.152466 -0.488582
0.309074 0.152712 -0.487967
0.307139 0.152836 -0.488154
0.305200 0.152959 -0.488341
0.303258 0.153083 -0.488529
0.301313 0.153207 -0.488717
0.299365 0.153332 -0.488906
0.297414 0.153456 -0.489094
0.295460 0.153581 -0.489283
0.293502 0.153706 -0.489473
0.291542 0.153831 -0.489662
0.289578 0.153956 -0.489852
0.287611 0.154082 -0.490043
0.285640 0.154207 -0.490233
0.282884 0.154459 -0.489614
0.280905 0.154586 -0.489804
0.279710 0.154586 -0.490807
0.276937 0.154839 -0.490187
0.274948 0.154966 -0.490378
0.272957 0.155093 -0.490570
0.270961 0.155221 -0.490763
0.268963 0.155348 -0.490955
0.266961 0.155476 -0.491148
0.264956 0.155604 -0.491341
0.262948 0.155732 -0.491535
0.260936 0.155861 -0.491729
0.258922 0.155989 -0.491923
0.256903 0.156118 -0.492117
0.254882 0.156247 -0.492312
0.252857 0.156376 -0.492507
0.250007 0.156636 -0.491883
0.247973 0.156765 -0.492078
0.246762 0.156765 -0.493094
0.243896 0.157026 -0.492469
0.241852 0.157156 -0.492666
0.239804 0.157287 -0.492862
0.237753 0.157418 -0.493059
0.235699 0.157549 -0.493256
0.233641 0.157681 -0.493454
0.231580 0.157812 -0.493652
0.228669 0.158076 -0.493023
0.226599 0.158209 -0.493221
0.224525 0.158341 -0.493420
0.222448 0.158474 -0.493618
0.219509 0.158740 -0.492988
0.217422 0.158874 -0.493186
0.215332 0.159007 -0.493385
0.213238 0.159141 -0.493585
0.210272 0.159409 -0.492951
0.208169 0.159544 -0.493151
0.206062 0.159679 -0.493351
0.203952 0.159814 -0.493551
0.200075 0.160220 -0.492077
0.197952 0.160356 -0.492277
0.195826 0.160492 -0.492477
0.193696 0.160628 -0.492677
0.191563 0.160765 -0.492878
0.188529 0.161039 -0.492237
0.186386 0.161176 -0.492438
0.184240 0.161314 -0.492640
0.182089 0.161451 -0.492841
0.179935 0.161589 -0.493043
0.177777 0.161728 -0.493246
0.174702 0.162005 -0.492601
0.171616 0.162283 -0.491955
0.169442 0.162422 -0.492157
0.167264 0.162562 -0.492360
0.165083 0.162702 -0.492563
0.161967 0.162982 -0.491913
0.159775 0.163123 -0.492117
0.157580 0.163264 -0.492320
0.155380 0.163405 -0.492524
0.152235 0.163688 -0.491872
0.150025 0.163830 -0.492076
0.147812 0.163972 -0.492280
0.145594 0.164114 -0.492485
0.142418 0.164400 -0.491830
0.140190 0.164543 -0.492034
0.137959 0.164686 -0.492240
0.134758 0.164973 -0.491582
0.132516 0.165117 -0.491787
0.130270 0.165262 -0.491993
0.128020 0.165406 -0.492199
0.125766 0.165551 -0.492405
0.122527 0.165841 -0.491744
0.120262 0.165987 -0.491951
0.117994 0.166133 -0.492158
0.115721 0.166279 -0.492365
0.112451 0.166572 -0.491701
0.110167 0.166719 -0.491908
0.107880 0.166866 -0.492116
0.105588 0.167013 -0.492324
0.102285 0.167309 -0.491657
0.099983 0.167457 -0.491866
0.097676 0.167605 -0.492074
0.094348 0.167903 -0.491405
0.092030 0.168052 -0.491613
0.089708 0.168202 -0.491823
0.087382 0.168351 -0.492032
0.085052 0.168501 -0.492242
0.081684 0.168802 -0.491569
0.079342 0.168953 -0.491779
0.076997 0.169104 -0.491990
0.074647 0.169255 -0.492200
0.071245 0.169559 -0.491524
0.068883 0.169711 -0.491735
0.066518 0.169863 -0.491947
0.064148 0.170016 -0.492158
0.060712 0.170322 -0.491479
0.058331 0.170476 -0.491691
0.055945 0.170630 -0.491903
0.052481 0.170938 -0.491221
0.049005 0.171248 -0.490536
0.046601 0.171403 -0.490749
0.044191 0.171558 -0.490961
0.041778 0.171714 -0.491174
0.038267 0.172026 -0.490486
0.035841 0.172183 -0.490699
0.033411 0.172340 -0.490913
0.030977 0.172497 -0.491127
0.027430 0.172812 -0.490436
0.024984 0.172970 -0.490650
0.021416 0.173287 -0.489956
0.018958 0.173446 -0.490170
0.015369 0.173765 -0.489474
0.012898 0.173925 -0.489688
0.010423 0.174085 -0.489903
0.006806 0.174406 -0.489203
0.004318 0.174567 -0.489418
0.001826 0.174728 -0.489633
-0.000671 0.174889 -0.489849
-0.003173 0.175051 -0.490065
-0.006836 0.175376 -0.489362
-0.009350 0.175539 -0.489578
-0.011869 0.175702 -0.489794
-0.014392 0.175865 -0.490011
-0.018093 0.176193 -0.489305
-0.020629 0.176357 -0.489522
-0.023170 0.176521 -0.489740
-0.025716 0.176686 -0.489958
-0.029455 0.177017 -0.489248
-0.032014 0.177183 -0.489466
-0.034577 0.177349 -0.489684
-0.038346 0.177682 -0.488971
-0.040923 0.177849 -0.489190
-0.043505 0.178016 -0.489409
-0.046091 0.178184 -0.489628
-0.048682 0.178352 -0.489848
-0.052500 0.178689 -0.489131
-0.055104 0.178858 -0.489351
-0.057714 0.179027 -0.489572
-0.060329 0.179197 -0.489793
-0.064186 0.179537 -0.489072
-0.066814 0.179707 -0.489294
-0.069447 0.179878 -0.489515
-0.072085 0.180049 -0.489737
-0.075983 0.180393 -0.489013
-0.078635 0.180565 -0.489235
-0.081292 0.180737 -0.489457
-0.085222 0.181083 -0.488730
-0.089168 0.181431 -0.488000
-0.091847 0.181605 -0.488223
-0.094532 0.181779 -0.488445
-0.097222 0.181954 -0.488669
-0.101209 0.182305 -0.487935
-0.103913 0.182481 -0.488158
-0.106623 0.182657 -0.488382
-0.109337 0.182833 -0.488606
-0.113367 0.183187 -0.487869
-0.116096 0.183365 -0.488093
-0.118830 0.183543 -0.488318
-0.121570 0.183721 -0.488544
-0.125643 0.184078 -0.487803
-0.128397 0.184258 -0.488028
-0.131157 0.184437 -0.488254
-0.135265 0.184798 -0.487509
-0.138039 0.184978 -0.487735
-0.140819 0.185159 -0.487962
-0.143604 0.185341 -0.488189
-0.146394 0.185522 -0.488416
-0.150556 0.185887 -0.487668
-0.153362 0.186070 -0.487895
-0.156172 0.186253 -0.488123
-0.158989 0.186436 -0.488351
-0.163196 0.186804 -0.487599
-0.166028 0.186989 -0.487828
-0.170262 0.187359 -0.487072
-0.173109 0.187545 -0.487301
-0.175961 0.187731 -0.487530
-0.180232 0.188104 -0.486771
-0.183100 0.188291 -0.487000
-0.185974 0.188479 -0.487230
-0.191711 0.189044 -0.485472
-0.194605 0.189233 -0.485701
-0.197505 0.189422 -0.485931
-0.200411 0.189612 -0.486161
-0.204772 0.189992 -0.485391
-0.207694 0.190183 -0.485622
-0.210621 0.190375 -0.485852
-0.215021 0.190758 -0.485079
-0.217965 0.190951 -0.485310
-0.220915 0.191144 -0.485541
-0.225353 0.191531 -0.484764
-0.228319 0.191725 -0.484996
-0.232786 0.192114 -0.484215
-0.235768 0.192309 -0.484447
-0.240264 0.192701 -0.483663
-0.244778 0.193094 -0.482876
-0.249310 0.193489 -0.482086
-0.253861 0.193885 -0.481292
-0.258430 0.194283 -0.480495
-0.266119 0.195084 -0.477628
-0.273871 0.195892 -0.474737
-0.280107 0.196502 -0.472872
-0.289570 0.197527 -0.468884
-0.302370 0.198980 -0.462714
-0.317009 0.200668 -0.455366
0.472901 0.199491 0.217388
0.476245 0.198225 0.205314
0.477131 0.197598 0.198688
0.477205 0.197182 0.193863
0.478083 0.196562 0.187307
0.478156 0.196150 0.182531
0.478228 0.195741 0.177776
0.479096 0.195129 0.171318
0.479166 0.194723 0.166610
0.480027 0.194118 0.160220
0.480095 0.193717 0.155559
0.480949 0.193118 0.149236
0.481014 0.192721 0.144622
0.481861 0.192128 0.138364
0.491161 0.189409 0.114209
0.494227 0.188266 0.103360
0.495764 0.187513 0.095791
0.496544 0.186951 0.089847
0.496576 0.186579 0.085498
0.496608 0.186208 0.081165
0.496640 0.185839 0.076850
0.496672 0.185471 0.072552
0.495965 0.185287 0.069803
0.495260 0.185104 0.067059
0.495294 0.184739 0.062797
0.495328 0.184375 0.058551
0.494627 0.184194 0.055832
0.493927 0.184013 0.053118
0.492492 0.184013 0.051914
0.491795 0.183832 0.049206
0.491099 0.183652 0.046504
0.490405 0.183472 0.043807
0.489711 0.183293 0.041116
0.489020 0.183114 0.038429
0.488329 0.182935 0.035748
0.486902 0.182935 0.034551
0.485475 0.182935 0.033354
0.484048 0.182935 0.032156
0.483363 0.182756 0.029484
0.481938 0.182756 0.028288
0.481256 0.182578 0.025621
0.479832 0.182578 0.024426
0.478407 0.182578 0.023231
0.476983 0.182578 0.022036
0.476306 0.182400 0.019379
0.474884 0.182400 0.018185
0.473461 0.182400 0.016991
0.472038 0.182400 0.015797
0.471367 0.182223 0.013148
0.469945 0.182223 0.011956
0.468524 0.182223 0.010763
0.467857 0.182046 0.008122
0.466437 0.182046 0.006930
0.465016 0.182046 0.005738
0.463596 0.182046 0.004547
0.462176 0.182046 0.003355
0.459995 0.182223 0.003606
0.458574 0.182223 0.002414
0.457152 0.182223 0.001221
0.455731 0.182223 0.000028
0.454309 0.182223 -0.001165
0.452888 0.182223 -0.002357
0.452236 0.182046 -0.004986
0.450045 0.182223 -0.004743
0.448623 0.182223 -0.005935
0.447202 0.182223 -0.007128
0.445781 0.182223 -0.008321
0.443581 0.182400 -0.008081
0.442158 0.182400 -0.009275
0.440736 0.182400 -0.010469
0.439313 0.182400 -0.011663
0.437890 0.182400 -0.012856
0.435681 0.182578 -0.012620
0.434257 0.182578 -0.013815
0.432832 0.182578 -0.015011
0.430616 0.182756 -0.014776
0.429191 0.182756 -0.015973
0.427765 0.182756 -0.017169
0.431880 0.181516 -0.028287
0.436716 0.180120 -0.040642
0.441478 0.178745 -0.052809
0.443897 0.177896 -0.060756
0.446293 0.177055 -0.068629
0.448667 0.176222 -0.076428
0.450276 0.175561 -0.082844
0.451874 0.174905 -0.089212
0.451987 0.174579 -0.092950
0.452100 0.174254 -0.096674
0.452946 0.173769 -0.101666
0.453056 0.173447 -0.105357
0.453166 0.173126 -0.109034
0.453276 0.172807 -0.112697
0.452657 0.172647 -0.115089
0.452767 0.172330 -0.118732
0.452877 0.172013 -0.122361
0.452262 0.171855 -0.124733
0.451647 0.171697 -0.127101
0.451034 0.171540 -0.129464
0.451870 0.171070 -0.134289
0.451259 0.170914 -0.136637
0.450648 0.170758 -0.138981
0.450039 0.170602 -0.141321
0.450153 0.170292 -0.144873
0.449546 0.170137 -0.147201
0.448940 0.169983 -0.149525
0.448335 0.169829 -0.151844
0.447731 0.169675 -0.154160
0.447129 0.169521 -0.156471
0.446527 0.169368 -0.158778
0.445206 0.169368 -0.159887
0.444606 0.169215 -0.162189
0.444008 0.169062 -0.164487
0.442689 0.169062 -0.165594
0.442093 0.168909 -0.167887
0.441498 0.168757 -0.170175
0.440904 0.168605 -0.172460
0.439589 0.168605 -0.173563
0.438997 0.168453 -0.175843
0.438407 0.168302 -0.178118
0.437094 0.168302 -0.179220
0.436505 0.168151 -0.181490
0.435918 0.168000 -0.183756
0.435332 0.167849 -0.186019
0.434022 0.167849 -0.187118
0.432713 0.167849 -0.188216
0.432130 0.167699 -0.190473
0.431548 0.167549 -0.192725
0.430241 0.167549 -0.193822
0.429661 0.167399 -0.196069
0.428355 0.167399 -0.197165
0.427049 0.167399 -0.198261
0.426473 0.167249 -0.200502
0.425168 0.167249 -0.201597
0.423863 0.167249 -0.202692
0.423290 0.167100 -0.204927
0.421986 0.167100 -0.206021
0.421416 0.166951 -0.208252
0.420113 0.166951 -0.209345
0.419544 0.166802 -0.211570
0.418243 0.166802 -0.212662
0.416941 0.166802 -0.213754
0.416376 0.166654 -0.215974
0.415076 0.166654 -0.217065
0.413775 0.166654 -0.218156
0.413214 0.166506 -0.220370
0.411914 0.166506 -0.221460
0.410615 0.166506 -0.222550
0.409316 0.166506 -0.223640
0.408759 0.166358 -0.225847
0.407460 0.166358 -0.226936
0.406162 0.166358 -0.228025
0.405608 0.166210 -0.230226
0.404311 0.166210 -0.231314
0.403014 0.166210 -0.232403
0.402464 0.166062 -0.234598
0.401168 0.166062 -0.235685
0.399872 0.166062 -0.236772
0.399324 0.165915 -0.238962
0.398030 0.165915 -0.240048
0.396735 0.165915 -0.241134
0.396191 0.165768 -0.243318
0.394897 0.165768 -0.244403
0.394355 0.165622 -0.246582
0.393063 0.165622 -0.247666
0.391770 0.165622 -0.248751
0.390478 0.165622 -0.249835
0.389940 0.165475 -0.252007
0.388649 0.165475 -0.253091
0.387358 0.165475 -0.254174
0.386067 0.165475 -0.255257
0.384775 0.165475 -0.256341
0.383484 0.165475 -0.257424
0.382193 0.165475 -0.258508
0.380902 0.165475 -0.259591
0.379611 0.165475 -0.260675
0.378319 0.165475 -0.261758
0.377028 0.165475 -0.262842
0.375737 0.165475 -0.263925
0.374446 0.165475 -0.265008
0.373155 0.165475 -0.266092
0.371863 0.165475 -0.267175
0.370572 0.165475 -0.268259
0.369281 0.165475 -0.269342
0.367990 0.165475 -0.270426
0.366699 0.165475 -0.271509
0.365407 0.165475 -0.272593
0.364116 0.165475 -0.273676
0.362825 0.165475 -0.274760
0.361534 0.165475 -0.275843
0.360243 0.165475 -0.276926
0.359732 0.165329 -0.279073
0.358442 0.165329 -0.280155
0.357152 0.165329 -0.281238
0.355862 0.165329 -0.282320
0.354571 0.165329 -0.283403
0.353281 0.165329 -0.284485
0.351991 0.165329 -0.285568
0.350701 0.165329 -0.286650
0.349411 0.165329 -0.287733
0.348121 0.165329 -0.288815
0.346831 0.165329 -0.289898
0.345541 0.165329 -0.290980
0.344251 0.165329 -0.292063
0.342961 0.165329 -0.293145
0.341671 0.165329 -0.294228
0.340381 0.165329 -0.295310
0.339091 0.165329 -0.296393
0.337801 0.165329 -0.297475
0.336511 0.165329 -0.298558
0.335220 0.165329 -0.299640
0.333930 0.165329 -0.300723
0.332640 0.165329 -0.301805
0.331350 0.165329 -0.302888
0.330060 0.165329 -0.303970
0.328770 0.165329 -0.305053
0.327480 0.165329 -0.306135
0.326999 0.165183 -0.308254
0.325710 0.165183 -0.309335
0.324421 0.165183 -0.310417
0.323132 0.165183 -0.311498
0.321843 0.165183 -0.312580
0.320554 0.165183 -0.313662
0.319265 0.165183 -0.314743
0.317976 0.165183 -0.315825
0.316687 0.165183 -0.316906
0.315398 0.165183 -0.317988
0.314109 0.165183 -0.319069
0.312820 0.165183 -0.320151
0.311531 0.165183 -0.321232
0.310242 0.165183 -0.322314
0.308953 0.165183 -0.323395
0.307665 0.165183 -0.324477
0.306376 0.165183 -0.325559
0.305087 0.165183 -0.326640
0.303798 0.165183 -0.327722
0.302509 0.165183 -0.328803
0.301220 0.165183 -0.329885
0.299099 0.165329 -0.329950
0.297808 0.165329 -0.331032
0.296518 0.165329 -0.332115
0.295228 0.165329 -0.333197
0.293938 0.165329 -0.334280
0.292648 0.165329 -0.335362
0.291358 0.165329 -0.336445
0.290068 0.165329 -0.337527
0.287935 0.165475 -0.337600
0.286644 0.165475 -0.338683
0.285353 0.165475 -0.339767
0.284061 0.165475 -0.340850
0.282770 0.165475 -0.341933
0.281479 0.165475 -0.343017
0.280188 0.165475 -0.344100
0.278897 0.165475 -0.345184
0.276752 0.165622 -0.345263
0.275460 0.165622 -0.346347
0.274167 0.165622 -0.347432
0.272875 0.165622 -0.348516
0.271582 0.165622 -0.349600
0.270290 0.165622 -0.350685
0.268136 0.165768 -0.350769
0.266842 0.165768 -0.351854
0.265549 0.165768 -0.352939
0.264255 0.165768 -0.354025
0.262962 0.165768 -0.355110
0.260799 0.165915 -0.355198
0.259505 0.165915 -0.356284
0.258210 0.165915 -0.357371
0.256915 0.165915 -0.358457
0.326270 0.154035 -0.439893
0.331814 0.152902 -0.448557
0.335806 0.152032 -0.455429
0.336092 0.151785 -0.458088
0.336377 0.151539 -0.460739
0.337393 0.151172 -0.464204
0.337675 0.150928 -0.466834
0.337956 0.150685 -0.469456
0.338236 0.150442 -0.472069
0.337790 0.150321 -0.473865
0.337343 0.150201 -0.475658
0.336898 0.150080 -0.477448
0.335726 0.150080 -0.478431
0.335282 0.149960 -0.480218
0.334112 0.149960 -0.481200
0.332941 0.149960 -0.482182
0.331040 0.150080 -0.482363
0.329869 0.150080 -0.483346
0.328697 0.150080 -0.484329
0.326792 0.150201 -0.484512
0.325619 0.150201 -0.485496
0.324447 0.150201 -0.486480
0.322536 0.150321 -0.486665
0.320622 0.150442 -0.486850
0.319448 0.150442 -0.487835
0.317530 0.150563 -0.488021
0.316355 0.150563 -0.489007
0.313685 0.150806 -0.488394
0.311758 0.150928 -0.488582
0.309828 0.151050 -0.488769
0.307139 0.151294 -0.488154
0.305200 0.151417 -0.488341
0.303258 0.151539 -0.488529
0.301313 0.151662 -0.488717
0.299365 0.151785 -0.488906
0.297414 0.151908 -0.489094
0.295460 0.152032 -0.489283
0.293502 0.152155 -0.489473
0.291542 0.152279 -0.489662
0.289578 0.152403 -0.489852
0.287611 0.152528 -0.490043
0.285640 0.152652 -0.490233
0.283667 0.152777 -0.490424
0.280905 0.153027 -0.489804
0.279710 0.153027 -0.490807
0.277727 0.153152 -0.490999
0.274948 0.153403 -0.490378
0.272957 0.153529 -0.490570
0.270961 0.153655 -0.490763
0.268963 0.153781 -0.490955
0.266961 0.153908 -0.491148
0.264956 0.154035 -0.491341
0.262948 0.154161 -0.491535
0.260936 0.154289 -0.491729
0.258922 0.154416 -0.491923
0.256903 0.154543 -0.492117
0.254882 0.154671 -0.492312
0.252857 0.154799 -0.492507
0.250829 0.154927 -0.492702
0.247973 0.155184 -0.492078
0.246762 0.155184 -0.493094
0.244724 0.155313 -0.493291
0.241852 0.155571 -0.492666
0.239804 0.155701 -0.492862
0.237753 0.155831 -0.493059
0.235699 0.155960 -0.493256
0.233641 0.156091 -0.493454
0.231580 0.156221 -0.493652
0.229516 0.156351 -0.493850
0.226599 0.156613 -0.493221
0.224525 0.156744 -0.493420
0.222448 0.156876 -0.493618
0.220367 0.157007 -0.493817
0.217422 0.157271 -0.493186
0.215332 0.157404 -0.493385
0.213238 0.157536 -0.493585
0.210272 0.157802 -0.492951
0.208169 0.157935 -0.493151
0.206062 0.158068 -0.493351
0.203952 0.158202 -0.493551
0.200957 0.158470 -0.492915
0.197952 0.158739 -0.492277
0.195826 0.158874 -0.492477
0.193696 0.159009 -0.492677
0.191563 0.159144 -0.492878
0.188529 0.159415 -0.492237
0.186386 0.159551 -0.492438
0.184240 0.159687 -0.492640
0.182089 0.159823 -0.492841
0.179935 0.159960 -0.493043
0.177777 0.160097 -0.493246
0.175616 0.160234 -0.493448
0.172534 0.160509 -0.492804
0.169442 0.160784 -0.492157
0.167264 0.160923 -0.492360
0.165083 0.161061 -0.492563
0.161967 0.161339 -0.491913
0.159775 0.161478 -0.492117
0.157580 0.161617 -0.492320
0.155380 0.161757 -0.492524
0.152235 0.162037 -0.491872
0.150025 0.162178 -0.492076
0.147812 0.162318 -0.492280
0.145594 0.162459 -0.492485
0.142418 0.162742 -0.491830
0.140190 0.162883 -0.492034
0.137959 0.163025 -0.492240
0.134758 0.163310 -0.491582
0.133484 0.163310 -0.492651
0.130270 0.163595 -0.491993
0.128020 0.163738 -0.492199
0.125766 0.163882 -0.492405
0.122527 0.164169 -0.491744
0.120262 0.164313 -0.491951
0.117994 0.164458 -0.492158
0.115721 0.164602 -0.492365
0.112451 0.164892 -0.491701
0.110167 0.165038 -0.491908
0.107880 0.165183 -0.492116
0.105588 0.165329 -0.492324
0.102285 0.165622 -0.491657
0.099983 0.165768 -0.491866
0.097676 0.165915 -0.492074
0.094348 0.166210 -0.491405
0.093051 0.166210 -0.492493
0.089708 0.166506 -0.491823
0.087382 0.166654 -0.492032
0.085052 0.166802 -0.492242
0.081684 0.167100 -0.491569
0.079342 0.167249 -0.491779
0.076997 0.167399 -0.491990
0.074647 0.167549 -0.492200
0.071245 0.167849 -0.491524
0.068883 0.168000 -0.491735
0.066518 0.168151 -0.491947
0.064148 0.168302 -0.492158
0.060712 0.168605 -0.491479
0.058331 0.168757 -0.491691
0.055945 0.168909 -0.491903
0.052481 0.169215 -0.491221
0.050084 0.169368 -0.491434
0.046601 0.169675 -0.490749
0.044191 0.169829 -0.490961
0.041778 0.169983 -0.491174
0.038267 0.170292 -0.490486
0.035841 0.170447 -0.490699
0.033411 0.170602 -0.490913
0.030977 0.170758 -0.491127
0.027430 0.171070 -0.490436
0.024984 0.171226 -0.490650
0.021416 0.171540 -0.489956
0.018958 0.171697 -0.490170
0.015369 0.172013 -0.489474
0.012898 0.172171 -0.489688
0.010423 0.172330 -0.489903
0.006806 0.172647 -0.489203
0.005459 0.172647 -0.490333
0.001826 0.172966 -0.489633
-0.000671 0.173126 -0.489849
-0.003173 0.173286 -0.490065
-0.006836 0.173608 -0.489362
-0.009350 0.173769 -0.489578
-0.011869 0.173930 -0.489794
-0.014392 0.174092 -0.490011
-0.018093 0.174416 -0.489305
-0.020629 0.174579 -0.489522
-0.023170 0.174742 -0.489740
-0.025716 0.174905 -0.489958
-0.029455 0.175232 -0.489248
-0.032014 0.175397 -0.489466
-0.034577 0.175561 -0.489684
-0.038346 0.175891 -0.488971
-0.039719 0.175891 -0.490122
-0.043505 0.176222 -0.489409
-0.046091 0.176388 -0.489628
-0.048682 0.176554 -0.489848
-0.052500 0.176888 -0.489131
-0.055104 0.177055 -0.489351
-0.057714 0.177222 -0.489572
-0.060329 0.177390 -0.489793
-0.064186 0.177727 -0.489072
-0.066814 0.177896 -0.489294
-0.069447 0.178065 -0.489515
-0.072085 0.178234 -0.489737
-0.075983 0.178574 -0.489013
-0.078635 0.178745 -0.489235
-0.081292 0.178915 -0.489457
-0.085222 0.179258 -0.488730
-0.087893 0.179430 -0.488953
-0.091847 0.179774 -0.488223
-0.094532 0.179947 -0.488445
-0.097222 0.180120 -0.488669
-0.101209 0.180467 -0.487935
-0.103913 0.180641 -0.488158
-0.106623 0.180816 -0.488382
-0.109337 0.180990 -0.488606
-0.113367 0.181341 -0.487869
-0.116096 0.181516 -0.488093
-0.118830 0.181693 -0.488318
-0.121570 0.181869 -0.488544
-0.125643 0.182223 -0.487803
-0.128397 0.182400 -0.488028
-0.131157 0.182578 -0.488254
-0.135265 0.182935 -0.487509
-0.136692 0.182935 -0.488707
-0.140819 0.183293 -0.487962
-0.143604 0.183472 -0.488189
-0.146394 0.183652 -0.488416
-0.150556 0.184013 -0.487668
-0.153362 0.184194 -0.487895
-0.156172 0.184375 -0.488123
-0.158989 0.184557 -0.488351
-0.163196 0.184921 -0.487599
-0.166028 0.185104 -0.487828
-0.170262 0.185471 -0.487072
-0.173109 0.185654 -0.487301
-0.175961 0.185839 -0.487530
-0.180232 0.186208 -0.486771
-0.183100 0.186393 -0.487000
-0.185974 0.186579 -0.487230
-0.190281 0.186951 -0.486467
-0.194605 0.187325 -0.485701
-0.197505 0.187513 -0.485931
-0.200411 0.187701 -0.486161
-0.204772 0.188077 -0.485391
-0.207694 0.188266 -0.485622
-0.210621 0.188456 -0.485852
-0.215021 0.188836 -0.485079
-0.217965 0.189026 -0.485310
-0.220915 0.189217 -0.485541
-0.225353 0.189600 -0.484764
-0.228319 0.189792 -0.484996
-0.232786 0.190178 -0.484215
-0.235768 0.190371 -0.484447
-0.240264 0.190758 -0.483663
-0.243263 0.190953 -0.483895
-0.247788 0.191343 -0.483107
-0.253861 0.191931 -0.481292
-0.258430 0.192325 -0.480495
-0.264567 0.192919 -0.478663
-0.272305 0.193717 -0.475779
-0.278529 0.194320 -0.473919
-0.286382 0.195129 -0.470995
-0.299131 0.196562 -0.464854
-0.310430 0.197807 -0.459703
-0.335268 0.200774 -0.445675
0.474538 0.197041 0.213780
0.477056 0.196000 0.203532
0.477131 0.195586 0.198688
0.477205 0.195175 0.193863
0.478083 0.194561 0.187307
0.478156 0.194153 0.182531
0.479026 0.193546 0.176045
0.479096 0.193142 0.171318
0.479960 0.192541 0.164900
0.480027 0.192142 0.160220
0.480883 0.191547 0.153869
0.480949 0.191152 0.149236
0.481014 0.190758 0.144622
0.481861 0.190172 0.138364
0.491920 0.187291 0.112598
0.494227 0.186350 0.103360
0.496511 0.185418 0.094214
0.496544 0.185048 0.089847
0.496576 0.184679 0.085498
0.496608 0.184312 0.081165
0.496640 0.183946 0.076850
0.496672 0.183582 0.072552
0.495965 0.183400 0.069803
0.495998 0.183038 0.065531
0.495294 0.182858 0.062797
0.495328 0.182498 0.058551
0.494627 0.182318 0.055832
0.493927 0.182139 0.053118
0.492492 0.182139 0.051914
0.491795 0.181960 0.049206
0.491099 0.181782 0.046504
0.490405 0.181604 0.043807
0.489711 0.181426 0.041116
0.489020 0.181249 0.038429
0.488329 0.181072 0.035748
0.486902 0.181072 0.034551
0.485475 0.181072 0.033354
0.484789 0.180895 0.030680
0.483363 0.180895 0.029484
0.481938 0.180895 0.028288
0.481256 0.180719 0.025621
0.479832 0.180719 0.024426
0.478407 0.180719 0.023231
0.476983 0.180719 0.022036
0.476306 0.180543 0.019379
0.474884 0.180543 0.018185
0.473461 0.180543 0.016991
0.472788 0.180367 0.014341
0.471367 0.180367 0.013148
0.469945 0.180367 0.011956
0.468524 0.180367 0.010763
0.467857 0.180192 0.008122
0.466437 0.180192 0.006930
0.465016 0.180192 0.005738
0.463596 0.180192 0.004547
0.462176 0.180192 0.003355
0.459995 0.180367 0.003606
0.458574 0.180367 0.002414
0.457152 0.180367 0.001221
0.456496 0.180192 -0.001411
0.455076 0.180192 -0.002603
0.453656 0.180192 -0.003794
0.452236 0.180192 -0.004986
0.450816 0.180192 -0.006177
0.448623 0.180367 -0.005935
0.447202 0.180367 -0.007128
0.445781 0.180367 -0.008321
0.444359 0.180367 -0.009514
0.442158 0.180543 -0.009275
0.440736 0.180543 -0.010469
0.439313 0.180543 -0.011663
0.437890 0.180543 -0.012856
0.435681 0.180719 -0.012620
0.434257 0.180719 -0.013815
0.432832 0.180719 -0.015011
0.431408 0.180719 -0.016206
0.429191 0.180895 -0.015973
0.430935 0.180192 -0.022860
0.435792 0.178802 -0.035292
0.440574 0.177433 -0.047535
0.444526 0.176252 -0.058240
0.446922 0.175418 -0.066132
0.448547 0.174756 -0.072623
0.450903 0.173936 -0.080381
0.452500 0.173286 -0.086765
0.453349 0.172801 -0.091807
0.453459 0.172479 -0.095534
0.453569 0.172159 -0.099246
0.453678 0.171840 -0.102945
0.453787 0.171522 -0.106630
0.453896 0.171205 -0.110301
0.454004 0.170889 -0.113959
0.454112 0.170574 -0.117604
0.454219 0.170261 -0.121235
0.453603 0.170105 -0.123608
0.452987 0.169949 -0.125977
0.453818 0.169482 -0.130815
0.453205 0.169328 -0.133169
0.452592 0.169173 -0.135518
0.451981 0.169019 -0.137863
0.451370 0.168865 -0.140204
0.450761 0.168711 -0.142540
0.450873 0.168404 -0.146087
0.450266 0.168251 -0.148412
0.449660 0.168099 -0.150733
0.449055 0.167946 -0.153049
0.448451 0.167794 -0.155361
0.447849 0.167643 -0.157669
0.446527 0.167643 -0.158778
0.445927 0.167491 -0.161081
0.444606 0.167491 -0.162189
0.444008 0.167340 -0.164487
0.443411 0.167189 -0.166781
0.442093 0.167189 -0.167887
0.441498 0.167038 -0.170175
0.440904 0.166888 -0.172460
0.440312 0.166738 -0.174740
0.438997 0.166738 -0.175843
0.438407 0.166588 -0.178118
0.437817 0.166438 -0.180389
0.437229 0.166289 -0.182657
0.435918 0.166289 -0.183756
0.435332 0.166140 -0.186019
0.434747 0.165991 -0.188277
0.433439 0.165991 -0.189375
0.432130 0.165991 -0.190473
0.431548 0.165842 -0.192725
0.430968 0.165694 -0.194973
0.429661 0.165694 -0.196069
0.428355 0.165694 -0.197165
0.427778 0.165546 -0.199407
0.426473 0.165546 -0.200502
0.425168 0.165546 -0.201597
0.424594 0.165398 -0.203833
0.423290 0.165398 -0.204927
0.421986 0.165398 -0.206021
0.421416 0.165251 -0.208252
0.420846 0.165103 -0.210478
0.419544 0.165103 -0.211570
0.418243 0.165103 -0.212662
0.417677 0.164956 -0.214883
0.416376 0.164956 -0.215974
0.415076 0.164956 -0.217065
0.414513 0.164810 -0.219279
0.413214 0.164810 -0.220370
0.411914 0.164810 -0.221460
0.410615 0.164810 -0.222550
0.410057 0.164663 -0.224758
0.408759 0.164663 -0.225847
0.407460 0.164663 -0.226936
0.406905 0.164517 -0.229138
0.405608 0.164517 -0.230226
0.404311 0.164517 -0.231314
0.403759 0.164371 -0.233510
0.402464 0.164371 -0.234598
0.401168 0.164371 -0.235685
0.400619 0.164225 -0.237875
0.399324 0.164225 -0.238962
0.398030 0.164225 -0.240048
0.397484 0.164080 -0.242232
0.396191 0.164080 -0.243318
0.394897 0.164080 -0.244403
0.393604 0.164080 -0.245488
0.393063 0.163935 -0.247666
0.392523 0.163790 -0.249840
0.391231 0.163790 -0.250924
0.389940 0.163790 -0.252007
0.388649 0.163790 -0.253091
0.387358 0.163790 -0.254174
0.386067 0.163790 -0.255257
0.384775 0.163790 -0.256341
0.383484 0.163790 -0.257424
0.382193 0.163790 -0.258508
0.380902 0.163790 -0.259591
0.379611 0.163790 -0.260675
0.378319 0.163790 -0.261758
0.377028 0.163790 -0.262842
0.376503 0.163645 -0.265000
0.375213 0.163645 -0.266083
0.373922 0.163645 -0.267165
0.372632 0.163645 -0.268248
0.371342 0.163645 -0.269330
0.370052 0.163645 -0.270413
0.368762 0.163645 -0.271495
0.366699 0.163790 -0.271509
0.365407 0.163790 -0.272593
0.364116 0.163790 -0.273676
0.362825 0.163790 -0.274760
0.361534 0.163790 -0.275843
0.360243 0.163790 -0.276926
0.358951 0.163790 -0.278010
0.358442 0.163645 -0.280155
0.357152 0.163645 -0.281238
0.355862 0.163645 -0.282320
0.354571 0.163645 -0.283403
0.353281 0.163645 -0.284485
0.351991 0.163645 -0.285568
0.350701 0.163645 -0.286650
0.349411 0.163645 -0.287733
0.348910 0.163501 -0.289868
0.346831 0.163645 -0.289898
0.345541 0.163645 -0.290980
0.344251 0.163645 -0.292063
0.342961 0.163645 -0.293145
0.341671 0.163645 -0.294228
0.340381 0.163645 -0.295310
0.339091 0.163645 -0.296393
0.337801 0.163645 -0.297475
0.336511 0.163645 -0.298558
0.335220 0.163645 -0.299640
0.333930 0.163645 -0.300723
0.332640 0.163645 -0.301805
0.331350 0.163645 -0.302888
0.330060 0.163645 -0.303970
0.328770 0.163645 -0.305053
0.328288 0.163501 -0.307172
0.326999 0.163501 -0.308254
0.325710 0.163501 -0.309335
0.324421 0.163501 -0.310417
0.323132 0.163501 -0.311498
0.321843 0.163501 -0.312580
0.320554 0.163501 -0.313662
0.319265 0.163501 -0.314743
0.317976 0.163501 -0.315825
0.316687 0.163501 -0.316906
0.315398 0.163501 -0.317988
0.314109 0.163501 -0.319069
0.312820 0.163501 -0.320151
0.311531 0.163501 -0.321232
0.310242 0.163501 -0.322314
0.308953 0.163501 -0.323395
0.308489 0.163356 -0.325497
0.306376 0.163501 -0.325559
0.305087 0.163501 -0.326640
0.303798 0.163501 -0.327722
0.302509 0.163501 -0.328803
0.301220 0.163501 -0.329885
0.299931 0.163501 -0.330966
0.297808 0.163645 -0.331032
0.296518 0.163645 -0.332115
0.295228 0.163645 -0.333197
0.293938 0.163645 -0.334280
0.292648 0.163645 -0.335362
0.291358 0.163645 -0.336445
0.289226 0.163790 -0.336516
0.287935 0.163790 -0.337600
0.286644 0.163790 -0.338683
0.285353 0.163790 -0.339767
0.284061 0.163790 -0.340850
0.282770 0.163790 -0.341933
0.281479 0.163790 -0.343017
0.280188 0.163790 -0.344100
0.278897 0.163790 -0.345184
0.277605 0.163790 -0.346267
0.275460 0.163935 -0.346347
0.274167 0.163935 -0.347432
0.272875 0.163935 -0.348516
0.271582 0.163935 -0.349600
0.270290 0.163935 -0.350685
0.268998 0.163935 -0.351769
0.266842 0.164080 -0.351854
0.265549 0.164080 -0.352939
0.264255 0.164080 -0.354025
0.262962 0.164080 -0.355110
0.260799 0.164225 -0.355198
0.259505 0.164225 -0.356284
0.258210 0.164225 -0.357371
0.256915 0.164225 -0.358457
0.327776 0.152214 -0.441605
0.332557 0.151220 -0.449400
0.335806 0.150483 -0.455429
0.336092 0.150239 -0.458088
0.337111 0.149874 -0.461565
0.338124 0.149511 -0.465025
0.338405 0.149270 -0.467652
0.338684 0.149029 -0.470271
0.338236 0.148909 -0.472069
0.338516 0.148670 -0.474674
0.337343 0.148670 -0.475658
0.336898 0.148551 -0.477448
0.335726 0.148551 -0.478431
0.335282 0.148432 -0.480218
0.334112 0.148432 -0.481200
0.332941 0.148432 -0.482182
0.331040 0.148551 -0.482363
0.329869 0.148551 -0.483346
0.328697 0.148551 -0.484329
0.327526 0.148551 -0.485312
0.325619 0.148670 -0.485496
0.324447 0.148670 -0.486480
0.322536 0.148790 -0.486665
0.320622 0.148909 -0.486850
0.319448 0.148909 -0.487835
0.317530 0.149029 -0.488021
0.316355 0.149029 -0.489007
0.314433 0.149149 -0.489195
0.311758 0.149390 -0.488582
0.309828 0.149511 -0.488769
0.307894 0.149632 -0.488957
0.305200 0.149874 -0.488341
0.303258 0.149995 -0.488529
0.301313 0.150117 -0.488717
0.299365 0.150239 -0.488906
0.297414 0.150361 -0.489094
0.295460 0.150483 -0.489283
0.293502 0.150605 -0.489473
0.291542 0.150728 -0.489662
0.289578 0.150851 -0.489852
0.287611 0.150974 -0.490043
0.285640 0.151097 -0.490233
0.283667 0.151220 -0.490424
0.281690 0.151344 -0.490615
0.279710 0.151467 -0.490807
0.277727 0.151591 -0.490999
0.275741 0.151716 -0.491191
0.272957 0.151965 -0.490570
0.270961 0.152089 -0.490763
0.268963 0.152214 -0.490955
0.266961 0.152340 -0.491148
0.264956 0.152465 -0.491341
0.262948 0.152591 -0.491535
0.260936 0.152717 -0.491729
0.258922 0.152843 -0.491923
0.256903 0.152969 -0.492117
0.254882 0.153095 -0.492312
0.252857 0.153222 -0.492507
0.250829 0.153349 -0.492702
0.248797 0.153476 -0.492898
0.246762 0.153603 -0.493094
0.244724 0.153731 -0.493291
0.242682 0.153858 -0.493487
0.239804 0.154115 -0.492862
0.237753 0.154243 -0.493059
0.235699 0.154371 -0.493256
0.233641 0.154500 -0.493454
0.231580 0.154629 -0.493652
0.229516 0.154758 -0.493850
0.226599 0.155018 -0.493221
0.224525 0.155147 -0.493420
0.222448 0.155277 -0.493618
0.220367 0.155408 -0.493817
0.217422 0.155669 -0.493186
0.215332 0.155800 -0.493385
0.213238 0.155931 -0.493585
0.211141 0.156062 -0.493785
0.208169 0.156326 -0.493151
0.206062 0.156458 -0.493351
0.203952 0.156590 -0.493551
0.200957 0.156855 -0.492915
0.197952 0.157122 -0.492277
0.195826 0.157255 -0.492477
0.193696 0.157389 -0.492677
0.191563 0.157522 -0.492878
0.189426 0.157657 -0.493080
0.186386 0.157925 -0.492438
0.185141 0.157925 -0.493483
0.182089 0.158195 -0.492841
0.179935 0.158330 -0.493043
0.177777 0.158466 -0.493246
0.175616 0.158601 -0.493448
0.172534 0.158874 -0.492804
0.169442 0.159147 -0.492157
0.167264 0.159283 -0.492360
0.165083 0.159420 -0.492563
0.162897 0.159558 -0.492766
0.159775 0.159833 -0.492117
0.157580 0.159971 -0.492320
0.155380 0.160109 -0.492524
0.152235 0.160387 -0.491872
0.150025 0.160526 -0.492076
0.147812 0.160665 -0.492280
0.145594 0.160804 -0.492485
0.142418 0.161084 -0.491830
0.140190 0.161224 -0.492034
0.137959 0.161365 -0.492240
0.135723 0.161505 -0.492445
0.133484 0.161646 -0.492651
0.130270 0.161929 -0.491993
0.128020 0.162070 -0.492199
0.125766 0.162212 -0.492405
0.122527 0.162497 -0.491744
0.120262 0.162639 -0.491951
0.117994 0.162782 -0.492158
0.115721 0.162926 -0.492365
0.112451 0.163213 -0.491701
0.110167 0.163356 -0.491908
0.107880 0.163501 -0.492116
0.105588 0.163645 -0.492324
0.102285 0.163935 -0.491657
0.099983 0.164080 -0.491866
0.097676 0.164225 -0.492074
0.095366 0.164371 -0.492283
0.093051 0.164517 -0.492493
0.089708 0.164810 -0.491823
0.087382 0.164956 -0.492032
0.085052 0.165103 -0.492242
0.081684 0.165398 -0.491569
0.079342 0.165546 -0.491779
0.076997 0.165694 -0.491990
0.074647 0.165842 -0.492200
0.071245 0.166140 -0.491524
0.068883 0.166289 -0.491735
0.066518 0.166438 -0.491947
0.064148 0.166588 -0.492158
0.060712 0.166888 -0.491479
0.058331 0.167038 -0.491691
0.055945 0.167189 -0.491903
0.053555 0.167340 -0.492116
0.050084 0.167643 -0.491434
0.046601 0.167946 -0.490749
0.044191 0.168099 -0.490961
0.041778 0.168251 -0.491174
0.038267 0.168558 -0.490486
0.035841 0.168711 -0.490699
0.033411 0.168865 -0.490913
0.030977 0.169019 -0.491127
0.027430 0.169328 -0.490436
0.024984 0.169482 -0.490650
0.021416 0.169793 -0.489956
0.018958 0.169949 -0.490170
0.015369 0.170261 -0.489474
0.012898 0.170418 -0.489688
0.010423 0.170574 -0.489903
0.007943 0.170732 -0.490118
0.005459 0.170889 -0.490333
0.001826 0.171205 -0.489633
-0.000671 0.171363 -0.489849
-0.003173 0.171522 -0.490065
-0.006836 0.171840 -0.489362
-0.009350 0.171999 -0.489578
-0.011869 0.172159 -0.489794
-0.014392 0.172319 -0.490011
-0.018093 0.172640 -0.489305
-0.020629 0.172801 -0.489522
-0.023170 0.172962 -0.489740
-0.025716 0.173124 -0.489958
-0.029455 0.173448 -0.489248
-0.032014 0.173610 -0.489466
-0.034577 0.173773 -0.489684
-0.037146 0.173936 -0.489903
-0.039719 0.174099 -0.490122
-0.043505 0.174427 -0.489409
-0.046091 0.174591 -0.489628
-0.048682 0.174756 -0.489848
-0.052500 0.175086 -0.489131
-0.055104 0.175252 -0.489351
-0.057714 0.175418 -0.489572
-0.060329 0.175584 -0.489793
-0.064186 0.175917 -0.489072
-0.066814 0.176084 -0.489294
-0.069447 0.176252 -0.489515
-0.072085 0.176419 -0.489737
-0.075983 0.176756 -0.489013
-0.078635 0.176924 -0.489235
-0.081292 0.177093 -0.489457
-0.083954 0.177263 -0.489680
-0.087893 0.177603 -0.488953
-0.091847 0.177943 -0.488223
-0.094532 0.178114 -0.488445
-0.097222 0.178286 -0.488669
-0.101209 0.178629 -0.487935
-0.103913 0.178802 -0.488158
-0.106623 0.178974 -0.488382
-0.109337 0.179147 -0.488606
-0.113367 0.179494 -0.487869
-0.116096 0.179668 -0.488093
-0.118830 0.179842 -0.488318
-0.121570 0.180017 -0.488544
-0.125643 0.180367 -0.487803
-0.128397 0.180543 -0.488028
-0.131157 0.180719 -0.488254
-0.133922 0.180895 -0.488480
-0.136692 0.181072 -0.488707
-0.140819 0.181426 -0.487962
-0.143604 0.181604 -0.488189
-0.146394 0.181782 -0.488416
-0.150556 0.182139 -0.487668
-0.153362 0.182318 -0.487895
-0.156172 0.182498 -0.488123
-0.158989 0.182678 -0.488351
-0.163196 0.183038 -0.487599
-0.166028 0.183219 -0.487828
-0.170262 0.183582 -0.487072
-0.173109 0.183764 -0.487301
-0.175961 0.183946 -0.487530
-0.178820 0.184129 -0.487759
-0.183100 0.184495 -0.487000
-0.185974 0.184679 -0.487230
-0.190281 0.185048 -0.486467
-0.194605 0.185418 -0.485701
-0.197505 0.185603 -0.485931
-0.200411 0.185789 -0.486161
-0.204772 0.186162 -0.485391
-0.207694 0.186350 -0.485622
-0.210621 0.186537 -0.485852
-0.215021 0.186913 -0.485079
-0.217965 0.187102 -0.485310
-0.220915 0.187291 -0.485541
-0.223870 0.187480 -0.485773
-0.228319 0.187860 -0.484996
-0.232786 0.188241 -0.484215
-0.235768 0.188433 -0.484447
-0.240264 0.188816 -0.483663
-0.243263 0.189009 -0.483895
-0.247788 0.189395 -0.483107
-0.252331 0.189782 -0.482317
-0.256892 0.190172 -0.481523
-0.264567 0.190955 -0.478663
-0.270742 0.191547 -0.476819
-0.278529 0.192341 -0.473919
-0.284792 0.192941 -0.472047
-0.295907 0.194153 -0.466984
-0.307161 0.195380 -0.461858
-0.325200 0.197460 -0.452298
0.476168 0.194601 0.210188
0.477056 0.193984 0.203532
0.477131 0.193575 0.198688
0.478011 0.192964 0.192103
0.478083 0.192560 0.187307
0.478956 0.191955 0.180792
0.479026 0.191555 0.176045
0.479891 0.190957 0.169599
0.479960 0.190560 0.164900
0.480817 0.189969 0.158521
0.480883 0.189576 0.153869
0.480949 0.189186 0.149236
0.481797 0.188602 0.142952
0.486517 0.187064 0.128463
0.491920 0.185364 0.112598
0.494979 0.184247 0.101770
0.496511 0.183510 0.094214
0.496544 0.183144 0.089847
0.497319 0.182597 0.083939
0.496608 0.182416 0.081165
0.496640 0.182054 0.076850
0.496672 0.181693 0.072552
0.495965 0.181514 0.069803
0.495998 0.181155 0.065531
0.496031 0.180798 0.061276
0.495328 0.180620 0.058551
0.494627 0.180443 0.055832
0.493927 0.180265 0.053118
0.493229 0.180089 0.050410
0.491795 0.180089 0.049206
0.491099 0.179912 0.046504
0.490405 0.179736 0.043807
0.489711 0.179560 0.041116
0.489020 0.179384 0.038429
0.488329 0.179209 0.035748
0.486902 0.179209 0.034551
0.485475 0.179209 0.033354
0.484789 0.179034 0.030680
0.483363 0.179034 0.029484
0.481938 0.179034 0.028288
0.481256 0.178860 0.025621
0.479832 0.178860 0.024426
0.478407 0.178860 0.023231
0.476983 0.178860 0.022036
0.476306 0.178686 0.019379
0.474884 0.178686 0.018185
0.473461 0.178686 0.016991
0.472788 0.178512 0.014341
0.471367 0.178512 0.013148
0.469945 0.178512 0.011956
0.468524 0.178512 0.010763
0.467857 0.178338 0.008122
0.466437 0.178338 0.006930
0.465016 0.178338 0.005738
0.463596 0.178338 0.004547
0.462176 0.178338 0.003355
0.460756 0.178338 0.002164
0.459336 0.178338 0.000972
0.457916 0.178338 -0.000220
0.456496 0.178338 -0.001411
0.455076 0.178338 -0.002603
0.453656 0.178338 -0.003794
0.452236 0.178338 -0.004986
0.450816 0.178338 -0.006177
0.448623 0.178512 -0.005935
0.447202 0.178512 -0.007128
0.445781 0.178512 -0.008321
0.444359 0.178512 -0.009514
0.442938 0.178512 -0.010706
0.440736 0.178686 -0.010469
0.439313 0.178686 -0.011663
0.437890 0.178686 -0.012856
0.435681 0.178860 -0.012620
0.434257 0.178860 -0.013815
0.433621 0.178686 -0.016438
0.431408 0.178860 -0.016206
0.429984 0.178860 -0.017401
0.434862 0.177476 -0.029911
0.439666 0.176113 -0.042230
0.444396 0.174771 -0.054362
0.446797 0.173942 -0.062287
0.449176 0.173121 -0.070138
0.451532 0.172308 -0.077915
0.453127 0.171663 -0.084313
0.453975 0.171183 -0.089367
0.454084 0.170864 -0.093101
0.454193 0.170546 -0.096822
0.454302 0.170229 -0.100528
0.455139 0.169757 -0.105495
0.455245 0.169443 -0.109169
0.455351 0.169131 -0.112829
0.455456 0.168819 -0.116475
0.454837 0.168664 -0.118857
0.454943 0.168354 -0.122483
0.454326 0.168200 -0.124853
0.453711 0.168046 -0.127218
0.454539 0.167585 -0.132049
0.453926 0.167432 -0.134399
0.453313 0.167280 -0.136745
0.452701 0.167127 -0.139087
0.452091 0.166975 -0.141425
0.451482 0.166823 -0.143758
0.451592 0.166520 -0.147299
0.450985 0.166369 -0.149621
0.450379 0.166218 -0.151938
0.449774 0.166068 -0.154252
0.448451 0.166068 -0.155361
0.447849 0.165918 -0.157669
0.446527 0.165918 -0.158778
0.445927 0.165768 -0.161081
0.445327 0.165618 -0.163380
0.444008 0.165618 -0.164487
0.443411 0.165468 -0.166781
0.442815 0.165319 -0.169070
0.442220 0.165170 -0.171356
0.441626 0.165022 -0.173637
0.440312 0.165022 -0.174740
0.439720 0.164873 -0.177016
0.439130 0.164725 -0.179288
0.437817 0.164725 -0.180389
0.437229 0.164577 -0.182657
0.436642 0.164430 -0.184920
0.435332 0.164430 -0.186019
0.434747 0.164283 -0.188277
0.433439 0.164283 -0.189375
0.432856 0.164136 -0.191628
0.431548 0.164136 -0.192725
0.430968 0.163989 -0.194973
0.429661 0.163989 -0.196069
0.429083 0.163842 -0.198312
0.427778 0.163842 -0.199407
0.426473 0.163842 -0.200502
0.425898 0.163696 -0.202739
0.424594 0.163696 -0.203833
0.423290 0.163696 -0.204927
0.422718 0.163550 -0.207158
0.422147 0.163404 -0.209386
0.420846 0.163404 -0.210478
0.419544 0.163404 -0.211570
0.418977 0.163259 -0.213791
0.417677 0.163259 -0.214883
0.416376 0.163259 -0.215974
0.415812 0.163114 -0.218189
0.414513 0.163114 -0.219279
0.413214 0.163114 -0.220370
0.412653 0.162969 -0.222579
0.411355 0.162969 -0.223668
0.410057 0.162969 -0.224758
0.408759 0.162969 -0.225847
0.408202 0.162824 -0.228050
0.406905 0.162824 -0.229138
0.405608 0.162824 -0.230226
0.405055 0.162679 -0.232423
0.403759 0.162679 -0.233510
0.402464 0.162679 -0.234598
0.401914 0.162535 -0.236789
0.400619 0.162535 -0.237875
0.399324 0.162535 -0.238962
0.398778 0.162391 -0.241147
0.397484 0.162391 -0.242232
0.396191 0.162391 -0.243318
0.395647 0.162248 -0.245497
0.394355 0.162248 -0.246582
0.393063 0.162248 -0.247666
0.391770 0.162248 -0.248751
0.391231 0.162104 -0.250924
0.389940 0.162104 -0.252007
0.389403 0.161961 -0.254175
0.388113 0.161961 -0.255258
0.386823 0.161961 -0.256340
0.385533 0.161961 -0.257423
0.384243 0.161961 -0.258505
0.382953 0.161961 -0.259588
0.381663 0.161961 -0.260670
0.380373 0.161961 -0.261753
0.379083 0.161961 -0.262835
0.377793 0.161961 -0.263918
0.376503 0.161961 -0.265000
0.375213 0.161961 -0.266083
0.373922 0.161961 -0.267165
0.372632 0.161961 -0.268248
0.371342 0.161961 -0.269330
0.370052 0.161961 -0.270413
0.368762 0.161961 -0.271495
0.367472 0.161961 -0.272578
0.366182 0.161961 -0.273660
0.364892 0.161961 -0.274743
0.363602 0.161961 -0.275825
0.362312 0.161961 -0.276908
0.361022 0.161961 -0.277990
0.359732 0.161961 -0.279073
0.359222 0.161818 -0.281215
0.357933 0.161818 -0.282297
0.356644 0.161818 -0.283378
0.355355 0.161818 -0.284460
0.354066 0.161818 -0.285541
0.352777 0.161818 -0.286623
0.351488 0.161818 -0.287704
0.350199 0.161818 -0.288786
0.348910 0.161818 -0.289868
0.346831 0.161961 -0.289898
