ply
format ascii 1.0
element vertex 1612
property float x
property float y
property float z
end_header
-0.355207 -0.075253 -0.361078
-0.354805 -0.075253 -0.359233
-0.354402 -0.075253 -0.357387
-0.355174 -0.076285 -0.354860
-0.354773 -0.076285 -0.353017
-0.354371 -0.076285 -0.351173
-0.355142 -0.077316 -0.348655
-0.354741 -0.077316 -0.346813
-0.354339 -0.077316 -0.344972
-0.355110 -0.078345 -0.342462
-0.354709 -0.078345 -0.340622
-0.355478 -0.079371 -0.338119
-0.355077 -0.079371 -0.336281
-0.354677 -0.079371 -0.334443
-0.355445 -0.080396 -0.331948
-0.355045 -0.080396 -0.330112
-0.354645 -0.080396 -0.328276
-0.355413 -0.081419 -0.325790
-0.355013 -0.081419 -0.323955
-0.354613 -0.081419 -0.322121
-0.355381 -0.082439 -0.319643
-0.354981 -0.082439 -0.317811
-0.354582 -0.082439 -0.315978
-0.354182 -0.082439 -0.314145
-0.354949 -0.083458 -0.311678
-0.354550 -0.083458 -0.309847
-0.354151 -0.083458 -0.308016
-0.353752 -0.083458 -0.306186
-0.354519 -0.084475 -0.303728
-0.354120 -0.084475 -0.301899
-0.353721 -0.084475 -0.300070
-0.353323 -0.084475 -0.298241
-0.352924 -0.084475 -0.296412
-0.353691 -0.085489 -0.293967
-0.353292 -0.085489 -0.292140
-0.351728 -0.084475 -0.290926
-0.352496 -0.085489 -0.288486
-0.352098 -0.085489 -0.286658
-0.351699 -0.085489 -0.284831
-0.351301 -0.085489 -0.283004
-0.352069 -0.086502 -0.280574
-0.351671 -0.086502 -0.278749
-0.351273 -0.086502 -0.276923
-0.350875 -0.086502 -0.275098
-0.351642 -0.087513 -0.272678
-0.351245 -0.087513 -0.270855
-0.350847 -0.087513 -0.269031
-0.350450 -0.087513 -0.267207
-0.350052 -0.087513 -0.265384
-0.349655 -0.087513 -0.263560
-0.350422 -0.088521 -0.261154
-0.348860 -0.087513 -0.259913
-0.348462 -0.087513 -0.258089
-0.348065 -0.087513 -0.256266
-0.347667 -0.087513 -0.254442
-0.347270 -0.087513 -0.252618
-0.346873 -0.087513 -0.250795
-0.346475 -0.087513 -0.248971
-0.346078 -0.087513 -0.247147
-0.345680 -0.087513 -0.245324
-0.345283 -0.087513 -0.243500
-0.344885 -0.087513 -0.241677
-0.343316 -0.086502 -0.240415
-0.341743 -0.085489 -0.239151
-0.340168 -0.084475 -0.237885
-0.339769 -0.084475 -0.236056
-0.339371 -0.084475 -0.234227
-0.338972 -0.084475 -0.232398
-0.339752 -0.085489 -0.230015
-0.339354 -0.085489 -0.228188
-0.338956 -0.085489 -0.226361
-0.339735 -0.086502 -0.223987
-0.339337 -0.086502 -0.222161
-0.340116 -0.087513 -0.219793
-0.339718 -0.087513 -0.217969
-0.339321 -0.087513 -0.216146
-0.340098 -0.088521 -0.213786
-0.339701 -0.088521 -0.211964
-0.340478 -0.089528 -0.209610
-0.340081 -0.089528 -0.207790
-0.340856 -0.090533 -0.205443
-0.340460 -0.090533 -0.203625
-0.341234 -0.091536 -0.201284
-0.340838 -0.091536 -0.199467
-0.341611 -0.092537 -0.197133
-0.341216 -0.092537 -0.195318
-0.340820 -0.092537 -0.193503
-0.341593 -0.093536 -0.191177
-0.341198 -0.093536 -0.189364
-0.341969 -0.094533 -0.187043
-0.341574 -0.094533 -0.185232
-0.342344 -0.095528 -0.182918
-0.341950 -0.095528 -0.181109
-0.341555 -0.095528 -0.179299
-0.342325 -0.096521 -0.176993
-0.341931 -0.096521 -0.175185
-0.342699 -0.097512 -0.172886
-0.341143 -0.096521 -0.171570
-0.341912 -0.097512 -0.169274
-0.341518 -0.097512 -0.167468
-0.341125 -0.097512 -0.165662
-0.340731 -0.097512 -0.163856
-0.340337 -0.097512 -0.162050
-0.339944 -0.097512 -0.160244
-0.339550 -0.097512 -0.158438
-0.339156 -0.097512 -0.156632
-0.338763 -0.097512 -0.154826
-0.338369 -0.097512 -0.153020
-0.337976 -0.097512 -0.151214
-0.337582 -0.097512 -0.149408
-0.337188 -0.097512 -0.147602
-0.337961 -0.098502 -0.145330
-0.337567 -0.098502 -0.143526
-0.337174 -0.098502 -0.141722
-0.336781 -0.098502 -0.139918
-0.335220 -0.097512 -0.138571
-0.334827 -0.097512 -0.136765
-0.334433 -0.097512 -0.134959
-0.334039 -0.097512 -0.133153
-0.333646 -0.097512 -0.131347
-0.333252 -0.097512 -0.129541
-0.332859 -0.097512 -0.127735
-0.332465 -0.097512 -0.125929
-0.332071 -0.097512 -0.124123
-0.331678 -0.097512 -0.122317
-0.331284 -0.097512 -0.120511
-0.330890 -0.097512 -0.118705
-0.329323 -0.096521 -0.117337
-0.328929 -0.096521 -0.115530
-0.328535 -0.096521 -0.113722
-0.328141 -0.096521 -0.111914
-0.326569 -0.095528 -0.110538
-0.326174 -0.095528 -0.108729
-0.325780 -0.095528 -0.106919
-0.324204 -0.094533 -0.105537
-0.323810 -0.094533 -0.103726
-0.323415 -0.094533 -0.101914
-0.323020 -0.094533 -0.100103
-0.321440 -0.093536 -0.098713
-0.321045 -0.093536 -0.096900
-0.320650 -0.093536 -0.095087
-0.320255 -0.093536 -0.093274
-0.319859 -0.093536 -0.091461
-0.318275 -0.092537 -0.090061
-0.317879 -0.092537 -0.088246
-0.317484 -0.092537 -0.086432
-0.317088 -0.092537 -0.084617
-0.315500 -0.091536 -0.083209
-0.315104 -0.091536 -0.081393
-0.314708 -0.091536 -0.079576
-0.313115 -0.090533 -0.078162
-0.312719 -0.090533 -0.076344
-0.312322 -0.090533 -0.074525
-0.311926 -0.090533 -0.072707
-0.310329 -0.089528 -0.071285
-0.309933 -0.089528 -0.069465
-0.309536 -0.089528 -0.067645
-0.309139 -0.089528 -0.065825
-0.307538 -0.088521 -0.064394
-0.307141 -0.088521 -0.062572
-0.306744 -0.088521 -0.060751
-0.306347 -0.088521 -0.058929
-0.305950 -0.088521 -0.057107
-0.304344 -0.087513 -0.055667
-0.303947 -0.087513 -0.053843
-0.303549 -0.087513 -0.052020
-0.301939 -0.086502 -0.050573
-0.301541 -0.086502 -0.048748
-0.301144 -0.086502 -0.046922
-0.300746 -0.086502 -0.045097
-0.300348 -0.086502 -0.043271
-0.299950 -0.086502 -0.041446
-0.298335 -0.085489 -0.039988
-0.297937 -0.085489 -0.038160
-0.296319 -0.084475 -0.036698
-0.295920 -0.084475 -0.034869
-0.294298 -0.083458 -0.033401
-0.293899 -0.083458 -0.031570
-0.293500 -0.083458 -0.029739
-0.291874 -0.082439 -0.028265
-0.291475 -0.082439 -0.026433
-0.289845 -0.081419 -0.024954
-0.289445 -0.081419 -0.023120
-0.287812 -0.080396 -0.021636
-0.287412 -0.080396 -0.019800
-0.285775 -0.079371 -0.018312
-0.285375 -0.079371 -0.016474
-0.283735 -0.078345 -0.014981
-0.283334 -0.078345 -0.013141
-0.282933 -0.078345 -0.011301
-0.281288 -0.077316 -0.009802
-0.280887 -0.077316 -0.007960
-0.279239 -0.076285 -0.006456
-0.278837 -0.076285 -0.004613
-0.277186 -0.075253 -0.003104
-0.276783 -0.075253 -0.001258
-0.276381 -0.075253 0.000587
-0.274726 -0.074218 0.002103
-0.274323 -0.074218 0.003950
-0.272664 -0.073181 0.005470
-0.272261 -0.073181 0.007319
-0.270598 -0.072142 0.008844
-0.270194 -0.072142 0.010695
-0.268528 -0.071101 0.012225
-0.268124 -0.071101 0.014078
-0.267720 -0.071101 0.015930
-0.266049 -0.070058 0.017467
-0.265645 -0.070058 0.019322
-0.263970 -0.069013 0.020863
-0.263566 -0.069013 0.022720
-0.260611 -0.066916 0.023956
-0.258927 -0.065865 0.025507
-0.258521 -0.065865 0.027369
-0.256833 -0.064812 0.028925
-0.255141 -0.063756 0.030484
-0.254734 -0.063756 0.032350
-0.253039 -0.062698 0.033914
-0.251340 -0.061639 0.035481
-0.250933 -0.061639 0.037350
-0.249230 -0.060577 0.038922
-0.247524 -0.059513 0.040498
-0.247116 -0.059513 0.042371
-0.245406 -0.058446 0.043951
-0.243692 -0.057378 0.045535
-0.241976 -0.056308 0.047121
-0.241566 -0.056308 0.049000
-0.239845 -0.055235 0.050592
-0.238121 -0.054160 0.052187
-0.236394 -0.053083 0.053785
-0.235983 -0.053083 0.055669
-0.234251 -0.052004 0.057273
-0.232516 -0.050923 0.058879
-0.230778 -0.049840 0.060489
-0.230366 -0.049840 0.062379
-0.228624 -0.048754 0.063994
-0.226878 -0.047666 0.065613
-0.225128 -0.046576 0.067234
-0.223375 -0.045484 0.068859
-0.222961 -0.045484 0.070757
-0.221204 -0.044389 0.072387
-0.219444 -0.043292 0.074020
-0.217679 -0.042193 0.075657
-0.215912 -0.041092 0.077297
-0.214140 -0.039989 0.078941
-0.213724 -0.039989 0.080848
-0.211949 -0.038883 0.082497
-0.208804 -0.036665 0.083891
-0.207018 -0.035552 0.085548
-0.205228 -0.034438 0.087208
-0.202057 -0.032201 0.088618
-0.200257 -0.031079 0.090287
-0.198453 -0.029955 0.091959
-0.195254 -0.027700 0.093384
-0.193439 -0.026570 0.095065
-0.191621 -0.025436 0.096749
-0.188395 -0.023163 0.098190
-0.186565 -0.022022 0.099882
-0.184732 -0.020879 0.101578
-0.182895 -0.019734 0.103278
-0.179634 -0.017437 0.104740
-0.177786 -0.016285 0.106448
-0.175934 -0.015130 0.108160
-0.174078 -0.013973 0.109875
-0.170782 -0.011651 0.111359
-0.168915 -0.010487 0.113083
-0.165597 -0.008151 0.114578
-0.163718 -0.006979 0.116311
-0.160379 -0.004628 0.117818
-0.158489 -0.003449 0.119559
-0.153658 0.000103 0.120851
-0.150276 0.002484 0.122377
-0.145393 0.006075 0.123684
-0.141975 0.008481 0.125224
-0.137040 0.012110 0.126547
-0.133586 0.014542 0.128101
-0.128596 0.018209 0.129441
-0.122040 0.023137 0.130568
-0.115427 0.028107 0.131704
-0.107191 0.034381 0.132629
-0.095687 0.043280 0.133119
-0.075872 0.058858 0.132490
-0.047070 0.081653 0.130686
-0.297653 -0.014445 -0.469361
-0.308860 -0.024779 -0.459913
-0.313540 -0.029310 -0.454699
-0.316920 -0.032684 -0.450336
-0.320280 -0.036038 -0.446000
-0.323619 -0.039370 -0.441690
-0.326937 -0.042682 -0.437406
-0.329000 -0.044879 -0.433931
-0.331054 -0.047067 -0.430470
-0.333100 -0.049247 -0.427024
-0.333914 -0.050333 -0.424359
-0.335948 -0.052499 -0.420935
-0.337974 -0.054656 -0.417525
-0.338779 -0.055731 -0.414884
-0.339582 -0.056805 -0.412248
-0.340384 -0.057876 -0.409618
-0.341184 -0.058944 -0.406992
-0.340775 -0.058944 -0.405116
-0.341573 -0.060011 -0.402498
-0.342370 -0.061076 -0.399885
-0.343166 -0.062138 -0.397277
-0.343960 -0.063199 -0.394675
-0.344752 -0.064257 -0.392077
-0.345543 -0.065313 -0.389485
-0.345137 -0.065313 -0.387620
-0.345926 -0.066367 -0.385035
-0.346714 -0.067419 -0.382455
-0.347501 -0.068469 -0.379880
-0.349473 -0.070562 -0.376602
-0.350255 -0.071606 -0.374041
-0.349851 -0.071606 -0.372187
-0.351813 -0.073687 -0.368934
-0.352590 -0.074724 -0.366388
-0.353365 -0.075759 -0.363847
-0.352962 -0.075759 -0.362000
-0.353737 -0.076793 -0.359465
-0.353334 -0.076793 -0.357620
-0.352932 -0.076793 -0.355775
-0.353706 -0.077824 -0.353249
-0.353304 -0.077824 -0.351406
-0.352902 -0.077824 -0.349563
-0.353675 -0.078853 -0.347046
-0.353273 -0.078853 -0.345204
-0.352872 -0.078853 -0.343362
-0.353644 -0.079880 -0.340854
-0.353243 -0.079880 -0.339014
-0.354014 -0.080905 -0.336513
-0.353613 -0.080905 -0.334675
-0.353212 -0.080905 -0.332837
-0.353982 -0.081928 -0.330344
-0.353582 -0.081928 -0.328507
-0.353182 -0.081928 -0.326671
-0.352782 -0.081928 -0.324835
-0.353552 -0.082950 -0.322352
-0.353152 -0.082950 -0.320518
-0.353920 -0.083969 -0.318042
-0.353521 -0.083969 -0.316209
-0.353121 -0.083969 -0.314377
-0.352722 -0.083969 -0.312544
-0.352323 -0.083969 -0.310712
-0.353091 -0.084986 -0.308247
-0.352692 -0.084986 -0.306417
-0.352293 -0.084986 -0.304586
-0.351894 -0.084986 -0.302755
-0.352663 -0.086001 -0.300301
-0.352264 -0.086001 -0.298472
-0.351865 -0.086001 -0.296643
-0.351467 -0.086001 -0.294814
-0.352235 -0.087014 -0.292370
-0.350669 -0.086001 -0.291156
-0.350271 -0.086001 -0.289327
-0.351040 -0.087014 -0.286889
-0.350642 -0.087014 -0.285062
-0.350243 -0.087014 -0.283235
-0.349845 -0.087014 -0.281407
-0.349447 -0.087014 -0.279580
-0.350216 -0.088025 -0.277154
-0.349818 -0.088025 -0.275328
-0.349421 -0.088025 -0.273503
-0.349023 -0.088025 -0.271677
-0.349792 -0.089035 -0.269261
-0.349394 -0.089035 -0.267437
-0.348997 -0.089035 -0.265614
-0.348599 -0.089035 -0.263790
-0.348202 -0.089035 -0.261966
-0.347804 -0.089035 -0.260143
-0.347407 -0.089035 -0.258319
-0.347009 -0.089035 -0.256496
-0.346612 -0.089035 -0.254672
-0.346214 -0.089035 -0.252848
-0.345817 -0.089035 -0.251025
-0.345419 -0.089035 -0.249201
-0.345022 -0.089035 -0.247377
-0.344625 -0.089035 -0.245554
-0.344227 -0.089035 -0.243730
-0.343830 -0.089035 -0.241907
-0.342259 -0.088025 -0.240645
-0.340686 -0.087014 -0.239382
-0.339109 -0.086001 -0.238116
-0.338711 -0.086001 -0.236287
-0.338312 -0.086001 -0.234458
-0.337913 -0.086001 -0.232629
-0.337515 -0.086001 -0.230800
-0.338296 -0.087014 -0.228419
-0.337898 -0.087014 -0.226592
-0.338679 -0.088025 -0.224217
-0.338281 -0.088025 -0.222391
-0.337883 -0.088025 -0.220566
-0.338663 -0.089035 -0.218199
-0.338265 -0.089035 -0.216376
-0.339044 -0.090042 -0.214016
-0.338647 -0.090042 -0.212194
-0.339424 -0.091047 -0.209840
-0.339027 -0.091047 -0.208020
-0.339804 -0.092051 -0.205673
-0.339407 -0.092051 -0.203854
-0.339011 -0.092051 -0.202036
-0.339787 -0.093052 -0.199697
-0.339391 -0.093052 -0.197880
-0.340165 -0.094051 -0.195547
-0.339770 -0.094051 -0.193732
-0.340543 -0.095049 -0.191406
-0.340148 -0.095049 -0.189592
-0.340920 -0.096044 -0.187272
-0.340526 -0.096044 -0.185461
-0.340131 -0.096044 -0.183649
-0.340902 -0.097038 -0.181337
-0.340508 -0.097038 -0.179527
-0.341278 -0.098030 -0.177221
-0.340884 -0.098030 -0.175413
-0.341654 -0.099020 -0.173113
-0.341260 -0.099020 -0.171307
-0.340866 -0.099020 -0.169501
-0.340473 -0.099020 -0.167695
-0.340079 -0.099020 -0.165889
-0.339686 -0.099020 -0.164083
-0.339292 -0.099020 -0.162277
-0.338898 -0.099020 -0.160471
-0.338505 -0.099020 -0.158665
-0.338111 -0.099020 -0.156859
-0.337717 -0.099020 -0.155053
-0.338489 -0.100008 -0.152775
-0.338096 -0.100008 -0.150971
-0.337703 -0.100008 -0.149167
-0.337309 -0.100008 -0.147362
-0.336916 -0.100008 -0.145558
-0.336523 -0.100008 -0.143754
-0.336130 -0.100008 -0.141950
-0.335736 -0.100008 -0.140145
-0.334175 -0.099020 -0.138799
-0.333781 -0.099020 -0.136993
-0.333388 -0.099020 -0.135187
-0.332994 -0.099020 -0.133381
-0.332600 -0.099020 -0.131575
-0.332207 -0.099020 -0.129769
-0.331813 -0.099020 -0.127963
-0.330246 -0.098030 -0.126604
-0.331026 -0.099020 -0.124351
-0.330632 -0.099020 -0.122545
-0.329064 -0.098030 -0.121181
-0.328670 -0.098030 -0.119373
-0.328276 -0.098030 -0.117565
-0.327882 -0.098030 -0.115758
-0.326310 -0.097038 -0.114385
-0.325916 -0.097038 -0.112576
-0.325521 -0.097038 -0.110766
-0.323945 -0.096044 -0.109388
-0.323551 -0.096044 -0.107577
-0.323156 -0.096044 -0.105765
-0.322761 -0.096044 -0.103954
-0.322366 -0.096044 -0.102143
-0.320786 -0.095049 -0.100755
-0.320391 -0.095049 -0.098942
-0.319995 -0.095049 -0.097129
-0.319600 -0.095049 -0.095316
-0.318015 -0.094051 -0.093920
-0.317620 -0.094051 -0.092105
-0.317224 -0.094051 -0.090290
-0.316829 -0.094051 -0.088475
-0.315240 -0.093052 -0.087071
-0.314844 -0.093052 -0.085255
-0.314448 -0.093052 -0.083438
-0.312855 -0.092051 -0.082028
-0.312459 -0.092051 -0.080210
-0.312063 -0.092051 -0.078391
-0.311666 -0.092051 -0.076573
-0.311270 -0.092051 -0.074755
-0.309672 -0.091047 -0.073335
-0.309276 -0.091047 -0.071514
-0.308879 -0.091047 -0.069694
-0.308482 -0.091047 -0.067874
-0.306881 -0.090042 -0.066446
-0.306484 -0.090042 -0.064624
-0.306086 -0.090042 -0.062802
-0.305689 -0.090042 -0.060980
-0.304083 -0.089035 -0.059544
-0.303686 -0.089035 -0.057720
-0.303288 -0.089035 -0.055897
-0.301678 -0.088025 -0.054454
-0.301281 -0.088025 -0.052629
-0.300883 -0.088025 -0.050803
-0.300485 -0.088025 -0.048978
-0.300087 -0.088025 -0.047152
-0.299689 -0.088025 -0.045327
-0.299291 -0.088025 -0.043502
-0.297676 -0.087014 -0.042045
-0.297278 -0.087014 -0.040218
-0.295659 -0.086001 -0.038757
-0.295260 -0.086001 -0.036928
-0.293637 -0.084986 -0.035463
-0.293238 -0.084986 -0.033632
-0.292839 -0.084986 -0.031801
-0.291213 -0.083969 -0.030329
-0.290813 -0.083969 -0.028497
-0.289183 -0.082950 -0.027020
-0.288783 -0.082950 -0.025185
-0.287150 -0.081928 -0.023704
-0.286749 -0.081928 -0.021868
-0.285112 -0.080905 -0.020382
-0.284712 -0.080905 -0.018544
-0.283071 -0.079880 -0.017053
-0.282670 -0.079880 -0.015213
-0.282269 -0.079880 -0.013373
-0.280624 -0.078853 -0.011876
-0.280222 -0.078853 -0.010034
-0.278574 -0.077824 -0.008532
-0.278172 -0.077824 -0.006689
-0.276520 -0.076793 -0.005182
-0.276117 -0.076793 -0.003336
-0.275715 -0.076793 -0.001491
-0.274059 -0.075759 0.000022
-0.273656 -0.075759 0.001870
-0.271996 -0.074724 0.003388
-0.271593 -0.074724 0.005237
-0.269930 -0.073687 0.006760
-0.269526 -0.073687 0.008611
-0.267859 -0.072647 0.010139
-0.267455 -0.072647 0.011992
-0.267051 -0.072647 0.013844
-0.265380 -0.071606 0.015379
-0.264976 -0.071606 0.017233
-0.263301 -0.070562 0.018773
-0.262896 -0.070562 0.020629
-0.259940 -0.068469 0.021862
-0.259535 -0.068469 0.023722
-0.257849 -0.067419 0.025272
-0.256160 -0.066367 0.026826
-0.255754 -0.066367 0.028690
-0.254061 -0.065313 0.030249
-0.252365 -0.064257 0.031811
-0.251958 -0.064257 0.033678
-0.250258 -0.063199 0.035245
-0.248555 -0.062138 0.036815
-0.248147 -0.062138 0.038686
-0.246440 -0.061076 0.040261
-0.244729 -0.060011 0.041840
-0.244320 -0.060011 0.043714
-0.242606 -0.058944 0.045298
-0.240888 -0.057876 0.046884
-0.240479 -0.057876 0.048763
-0.238757 -0.056805 0.050355
-0.237032 -0.055731 0.051949
-0.235303 -0.054656 0.053547
-0.233571 -0.053578 0.055149
-0.233160 -0.053578 0.057035
-0.231424 -0.052499 0.058641
-0.229684 -0.051417 0.060251
-0.227941 -0.050333 0.061864
-0.227528 -0.050333 0.063756
-0.225781 -0.049247 0.065374
-0.224031 -0.048158 0.066995
-0.222276 -0.047067 0.068620
-0.220519 -0.045975 0.070248
-0.220105 -0.045975 0.072147
-0.218343 -0.044879 0.073780
-0.216578 -0.043782 0.075417
-0.214809 -0.042682 0.077057
-0.213036 -0.041581 0.078700
-0.211260 -0.040477 0.080347
-0.209480 -0.039370 0.081997
-0.207697 -0.038262 0.083650
-0.205909 -0.037151 0.085306
-0.202743 -0.034922 0.086711
-0.200945 -0.033804 0.088376
-0.199143 -0.032684 0.090044
-0.195949 -0.030437 0.091464
-0.194137 -0.029310 0.093141
-0.192321 -0.028181 0.094821
-0.189100 -0.025915 0.096257
-0.187273 -0.024779 0.097946
-0.185443 -0.023640 0.099638
-0.183608 -0.022499 0.101334
-0.180352 -0.020210 0.102790
-0.178507 -0.019062 0.104495
-0.176658 -0.017911 0.106202
-0.174805 -0.016758 0.107914
-0.171513 -0.014445 0.109392
-0.169649 -0.013285 0.111112
-0.166336 -0.010957 0.112602
-0.164460 -0.009790 0.114331
-0.162581 -0.008620 0.116063
-0.159239 -0.006272 0.117569
-0.155883 -0.003915 0.119082
-0.151038 -0.000360 0.120373
-0.147647 0.002022 0.121900
-0.144242 0.004415 0.123433
-0.139324 0.008023 0.124747
-0.135882 0.010441 0.126295
-0.132426 0.012870 0.127849
-0.127433 0.016532 0.129187
-0.120872 0.021452 0.130313
-0.114253 0.026415 0.131448
-0.106011 0.032679 0.132372
-0.094498 0.041565 0.132860
-0.074667 0.057120 0.132228
-0.047541 0.078519 0.130652
-0.307739 -0.026396 -0.460158
-0.311151 -0.029793 -0.455760
-0.314542 -0.033169 -0.451389
-0.319170 -0.037638 -0.446241
-0.322512 -0.040965 -0.441931
-0.325834 -0.044273 -0.437647
-0.326660 -0.045371 -0.434955
-0.328721 -0.047560 -0.431489
-0.330774 -0.049740 -0.428037
-0.332819 -0.051912 -0.424598
-0.333632 -0.052994 -0.421939
-0.335665 -0.055153 -0.418523
-0.336473 -0.056229 -0.415879
-0.337279 -0.057302 -0.413239
-0.338084 -0.058374 -0.410605
-0.338887 -0.059443 -0.407976
-0.339688 -0.060511 -0.405352
-0.340488 -0.061576 -0.402734
-0.341286 -0.062639 -0.400121
-0.342083 -0.063700 -0.397513
-0.341675 -0.063700 -0.395642
-0.342471 -0.064759 -0.393041
-0.343264 -0.065815 -0.390446
-0.344057 -0.066870 -0.387855
-0.344847 -0.067922 -0.385270
-0.344441 -0.067922 -0.383406
-0.345231 -0.068973 -0.380828
-0.346019 -0.070021 -0.378255
-0.347994 -0.072111 -0.374980
-0.348777 -0.073153 -0.372421
-0.349559 -0.074193 -0.369866
-0.351520 -0.076267 -0.366621
-0.351117 -0.076267 -0.364772
-0.351893 -0.077301 -0.362233
-0.352668 -0.078332 -0.359698
-0.351088 -0.077301 -0.358538
-0.351864 -0.078332 -0.356008
-0.351462 -0.078332 -0.354162
-0.352237 -0.079362 -0.351638
-0.351835 -0.079362 -0.349795
-0.351433 -0.079362 -0.347952
-0.352207 -0.080390 -0.345436
-0.351806 -0.080390 -0.343595
-0.351404 -0.080390 -0.341753
-0.352178 -0.081416 -0.339246
-0.351777 -0.081416 -0.337407
-0.352549 -0.082439 -0.334907
-0.352148 -0.082439 -0.333069
-0.351748 -0.082439 -0.331231
-0.351347 -0.082439 -0.329393
-0.352119 -0.083461 -0.326903
-0.351719 -0.083461 -0.325067
-0.352490 -0.084481 -0.322584
-0.352090 -0.084481 -0.320749
-0.351690 -0.084481 -0.318915
-0.351290 -0.084481 -0.317081
-0.352061 -0.085498 -0.314608
-0.351661 -0.085498 -0.312775
-0.351262 -0.085498 -0.310943
-0.350862 -0.085498 -0.309110
-0.351633 -0.086514 -0.306648
-0.351234 -0.086514 -0.304817
-0.350835 -0.086514 -0.302986
-0.350435 -0.086514 -0.301155
-0.350036 -0.086514 -0.299324
-0.350807 -0.087528 -0.296874
-0.350408 -0.087528 -0.295045
-0.350009 -0.087528 -0.293216
-0.349611 -0.087528 -0.291387
-0.349212 -0.087528 -0.289558
-0.348813 -0.087528 -0.287729
-0.348415 -0.087528 -0.285900
-0.349186 -0.088539 -0.283465
-0.348788 -0.088539 -0.281638
-0.348389 -0.088539 -0.279811
-0.347991 -0.088539 -0.277983
-0.348762 -0.089549 -0.275559
-0.348364 -0.089549 -0.273733
-0.347966 -0.089549 -0.271908
-0.347568 -0.089549 -0.270082
-0.347170 -0.089549 -0.268257
-0.346772 -0.089549 -0.266431
-0.346375 -0.089549 -0.264606
-0.347146 -0.090557 -0.262197
-0.346749 -0.090557 -0.260373
-0.345181 -0.089549 -0.259130
-0.344783 -0.089549 -0.257304
-0.344385 -0.089549 -0.255479
-0.343988 -0.089549 -0.253654
-0.343590 -0.089549 -0.251828
-0.343192 -0.089549 -0.250003
-0.342794 -0.089549 -0.248177
-0.343569 -0.090557 -0.245784
-0.343171 -0.090557 -0.243960
-0.341600 -0.089549 -0.242701
-0.341203 -0.089549 -0.240876
-0.339628 -0.088539 -0.239612
-0.338050 -0.087528 -0.238347
-0.337652 -0.087528 -0.236518
-0.336071 -0.086514 -0.235248
-0.336855 -0.087528 -0.232860
-0.336456 -0.087528 -0.231031
-0.337239 -0.088539 -0.228649
-0.336840 -0.088539 -0.226822
-0.336442 -0.088539 -0.224995
-0.337224 -0.089549 -0.222622
-0.336826 -0.089549 -0.220796
-0.337607 -0.090557 -0.218430
-0.337209 -0.090557 -0.216606
-0.336812 -0.090557 -0.214782
-0.337592 -0.091562 -0.212424
-0.337195 -0.091562 -0.210602
-0.337974 -0.092566 -0.208250
-0.337577 -0.092566 -0.206430
-0.338355 -0.093568 -0.204084
-0.337959 -0.093568 -0.202265
-0.338735 -0.094568 -0.199926
-0.338339 -0.094568 -0.198109
-0.339115 -0.095566 -0.195776
-0.338719 -0.095566 -0.193961
-0.339494 -0.096562 -0.191634
-0.339099 -0.096562 -0.189821
-0.338703 -0.096562 -0.188008
-0.339477 -0.097556 -0.185689
-0.339082 -0.097556 -0.183878
-0.339855 -0.098548 -0.181565
-0.339461 -0.098548 -0.179756
-0.340232 -0.099539 -0.177449
-0.339838 -0.099539 -0.175642
-0.339444 -0.099539 -0.173834
-0.340215 -0.100527 -0.171535
-0.338656 -0.099539 -0.170218
-0.339427 -0.100527 -0.167923
-0.339034 -0.100527 -0.166117
-0.338640 -0.100527 -0.164311
-0.338246 -0.100527 -0.162505
-0.337853 -0.100527 -0.160699
-0.337459 -0.100527 -0.158893
-0.337066 -0.100527 -0.157087
-0.336672 -0.100527 -0.155281
-0.336278 -0.100527 -0.153475
-0.335885 -0.100527 -0.151669
-0.335491 -0.100527 -0.149863
-0.335098 -0.100527 -0.148057
-0.334704 -0.100527 -0.146251
-0.334310 -0.100527 -0.144445
-0.333917 -0.100527 -0.142639
-0.333523 -0.100527 -0.140833
-0.333129 -0.100527 -0.139027
-0.331564 -0.099539 -0.137679
-0.331170 -0.099539 -0.135871
-0.330776 -0.099539 -0.134063
-0.330382 -0.099539 -0.132255
-0.329988 -0.099539 -0.130448
-0.329594 -0.099539 -0.128640
-0.329200 -0.099539 -0.126832
-0.328806 -0.099539 -0.125024
-0.328412 -0.099539 -0.123217
-0.328018 -0.099539 -0.121409
-0.327624 -0.099539 -0.119601
-0.327230 -0.099539 -0.117793
-0.325657 -0.098548 -0.116423
-0.325263 -0.098548 -0.114614
-0.324868 -0.098548 -0.112804
-0.323292 -0.097556 -0.111428
-0.322897 -0.097556 -0.109617
-0.322502 -0.097556 -0.107805
-0.322107 -0.097556 -0.105994
-0.320527 -0.096562 -0.104610
-0.320131 -0.096562 -0.102797
-0.319736 -0.096562 -0.100984
-0.319341 -0.096562 -0.099171
-0.318946 -0.096562 -0.097358
-0.317361 -0.095566 -0.095964
-0.316965 -0.095566 -0.094149
-0.316569 -0.095566 -0.092334
-0.316174 -0.095566 -0.090519
-0.314584 -0.094568 -0.089117
-0.314188 -0.094568 -0.087301
-0.313792 -0.094568 -0.085484
-0.312199 -0.093568 -0.084076
-0.311803 -0.093568 -0.082257
-0.311406 -0.093568 -0.080439
-0.311010 -0.093568 -0.078621
-0.309412 -0.092566 -0.077204
-0.309016 -0.092566 -0.075384
-0.308619 -0.092566 -0.073564
-0.308222 -0.092566 -0.071744
-0.306620 -0.091562 -0.070320
-0.306223 -0.091562 -0.068498
-0.305826 -0.091562 -0.066676
-0.305429 -0.091562 -0.064854
-0.303823 -0.090557 -0.063421
-0.303425 -0.090557 -0.061598
-0.303028 -0.090557 -0.059774
-0.302630 -0.090557 -0.057951
-0.301020 -0.089549 -0.056510
-0.300622 -0.089549 -0.054684
-0.300224 -0.089549 -0.052859
-0.299826 -0.089549 -0.051034
-0.298211 -0.088539 -0.049585
-0.299030 -0.089549 -0.047383
-0.297415 -0.088539 -0.045930
-0.297016 -0.088539 -0.044103
-0.296618 -0.088539 -0.042276
-0.294998 -0.087528 -0.040817
-0.294600 -0.087528 -0.038988
-0.292977 -0.086514 -0.037524
-0.292578 -0.086514 -0.035694
-0.290951 -0.085498 -0.034225
-0.290551 -0.085498 -0.032393
-0.290152 -0.085498 -0.030560
-0.288521 -0.084481 -0.029086
-0.288121 -0.084481 -0.027251
-0.286487 -0.083461 -0.025772
-0.286087 -0.083461 -0.023936
-0.284449 -0.082439 -0.022452
-0.284048 -0.082439 -0.020614
-0.283648 -0.082439 -0.018776
-0.282006 -0.081416 -0.017285
-0.281605 -0.081416 -0.015445
-0.279959 -0.080390 -0.013950
-0.279558 -0.080390 -0.012108
-0.277908 -0.079362 -0.010608
-0.277507 -0.079362 -0.008765
-0.275854 -0.078332 -0.007260
-0.275452 -0.078332 -0.005414
-0.273795 -0.077301 -0.003905
-0.273392 -0.077301 -0.002058
-0.272990 -0.077301 -0.000211
-0.271329 -0.076267 0.001306
-0.270926 -0.076267 0.003155
-0.269262 -0.075231 0.004676
-0.268858 -0.075231 0.006527
-0.267190 -0.074193 0.008053
-0.266787 -0.074193 0.009905
-0.266383 -0.074193 0.011758
-0.264711 -0.073153 0.013291
-0.264307 -0.073153 0.015145
-0.262631 -0.072111 0.016683
-0.262226 -0.072111 0.018539
-0.259269 -0.070021 0.019767
-0.258864 -0.070021 0.021627
-0.257177 -0.068973 0.023176
-0.255488 -0.067922 0.024728
-0.255081 -0.067922 0.026591
-0.253388 -0.066870 0.028148
-0.252981 -0.066870 0.030013
-0.251284 -0.065815 0.031575
-0.250877 -0.065815 0.033442
-0.249176 -0.064759 0.035009
-0.247472 -0.063700 0.036579
-0.247064 -0.063700 0.038450
-0.245356 -0.062639 0.040025
-0.243644 -0.061576 0.041603
-0.241929 -0.060511 0.043184
-0.241520 -0.060511 0.045061
-0.239801 -0.059443 0.046647
-0.239391 -0.059443 0.048526
-0.237668 -0.058374 0.050117
-0.235942 -0.057302 0.051712
-0.234212 -0.056229 0.053310
-0.232479 -0.055153 0.054911
-0.230742 -0.054075 0.056515
-0.230331 -0.054075 0.058403
-0.228590 -0.052994 0.060012
-0.226846 -0.051912 0.061625
-0.225098 -0.050827 0.063241
-0.224685 -0.050827 0.065135
-0.222933 -0.049740 0.066756
-0.221178 -0.048651 0.068380
-0.219419 -0.047560 0.070008
-0.217657 -0.046466 0.071639
-0.217242 -0.046466 0.073541
-0.215476 -0.045371 0.075177
-0.213706 -0.044273 0.076816
-0.211932 -0.043173 0.078459
-0.210155 -0.042070 0.080106
-0.208374 -0.040965 0.081755
-0.206589 -0.039858 0.083408
-0.203427 -0.037638 0.084808
-0.201632 -0.036524 0.086469
-0.199833 -0.035408 0.088134
-0.196644 -0.033169 0.089548
-0.194834 -0.032046 0.091221
-0.193021 -0.030920 0.092898
-0.189804 -0.028663 0.094328
-0.187980 -0.027530 0.096013
-0.186152 -0.026396 0.097701
-0.184320 -0.025259 0.099393
-0.181069 -0.022978 0.100845
-0.179226 -0.021833 0.102545
-0.177380 -0.020687 0.104249
-0.174100 -0.018387 0.105716
-0.173675 -0.018387 0.107668
-0.170381 -0.016077 0.109145
-0.168516 -0.014918 0.110865
-0.165200 -0.012594 0.112354
-0.163324 -0.011428 0.114083
-0.159987 -0.009089 0.115583
-0.158099 -0.007916 0.117321
-0.153271 -0.004381 0.118603
-0.149892 -0.002013 0.120123
-0.145013 0.001560 0.121421
-0.141598 0.003954 0.122955
-0.136667 0.007564 0.124270
-0.133216 0.009984 0.125818
-0.129750 0.012414 0.127372
-0.126270 0.014855 0.128934
-0.119703 0.019768 0.130058
-0.111526 0.025969 0.130970
-0.101684 0.033499 0.131669
-0.091712 0.041130 0.132377
-0.073462 0.055383 0.131965
-0.048011 0.075392 0.130617
-0.305333 -0.026877 -0.461228
-0.310033 -0.031404 -0.456003
-0.313428 -0.034775 -0.451631
-0.316801 -0.038125 -0.447287
-0.320154 -0.041455 -0.442968
-0.323486 -0.044764 -0.438677
-0.325558 -0.046959 -0.435196
-0.326384 -0.048053 -0.432510
-0.328444 -0.050235 -0.429052
-0.330495 -0.052408 -0.425608
-0.332538 -0.054572 -0.422178
-0.333351 -0.055650 -0.419524
-0.334162 -0.056727 -0.416875
-0.334971 -0.057801 -0.414232
-0.335779 -0.058873 -0.411594
-0.336585 -0.059943 -0.408962
-0.338602 -0.062077 -0.405589
-0.338193 -0.062077 -0.403712
-0.338994 -0.063141 -0.401096
-0.339794 -0.064202 -0.398484
-0.340592 -0.065261 -0.395878
-0.341389 -0.066319 -0.393277
-0.342183 -0.067374 -0.390681
-0.342977 -0.068427 -0.388090
-0.342570 -0.068427 -0.386225
-0.343362 -0.069478 -0.383641
-0.344153 -0.070526 -0.381063
-0.344942 -0.071573 -0.378490
-0.344537 -0.071573 -0.376630
-0.346515 -0.073660 -0.373358
-0.348486 -0.075739 -0.370100
-0.349267 -0.076776 -0.367550
-0.350046 -0.077810 -0.365005
-0.350824 -0.078842 -0.362466
-0.350422 -0.078842 -0.360619
-0.351198 -0.079872 -0.358086
-0.350796 -0.079872 -0.356241
-0.350394 -0.079872 -0.354395
-0.351170 -0.080901 -0.351871
-0.350768 -0.080901 -0.350028
-0.350366 -0.080901 -0.348184
-0.351141 -0.081927 -0.345669
-0.350740 -0.081927 -0.343827
-0.350338 -0.081927 -0.341985
-0.351113 -0.082951 -0.339478
-0.350712 -0.082951 -0.337639
-0.350311 -0.082951 -0.335799
-0.351085 -0.083973 -0.333300
-0.350684 -0.083973 -0.331462
-0.350283 -0.083973 -0.329624
-0.351056 -0.084993 -0.327135
-0.350656 -0.084993 -0.325298
-0.350256 -0.084993 -0.323462
-0.351028 -0.086011 -0.320981
-0.350628 -0.086011 -0.319146
-0.350228 -0.086011 -0.317312
-0.349829 -0.086011 -0.315478
-0.350600 -0.087028 -0.313006
-0.350201 -0.087028 -0.311174
-0.349802 -0.087028 -0.309341
-0.349402 -0.087028 -0.307509
-0.349003 -0.087028 -0.305676
-0.349775 -0.088042 -0.303217
-0.349376 -0.088042 -0.301386
-0.348977 -0.088042 -0.299555
-0.348578 -0.088042 -0.297725
-0.349349 -0.089054 -0.295276
-0.348951 -0.089054 -0.293447
-0.347381 -0.088042 -0.292232
-0.348153 -0.089054 -0.289789
-0.347755 -0.089054 -0.287960
-0.347356 -0.089054 -0.286131
-0.346958 -0.089054 -0.284302
-0.347730 -0.090064 -0.281868
-0.347332 -0.090064 -0.280041
-0.346933 -0.090064 -0.278214
-0.346535 -0.090064 -0.276387
-0.346137 -0.090064 -0.274560
-0.346909 -0.091072 -0.272138
-0.346512 -0.091072 -0.270313
-0.346114 -0.091072 -0.268487
-0.346885 -0.092079 -0.266074
-0.346488 -0.092079 -0.264250
-0.346090 -0.092079 -0.262427
-0.345693 -0.092079 -0.260603
-0.345296 -0.092079 -0.258779
-0.344898 -0.092079 -0.256956
-0.344501 -0.092079 -0.255132
-0.344103 -0.092079 -0.253309
-0.343706 -0.092079 -0.251485
-0.343308 -0.092079 -0.249661
-0.342911 -0.092079 -0.247838
-0.341339 -0.091072 -0.246582
-0.340942 -0.091072 -0.244757
-0.340544 -0.091072 -0.242932
-0.340146 -0.091072 -0.241106
-0.338570 -0.090064 -0.239843
-0.338172 -0.090064 -0.238016
-0.336593 -0.089054 -0.236748
-0.336195 -0.089054 -0.234919
-0.335796 -0.089054 -0.233090
-0.335397 -0.089054 -0.231261
-0.336181 -0.090064 -0.228880
-0.335783 -0.090064 -0.227053
-0.336565 -0.091072 -0.224677
-0.336167 -0.091072 -0.222852
-0.335770 -0.091072 -0.221027
-0.336551 -0.092079 -0.218660
-0.336154 -0.092079 -0.216836
-0.336935 -0.093083 -0.214475
-0.336537 -0.093083 -0.212654
-0.336140 -0.093083 -0.210832
-0.336920 -0.094085 -0.208479
-0.336524 -0.094085 -0.206659
-0.337302 -0.095086 -0.204313
-0.336906 -0.095086 -0.202495
-0.337684 -0.096084 -0.200155
-0.337288 -0.096084 -0.198338
-0.338064 -0.097081 -0.196005
-0.337669 -0.097081 -0.194190
-0.337273 -0.097081 -0.192375
-0.338049 -0.098075 -0.190050
-0.337654 -0.098075 -0.188237
-0.338429 -0.099068 -0.185918
-0.338034 -0.099068 -0.184107
-0.338807 -0.100058 -0.181794
-0.338413 -0.100058 -0.179984
-0.338019 -0.100058 -0.178175
-0.338792 -0.101047 -0.175870
-0.338398 -0.101047 -0.174062
-0.339169 -0.102034 -0.171763
-0.337609 -0.101047 -0.170446
-0.337216 -0.101047 -0.168639
-0.336821 -0.101047 -0.166831
-0.336428 -0.101047 -0.165023
-0.336033 -0.101047 -0.163215
-0.335640 -0.101047 -0.161408
-0.335245 -0.101047 -0.159600
-0.334851 -0.101047 -0.157792
-0.334457 -0.101047 -0.155984
-0.334063 -0.101047 -0.154177
-0.333669 -0.101047 -0.152369
-0.333275 -0.101047 -0.150561
-0.332881 -0.101047 -0.148753
-0.332487 -0.101047 -0.146946
-0.332093 -0.101047 -0.145138
-0.331699 -0.101047 -0.143330
-0.331305 -0.101047 -0.141522
-0.330911 -0.101047 -0.139715
-0.330517 -0.101047 -0.137907
-0.330123 -0.101047 -0.136099
-0.329729 -0.101047 -0.134291
-0.329335 -0.101047 -0.132484
-0.328941 -0.101047 -0.130676
-0.328547 -0.101047 -0.128868
-0.328153 -0.101047 -0.127060
-0.327759 -0.101047 -0.125253
-0.327365 -0.101047 -0.123445
-0.325793 -0.100058 -0.122080
-0.325398 -0.100058 -0.120271
-0.325004 -0.100058 -0.118461
-0.324610 -0.100058 -0.116651
-0.324215 -0.100058 -0.114842
-0.322638 -0.099068 -0.113468
-0.322243 -0.099068 -0.111656
-0.321848 -0.099068 -0.109845
-0.320267 -0.098075 -0.108464
-0.319872 -0.098075 -0.106651
-0.319477 -0.098075 -0.104838
-0.319082 -0.098075 -0.103025
-0.317497 -0.097081 -0.101637
-0.317101 -0.097081 -0.099822
-0.316706 -0.097081 -0.098007
-0.316310 -0.097081 -0.096192
-0.314721 -0.096084 -0.094796
-0.314325 -0.096084 -0.092979
-0.313929 -0.096084 -0.091163
-0.313533 -0.096084 -0.089346
-0.313137 -0.096084 -0.087530
-0.311543 -0.095086 -0.086123
-0.311146 -0.095086 -0.084305
-0.310750 -0.095086 -0.082487
-0.309152 -0.094085 -0.081074
-0.308755 -0.094085 -0.079254
-0.308359 -0.094085 -0.077434
-0.307962 -0.094085 -0.075614
-0.306360 -0.093083 -0.074193
-0.305963 -0.093083 -0.072371
-0.305566 -0.093083 -0.070549
-0.305169 -0.093083 -0.068728
-0.303562 -0.092079 -0.067299
-0.303164 -0.092079 -0.065475
-0.302767 -0.092079 -0.063652
-0.302370 -0.092079 -0.061828
-0.301972 -0.092079 -0.060004
-0.300361 -0.091072 -0.058566
-0.301177 -0.092079 -0.056357
-0.300780 -0.092079 -0.054533
-0.299167 -0.091072 -0.053089
-0.298769 -0.091072 -0.051264
-0.298372 -0.091072 -0.049438
-0.296755 -0.090064 -0.047988
-0.296357 -0.090064 -0.046161
-0.295959 -0.090064 -0.044334
-0.294338 -0.089054 -0.042877
-0.293940 -0.089054 -0.041048
-0.293541 -0.089054 -0.039219
-0.291917 -0.088042 -0.037755
-0.291518 -0.088042 -0.035925
-0.289890 -0.087028 -0.034457
-0.289491 -0.087028 -0.032624
-0.289091 -0.087028 -0.030792
-0.286224 -0.084993 -0.029676
-0.285824 -0.084993 -0.027840
-0.284186 -0.083973 -0.026359
-0.283785 -0.083973 -0.024521
-0.282144 -0.082951 -0.023036
-0.281743 -0.082951 -0.021197
-0.281342 -0.082951 -0.019357
-0.279696 -0.081927 -0.017865
-0.279294 -0.081927 -0.016024
-0.278893 -0.081927 -0.014182
-0.277243 -0.080901 -0.012684
-0.276841 -0.080901 -0.010841
-0.275188 -0.079872 -0.009338
-0.274786 -0.079872 -0.007492
-0.273128 -0.078842 -0.005985
-0.272726 -0.078842 -0.004138
-0.272323 -0.078842 -0.002291
-0.270662 -0.077810 -0.000776
-0.270259 -0.077810 0.001073
-0.268594 -0.076776 0.002592
-0.268191 -0.076776 0.004442
-0.267787 -0.076776 0.006293
-0.266118 -0.075739 0.007819
-0.265714 -0.075739 0.009672
-0.264041 -0.074701 0.011202
-0.263637 -0.074701 0.013057
-0.261961 -0.073660 0.014592
-0.261556 -0.073660 0.016448
-0.258598 -0.071573 0.017673
-0.258192 -0.071573 0.019532
-0.256505 -0.070526 0.021079
-0.256100 -0.070526 0.022941
-0.254409 -0.069478 0.024492
-0.252715 -0.068427 0.026047
-0.252308 -0.068427 0.027913
-0.250610 -0.067374 0.029472
-0.250203 -0.067374 0.031340
-0.248501 -0.066319 0.032904
-0.249389 -0.067374 0.035074
-0.247687 -0.066319 0.036643
-0.245981 -0.065261 0.038214
-0.244271 -0.064202 0.039789
-0.243863 -0.064202 0.041662
-0.242150 -0.063141 0.043241
-0.240433 -0.062077 0.044824
-0.240024 -0.062077 0.046701
-0.236990 -0.059943 0.048000
-0.236580 -0.059943 0.049880
-0.233532 -0.057801 0.051188
-0.233122 -0.057801 0.053072
-0.231387 -0.056727 0.054673
-0.229649 -0.055650 0.056277
-0.227908 -0.054572 0.057884
-0.226163 -0.053491 0.059494
-0.224414 -0.052408 0.061108
-0.222662 -0.051322 0.062725
-0.222249 -0.051322 0.064621
-0.220493 -0.050235 0.066243
-0.218734 -0.049145 0.067869
-0.216970 -0.048053 0.069498
-0.215204 -0.046959 0.071130
-0.214789 -0.046959 0.073033
-0.213018 -0.045863 0.074671
-0.211244 -0.044764 0.076311
-0.210828 -0.044764 0.078219
-0.209049 -0.043664 0.079865
-0.205899 -0.041455 0.081254
-0.204110 -0.040347 0.082908
-0.202317 -0.039238 0.084566
-0.200521 -0.038125 0.086227
-0.197336 -0.035894 0.087636
-0.195529 -0.034775 0.089305
-0.193718 -0.033654 0.090978
-0.190507 -0.031404 0.092403
-0.188685 -0.030276 0.094084
-0.186860 -0.029145 0.095769
-0.185031 -0.028012 0.097457
-0.181784 -0.025739 0.098903
-0.179944 -0.024599 0.100599
-0.178100 -0.023457 0.102300
-0.176253 -0.022312 0.104003
-0.172971 -0.020015 0.105470
-0.171112 -0.018863 0.107183
-0.169249 -0.017709 0.108899
-0.165939 -0.015393 0.110382
-0.164065 -0.014231 0.112107
-0.160733 -0.011900 0.113602
-0.158848 -0.010731 0.115335
-0.156959 -0.009560 0.117072
-0.152128 -0.006030 0.118354
-0.148746 -0.003665 0.119873
-0.143863 -0.000098 0.121171
-0.140446 0.002292 0.122704
-0.137014 0.004693 0.124244
-0.132057 0.008314 0.125565
-0.128589 0.010740 0.127119
-0.123578 0.014400 0.128457
-0.116993 0.019316 0.129581
-0.108792 0.025521 0.130491
-0.098921 0.033057 0.131187
-0.090522 0.039414 0.132118
-0.072257 0.053646 0.131703
-0.048480 0.072272 0.130583
-0.304211 -0.028495 -0.461473
-0.307638 -0.031889 -0.457066
-0.311043 -0.035262 -0.452687
-0.315690 -0.039727 -0.447529
-0.317791 -0.041946 -0.444008
-0.321134 -0.045257 -0.439709
-0.323213 -0.047453 -0.436222
-0.325283 -0.049640 -0.432749
-0.327345 -0.051819 -0.429291
-0.328166 -0.052905 -0.426619
-0.330216 -0.055070 -0.423184
-0.331032 -0.056149 -0.420526
-0.331846 -0.057226 -0.417874
-0.332659 -0.058301 -0.415227
-0.333470 -0.059374 -0.412585
-0.334279 -0.060444 -0.409949
-0.336303 -0.062579 -0.406571
-0.337106 -0.063643 -0.403949
-0.337909 -0.064705 -0.401332
-0.338710 -0.065765 -0.398721
-0.338301 -0.065765 -0.396848
-0.339101 -0.066823 -0.394243
-0.339899 -0.067879 -0.391644
-0.340696 -0.068932 -0.389049
-0.341490 -0.069984 -0.386460
-0.342284 -0.071033 -0.383877
-0.341877 -0.071033 -0.382013
-0.342670 -0.072080 -0.379436
-0.343460 -0.073125 -0.376864
-0.345441 -0.075209 -0.373592
-0.346226 -0.076248 -0.371034
-0.348196 -0.078320 -0.367784
-0.347792 -0.078320 -0.365933
-0.348573 -0.079353 -0.363390
-0.348170 -0.079353 -0.361541
-0.348950 -0.080384 -0.359005
-0.348547 -0.080384 -0.357157
-0.349326 -0.081412 -0.354628
-0.348923 -0.081412 -0.352783
-0.349701 -0.082439 -0.350260
-0.349299 -0.082439 -0.348417
-0.348897 -0.082439 -0.346573
-0.349674 -0.083464 -0.344059
-0.349272 -0.083464 -0.342218
-0.348871 -0.083464 -0.340376
-0.349647 -0.084486 -0.337871
-0.349246 -0.084486 -0.336031
-0.348845 -0.084486 -0.334191
-0.349620 -0.085507 -0.331694
-0.349219 -0.085507 -0.329856
-0.348819 -0.085507 -0.328018
-0.349593 -0.086526 -0.325530
-0.348018 -0.085507 -0.324342
-0.348793 -0.086526 -0.321858
-0.349566 -0.087542 -0.319378
-0.349167 -0.087542 -0.317543
-0.348767 -0.087542 -0.315709
-0.348367 -0.087542 -0.313875
-0.347967 -0.087542 -0.312040
-0.348741 -0.088557 -0.309573
-0.348341 -0.088557 -0.307740
-0.347942 -0.088557 -0.305907
-0.347543 -0.088557 -0.304075
-0.348316 -0.089570 -0.301617
-0.347917 -0.089570 -0.299786
-0.347518 -0.089570 -0.297956
-0.347119 -0.089570 -0.296125
-0.346720 -0.089570 -0.294294
-0.346321 -0.089570 -0.292463
-0.345922 -0.089570 -0.290633
-0.346696 -0.090580 -0.288191
-0.346297 -0.090580 -0.286362
-0.345899 -0.090580 -0.284533
-0.345500 -0.090580 -0.282704
-0.345102 -0.090580 -0.280875
-0.345876 -0.091589 -0.278444
-0.345477 -0.091589 -0.276617
-0.345079 -0.091589 -0.274790
-0.344681 -0.091589 -0.272963
-0.345455 -0.092596 -0.270543
-0.345057 -0.092596 -0.268717
-0.344659 -0.092596 -0.266892
-0.344261 -0.092596 -0.265067
-0.343863 -0.092596 -0.263241
-0.343466 -0.092596 -0.261416
-0.343068 -0.092596 -0.259590
-0.343842 -0.093601 -0.257186
-0.343445 -0.093601 -0.255362
-0.343048 -0.093601 -0.253539
-0.342650 -0.093601 -0.251715
-0.341079 -0.092596 -0.250463
-0.340681 -0.092596 -0.248638
-0.340283 -0.092596 -0.246813
-0.339885 -0.092596 -0.244987
-0.339487 -0.092596 -0.243162
-0.337911 -0.091589 -0.241901
-0.337513 -0.091589 -0.240074
-0.337114 -0.091589 -0.238246
-0.335534 -0.090580 -0.236979
-0.335136 -0.090580 -0.235150
-0.334737 -0.090580 -0.233321
-0.334339 -0.090580 -0.231492
-0.335123 -0.091589 -0.229110
-0.334725 -0.091589 -0.227283
-0.334327 -0.091589 -0.225456
-0.335111 -0.092596 -0.223082
-0.334713 -0.092596 -0.221257
-0.335496 -0.093601 -0.218890
-0.335098 -0.093601 -0.217066
-0.334701 -0.093601 -0.215242
-0.335483 -0.094603 -0.212883
-0.335086 -0.094603 -0.211062
-0.335867 -0.095604 -0.208709
-0.335470 -0.095604 -0.206889
-0.336250 -0.096603 -0.204542
-0.335854 -0.096603 -0.202724
-0.336632 -0.097600 -0.200384
-0.336236 -0.097600 -0.198568
-0.335840 -0.097600 -0.196751
-0.336618 -0.098595 -0.194419
-0.336223 -0.098595 -0.192604
-0.337000 -0.099588 -0.190279
-0.336605 -0.099588 -0.188466
-0.337380 -0.100579 -0.186146
-0.336985 -0.100579 -0.184335
-0.336591 -0.100579 -0.182524
-0.337366 -0.101569 -0.180212
-0.336971 -0.101569 -0.178403
-0.337745 -0.102556 -0.176098
-0.337351 -0.102556 -0.174290
-0.336957 -0.102556 -0.172482
-0.336563 -0.102556 -0.170674
-0.336169 -0.102556 -0.168867
-0.335775 -0.102556 -0.167059
-0.335381 -0.102556 -0.165251
-0.334987 -0.102556 -0.163443
-0.334593 -0.102556 -0.161636
-0.334199 -0.102556 -0.159828
-0.333805 -0.102556 -0.158020
-0.333411 -0.102556 -0.156212
-0.333017 -0.102556 -0.154405
-0.332623 -0.102556 -0.152597
-0.332229 -0.102556 -0.150789
-0.331835 -0.102556 -0.148981
-0.331441 -0.102556 -0.147174
-0.331047 -0.102556 -0.145366
-0.330653 -0.102556 -0.143558
-0.330259 -0.102556 -0.141750
-0.329865 -0.102556 -0.139943
-0.329471 -0.102556 -0.138135
-0.329077 -0.102556 -0.136327
-0.328683 -0.102556 -0.134519
-0.328289 -0.102556 -0.132712
-0.327895 -0.102556 -0.130904
-0.327501 -0.102556 -0.129096
-0.327107 -0.102556 -0.127288
-0.325534 -0.101569 -0.125927
-0.325140 -0.101569 -0.124118
-0.324745 -0.101569 -0.122308
-0.324351 -0.101569 -0.120499
-0.323957 -0.101569 -0.118689
-0.322379 -0.100579 -0.117319
-0.321984 -0.100579 -0.115507
-0.321590 -0.100579 -0.113696
-0.320008 -0.099588 -0.112319
-0.319613 -0.099588 -0.110506
-0.319218 -0.099588 -0.108693
-0.318823 -0.099588 -0.106880
-0.317237 -0.098595 -0.105495
-0.316842 -0.098595 -0.103680
-0.316446 -0.098595 -0.101866
-0.316051 -0.098595 -0.100051
-0.315655 -0.098595 -0.098236
-0.314065 -0.097600 -0.096842
-0.313669 -0.097600 -0.095025
-0.313273 -0.097600 -0.093209
-0.312877 -0.097600 -0.091392
-0.311283 -0.096603 -0.089989
-0.310886 -0.096603 -0.088171
-0.310490 -0.096603 -0.086353
-0.308892 -0.095604 -0.084944
-0.308495 -0.095604 -0.083124
-0.308099 -0.095604 -0.081304
-0.307702 -0.095604 -0.079484
-0.307305 -0.095604 -0.077664
-0.305702 -0.094603 -0.076245
-0.305305 -0.094603 -0.074423
-0.304908 -0.094603 -0.072601
-0.304511 -0.094603 -0.070779
-0.302904 -0.093601 -0.069352
-0.302506 -0.093601 -0.067529
-0.302109 -0.093601 -0.065705
-0.301711 -0.093601 -0.063882
-0.300100 -0.092596 -0.062447
-0.299702 -0.092596 -0.060621
-0.299304 -0.092596 -0.058796
-0.298906 -0.092596 -0.056970
-0.298508 -0.092596 -0.055145
-0.298111 -0.092596 -0.053320
-0.297713 -0.092596 -0.051494
-0.296096 -0.091589 -0.050046
-0.295697 -0.091589 -0.048219
-0.295299 -0.091589 -0.046391
-0.293678 -0.090580 -0.044936
-0.293280 -0.090580 -0.043107
-0.292881 -0.090580 -0.041278
-0.291256 -0.089570 -0.039817
-0.290857 -0.089570 -0.037986
-0.289229 -0.088557 -0.036520
-0.288829 -0.088557 -0.034688
-0.288430 -0.088557 -0.032855
-0.286797 -0.087542 -0.031383
-0.285162 -0.086526 -0.029908
-0.283523 -0.085507 -0.028429
-0.283122 -0.085507 -0.026591
-0.281480 -0.084486 -0.025108
-0.281079 -0.084486 -0.023269
-0.280678 -0.084486 -0.021429
-0.279031 -0.083464 -0.019939
-0.278630 -0.083464 -0.018098
-0.276980 -0.082439 -0.016603
-0.276578 -0.082439 -0.014760
-0.274924 -0.081412 -0.013261
-0.274522 -0.081412 -0.011416
-0.274120 -0.081412 -0.009570
-0.272462 -0.080384 -0.008065
-0.272059 -0.080384 -0.006218
-0.271657 -0.080384 -0.004371
-0.269995 -0.079353 -0.002858
-0.269592 -0.079353 -0.001010
-0.267926 -0.078320 0.000508
-0.267523 -0.078320 0.002358
-0.267119 -0.078320 0.004209
-0.265449 -0.077285 0.005733
-0.265046 -0.077285 0.007585
-0.263372 -0.076248 0.009114
-0.262968 -0.076248 0.010968
-0.261291 -0.075209 0.012502
-0.260886 -0.075209 0.014358
-0.257926 -0.073125 0.015578
-0.257521 -0.073125 0.017438
-0.255833 -0.072080 0.018982
-0.255428 -0.072080 0.020844
-0.255022 -0.072080 0.022706
-0.252041 -0.069984 0.023946
-0.251635 -0.069984 0.025812
-0.249936 -0.068932 0.027369
-0.249529 -0.068932 0.029237
-0.247827 -0.067879 0.030799
-0.247419 -0.067879 0.032668
-0.245713 -0.066823 0.034236
-0.246605 -0.067879 0.036407
-0.244898 -0.066823 0.037978
-0.243187 -0.065765 0.039552
-0.242779 -0.065765 0.041425
-0.241065 -0.064705 0.043005
-0.239347 -0.063643 0.044587
-0.238938 -0.063643 0.046464
-0.235901 -0.061513 0.047762
-0.234173 -0.060444 0.049354
-0.232441 -0.059374 0.050950
-0.230706 -0.058301 0.052548
-0.230295 -0.058301 0.054435
-0.228556 -0.057226 0.056038
-0.226814 -0.056149 0.057645
-0.225068 -0.055070 0.059256
-0.223318 -0.053988 0.060869
-0.221565 -0.052905 0.062486
-0.219808 -0.051819 0.064106
-0.219395 -0.051819 0.066004
-0.217634 -0.050731 0.067629
-0.215870 -0.049640 0.069258
-0.214102 -0.048548 0.070890
-0.212330 -0.047453 0.072525
-0.211915 -0.047453 0.074430
-0.210140 -0.046356 0.076071
-0.209724 -0.046356 0.077978
-0.206578 -0.044156 0.079362
-0.204791 -0.043052 0.081012
-0.203001 -0.041946 0.082666
-0.201207 -0.040838 0.084324
-0.198027 -0.038614 0.085728
-0.196223 -0.037499 0.087393
-0.194415 -0.036382 0.089062
-0.191208 -0.034140 0.090482
-0.189389 -0.033016 0.092159
-0.187566 -0.031889 0.093840
-0.185740 -0.030760 0.095525
-0.182498 -0.028495 0.096965
-0.180661 -0.027359 0.098658
-0.178820 -0.026221 0.100354
-0.176975 -0.025080 0.102054
-0.173698 -0.022791 0.103516
-0.171841 -0.021644 0.105224
-0.169981 -0.020493 0.106936
-0.166676 -0.018185 0.108414
-0.164805 -0.017028 0.110135
-0.161478 -0.014706 0.111624
-0.159596 -0.013541 0.113354
-0.157709 -0.012373 0.115087
-0.154354 -0.010031 0.116593
-0.150984 -0.007679 0.118105
-0.146119 -0.004133 0.119394
-0.142713 -0.001756 0.120920
-0.137796 0.001828 0.122225
-0.134355 0.004231 0.123766
-0.129384 0.007854 0.125087
-0.125906 0.010282 0.126642
-0.122413 0.012721 0.128203
-0.114277 0.018863 0.129102
-0.107616 0.023826 0.130235
-0.097738 0.031351 0.130929
-0.089331 0.037697 0.131858
-0.071052 0.051909 0.131440
-0.048948 0.069160 0.130548
-0.301799 -0.028979 -0.462546
-0.305237 -0.032375 -0.458131
-0.309927 -0.036870 -0.452930
-0.313315 -0.040218 -0.448576
-0.316682 -0.043544 -0.444250
-0.320029 -0.046850 -0.439950
-0.320862 -0.047948 -0.437251
-0.322940 -0.050136 -0.433772
-0.325009 -0.052316 -0.430308
-0.327069 -0.054487 -0.426858
-0.327890 -0.055569 -0.424192
-0.329938 -0.057726 -0.420764
-0.330754 -0.058802 -0.418112
-0.331567 -0.059875 -0.415465
-0.332379 -0.060946 -0.412823
-0.333190 -0.062015 -0.410187
-0.333998 -0.063082 -0.407556
-0.334806 -0.064147 -0.404930
-0.335611 -0.065209 -0.402309
-0.336415 -0.066270 -0.399694
-0.337217 -0.067328 -0.397084
-0.338018 -0.068385 -0.394479
-0.337610 -0.068385 -0.392608
-0.338410 -0.069439 -0.390010
-0.339208 -0.070491 -0.387418
-0.340004 -0.071541 -0.384830
-0.340799 -0.072588 -0.382248
-0.340393 -0.072588 -0.380384
-0.341186 -0.073634 -0.377809
-0.341978 -0.074678 -0.375239
-0.343962 -0.076759 -0.371970
-0.344749 -0.077796 -0.369414
-0.346721 -0.079865 -0.366166
-0.347503 -0.080896 -0.363623
-0.347100 -0.080896 -0.361774
-0.347881 -0.081925 -0.359238
-0.347478 -0.081925 -0.357390
-0.347075 -0.081925 -0.355543
-0.347855 -0.082952 -0.353016
-0.347453 -0.082952 -0.351170
-0.348232 -0.083978 -0.348649
-0.347830 -0.083978 -0.346806
-0.347428 -0.083978 -0.344963
-0.348206 -0.085001 -0.342450
-0.347805 -0.085001 -0.340609
-0.347404 -0.085001 -0.338767
-0.348181 -0.086022 -0.336263
-0.347780 -0.086022 -0.334423
-0.347379 -0.086022 -0.332584
-0.348156 -0.087041 -0.330088
-0.347755 -0.087041 -0.328250
-0.347354 -0.087041 -0.326412
-0.346954 -0.087041 -0.324574
-0.347730 -0.088058 -0.322089
-0.347330 -0.088058 -0.320253
-0.346930 -0.088058 -0.318417
-0.347705 -0.089073 -0.315940
-0.347305 -0.089073 -0.314106
-0.346905 -0.089073 -0.312272
-0.346506 -0.089073 -0.310437
-0.347281 -0.090086 -0.307971
-0.346881 -0.090086 -0.306139
-0.346482 -0.090086 -0.304306
-0.346082 -0.090086 -0.302473
-0.345683 -0.090086 -0.300641
-0.346458 -0.091098 -0.298187
-0.346059 -0.091098 -0.296356
-0.345660 -0.091098 -0.294525
-0.345261 -0.091098 -0.292694
