ply
format ascii 1.0
element vertex 1657
property float x
property float y
property float z
end_header
0.292241 -0.120693 0.310943
0.293231 -0.120348 0.315608
0.294496 -0.120120 0.318703
0.295757 -0.119892 0.321787
0.297295 -0.119779 0.323324
0.298831 -0.119665 0.324858
0.300078 -0.119439 0.327919
0.301607 -0.119327 0.329444
0.303133 -0.119214 0.330967
0.304080 -0.118878 0.335518
0.305597 -0.118766 0.337030
0.307112 -0.118655 0.338538
0.308915 -0.118655 0.338538
0.310425 -0.118544 0.340044
0.311933 -0.118433 0.341547
0.313437 -0.118322 0.343047
0.314939 -0.118211 0.344544
0.316438 -0.118101 0.346038
0.318233 -0.118101 0.346038
0.319727 -0.117991 0.347530
0.321219 -0.117881 0.349019
0.322708 -0.117771 0.350505
0.324194 -0.117661 0.351988
0.325677 -0.117552 0.353468
0.327463 -0.117552 0.353468
0.328942 -0.117443 0.354946
0.330727 -0.117443 0.354946
0.332201 -0.117334 0.356421
0.333984 -0.117334 0.356421
0.335454 -0.117225 0.357893
0.337235 -0.117225 0.357893
0.338701 -0.117117 0.359363
0.340480 -0.117117 0.359363
0.341942 -0.117008 0.360829
0.343720 -0.117008 0.360829
0.345498 -0.117008 0.360829
0.347276 -0.117008 0.360829
0.349054 -0.117008 0.360829
0.350506 -0.116900 0.362293
0.352282 -0.116900 0.362293
0.354058 -0.116900 0.362293
0.355834 -0.116900 0.362293
0.357943 -0.117008 0.360829
0.359721 -0.117008 0.360829
0.361499 -0.117008 0.360829
0.363616 -0.117117 0.359363
0.365736 -0.117225 0.357893
0.367517 -0.117225 0.357893
0.369298 -0.117225 0.357893
0.371772 -0.117443 0.354946
0.373906 -0.117552 0.353468
0.376044 -0.117661 0.351988
0.378186 -0.117771 0.350505
0.380688 -0.117991 0.347530
0.383200 -0.118211 0.344544
0.385721 -0.118433 0.341547
0.390092 -0.119214 0.330967
-0.242378 -0.156078 -0.136475
-0.239164 -0.155510 -0.128896
-0.235972 -0.154946 -0.121372
-0.232804 -0.154386 -0.113903
-0.229936 -0.154014 -0.108954
-0.227354 -0.153830 -0.106489
-0.224509 -0.153461 -0.101575
-0.221677 -0.153094 -0.096685
-0.218859 -0.152729 -0.091819
-0.216055 -0.152366 -0.086975
-0.213518 -0.152185 -0.084562
-0.210986 -0.152005 -0.082155
-0.208709 -0.152005 -0.082155
-0.206186 -0.151825 -0.079753
-0.203670 -0.151645 -0.077357
-0.200921 -0.151287 -0.072583
-0.198420 -0.151109 -0.070204
-0.196156 -0.151109 -0.070204
-0.193663 -0.150931 -0.067831
-0.191176 -0.150753 -0.065463
-0.188695 -0.150576 -0.063101
-0.186219 -0.150399 -0.060744
-0.183966 -0.150399 -0.060744
-0.181499 -0.150223 -0.058394
-0.179249 -0.150223 -0.058394
-0.176790 -0.150047 -0.056048
-0.174338 -0.149872 -0.053708
-0.171891 -0.149697 -0.051374
-0.169450 -0.149522 -0.049045
-0.167210 -0.149522 -0.049045
-0.164777 -0.149348 -0.046721
-0.162350 -0.149174 -0.044403
-0.159929 -0.149000 -0.042091
-0.157513 -0.148827 -0.039783
-0.155283 -0.148827 -0.039783
-0.152876 -0.148655 -0.037482
-0.150649 -0.148655 -0.037482
-0.148249 -0.148483 -0.035185
-0.146025 -0.148483 -0.035185
-0.143633 -0.148311 -0.032894
-0.141248 -0.148139 -0.030608
-0.139028 -0.148139 -0.030608
-0.136651 -0.147968 -0.028327
-0.134434 -0.147968 -0.028327
-0.132065 -0.147798 -0.026052
-0.129850 -0.147798 -0.026052
-0.127489 -0.147628 -0.023782
-0.125277 -0.147628 -0.023782
-0.122924 -0.147458 -0.021517
-0.120715 -0.147458 -0.021517
-0.118369 -0.147288 -0.019257
-0.116163 -0.147288 -0.019257
-0.113956 -0.147288 -0.019257
-0.111621 -0.147119 -0.017003
-0.109417 -0.147119 -0.017003
-0.107213 -0.147119 -0.017003
-0.105009 -0.147119 -0.017003
-0.102805 -0.147119 -0.017003
-0.100601 -0.147119 -0.017003
-0.098397 -0.147119 -0.017003
-0.096193 -0.147119 -0.017003
-0.093989 -0.147119 -0.017003
-0.091680 -0.146951 -0.014754
-0.089581 -0.147119 -0.017003
-0.087377 -0.147119 -0.017003
-0.085173 -0.147119 -0.017003
-0.082969 -0.147119 -0.017003
-0.080765 -0.147119 -0.017003
-0.078561 -0.147119 -0.017003
-0.076357 -0.147119 -0.017003
-0.074153 -0.147119 -0.017003
-0.071949 -0.147119 -0.017003
-0.069745 -0.147119 -0.017003
-0.067618 -0.147288 -0.019257
-0.065412 -0.147288 -0.019257
-0.063205 -0.147288 -0.019257
-0.060999 -0.147288 -0.019257
-0.046957 -0.117590 0.376785
-0.045074 -0.117268 0.381081
-0.043240 -0.117054 0.383931
-0.041375 -0.116735 0.388188
-0.039485 -0.116312 0.393827
-0.037642 -0.115997 0.398030
-0.035810 -0.115683 0.402209
-0.033987 -0.115372 0.406366
-0.032174 -0.115062 0.410501
-0.030371 -0.114753 0.414613
-0.028578 -0.114447 0.418704
-0.026794 -0.114141 0.422772
-0.025019 -0.113838 0.426819
-0.023255 -0.113536 0.430844
-0.021518 -0.113336 0.433515
-0.019770 -0.113037 0.437505
-0.018032 -0.112739 0.441473
-0.016302 -0.112443 0.445420
-0.014582 -0.112149 0.449347
-0.012882 -0.111953 0.451953
-0.011178 -0.111661 0.455846
-0.009483 -0.111371 0.459718
-0.007797 -0.111082 0.463570
-0.006120 -0.110795 0.467402
-0.004452 -0.110509 0.471213
-0.002794 -0.110319 0.473744
-0.001141 -0.110036 0.477523
0.000503 -0.109754 0.481283
0.002139 -0.109473 0.485023
0.003767 -0.109194 0.488744
0.005391 -0.109009 0.491215
0.007021 -0.109009 0.491215
0.008645 -0.108917 0.492447
0.010274 -0.108917 0.492447
0.011904 -0.108917 0.492447
0.013533 -0.108917 0.492447
0.015163 -0.108917 0.492447
0.016793 -0.108917 0.492447
0.018422 -0.108917 0.492447
0.020069 -0.109009 0.491215
0.021738 -0.109194 0.488744
0.023412 -0.109380 0.486266
0.025070 -0.109473 0.485023
0.026731 -0.109567 0.483779
0.028420 -0.109754 0.481283
0.030114 -0.109942 0.478778
0.031787 -0.110036 0.477523
0.033491 -0.110225 0.475006
0.035171 -0.110319 0.473744
0.036886 -0.110509 0.471213
0.038607 -0.110699 0.468674
0.040333 -0.110890 0.466126
0.042066 -0.111082 0.463570
0.043843 -0.111371 0.459718
0.045590 -0.111564 0.457139
0.047342 -0.111758 0.454551
0.049144 -0.112051 0.450651
0.050911 -0.112247 0.448040
0.052730 -0.112542 0.444107
0.054559 -0.112838 0.440152
0.056398 -0.113136 0.436177
0.058298 -0.113536 0.430844
0.060592 -0.114651 0.415979
0.080972 -0.148655 -0.037482
0.083297 -0.148827 -0.039783
0.085626 -0.149000 -0.042091
0.087756 -0.148827 -0.039783
0.090091 -0.149000 -0.042091
0.092323 -0.149000 -0.042091
0.094667 -0.149174 -0.044403
0.097015 -0.149348 -0.046721
0.099253 -0.149348 -0.046721
0.101610 -0.149522 -0.049045
0.103972 -0.149697 -0.051374
0.106591 -0.150223 -0.058394
0.109487 -0.151109 -0.070204
0.112553 -0.152185 -0.084562
0.117357 -0.155510 -0.128896
0.287665 -0.123708 0.295196
0.288399 -0.123233 0.301531
0.289406 -0.122879 0.306250
0.290686 -0.122644 0.309382
0.291961 -0.122410 0.312501
0.293231 -0.122177 0.315608
0.294215 -0.121830 0.320246
0.295475 -0.121599 0.323324
0.297012 -0.121484 0.324858
0.298547 -0.121369 0.326390
0.299794 -0.121140 0.329444
0.301036 -0.120912 0.332487
0.302559 -0.120798 0.334004
0.304080 -0.120684 0.335518
0.305597 -0.120571 0.337030
0.306823 -0.120345 0.340044
0.308624 -0.120345 0.340044
0.310133 -0.120232 0.341547
0.311933 -0.120232 0.341547
0.313437 -0.120120 0.343047
0.314939 -0.120008 0.344544
0.316438 -0.119896 0.346038
0.317934 -0.119784 0.347530
0.319427 -0.119672 0.349019
0.321219 -0.119672 0.349019
0.322708 -0.119561 0.350505
0.323891 -0.119338 0.353468
0.325677 -0.119338 0.353468
0.327157 -0.119228 0.354946
0.328942 -0.119228 0.354946
0.330418 -0.119117 0.356421
0.332201 -0.119117 0.356421
0.333673 -0.119007 0.357893
0.335454 -0.119007 0.357893
0.336921 -0.118896 0.359363
0.338701 -0.118896 0.359363
0.340164 -0.118786 0.360829
0.341942 -0.118786 0.360829
0.343720 -0.118786 0.360829
0.345177 -0.118677 0.362293
0.346953 -0.118677 0.362293
0.348729 -0.118677 0.362293
0.350506 -0.118677 0.362293
0.352282 -0.118677 0.362293
0.354058 -0.118677 0.362293
0.355834 -0.118677 0.362293
0.357611 -0.118677 0.362293
0.359387 -0.118677 0.362293
0.361499 -0.118786 0.360829
0.363277 -0.118786 0.360829
0.365395 -0.118896 0.359363
0.367517 -0.119007 0.357893
0.369298 -0.119007 0.357893
0.371426 -0.119117 0.356421
0.373557 -0.119228 0.354946
0.375692 -0.119338 0.353468
0.377832 -0.119449 0.351988
0.380331 -0.119672 0.349019
0.382840 -0.119896 0.346038
0.385358 -0.120120 0.343047
0.389354 -0.120798 0.334004
-0.242707 -0.160173 -0.159548
-0.237122 -0.158032 -0.131416
-0.234218 -0.157649 -0.126382
-0.231329 -0.157267 -0.121372
-0.228178 -0.156699 -0.113903
-0.225320 -0.156322 -0.108954
-0.222477 -0.155947 -0.104029
-0.219647 -0.155574 -0.099127
-0.216830 -0.155203 -0.094249
-0.214283 -0.155018 -0.091819
-0.211741 -0.154833 -0.089394
-0.209206 -0.154649 -0.086975
-0.206677 -0.154466 -0.084562
-0.204154 -0.154282 -0.082155
-0.201637 -0.154100 -0.079753
-0.199125 -0.153917 -0.077357
-0.196620 -0.153735 -0.074967
-0.194121 -0.153554 -0.072583
-0.191628 -0.153373 -0.070204
-0.189140 -0.153192 -0.067831
-0.186658 -0.153012 -0.065463
-0.184400 -0.153012 -0.065463
-0.181927 -0.152832 -0.063101
-0.179671 -0.152832 -0.063101
-0.177206 -0.152653 -0.060744
-0.174747 -0.152474 -0.058394
-0.172497 -0.152474 -0.058394
-0.170046 -0.152295 -0.056048
-0.167602 -0.152117 -0.053708
-0.165163 -0.151939 -0.051374
-0.162729 -0.151762 -0.049045
-0.160302 -0.151585 -0.046721
-0.157880 -0.151409 -0.044403
-0.155645 -0.151409 -0.044403
-0.153232 -0.151233 -0.042091
-0.150999 -0.151233 -0.042091
-0.148594 -0.151057 -0.039783
-0.146364 -0.151057 -0.039783
-0.143967 -0.150882 -0.037482
-0.141576 -0.150707 -0.035185
-0.139351 -0.150707 -0.035185
-0.136968 -0.150533 -0.032894
-0.134746 -0.150533 -0.032894
-0.132370 -0.150359 -0.030608
-0.130001 -0.150185 -0.028327
-0.127784 -0.150185 -0.028327
-0.125567 -0.150185 -0.028327
-0.123208 -0.150012 -0.026052
-0.120994 -0.150012 -0.026052
-0.118642 -0.149839 -0.023782
-0.116431 -0.149839 -0.023782
-0.114087 -0.149667 -0.021517
-0.111878 -0.149667 -0.021517
-0.109669 -0.149667 -0.021517
-0.107337 -0.149495 -0.019257
-0.105251 -0.149667 -0.021517
-0.102923 -0.149495 -0.019257
-0.100717 -0.149495 -0.019257
-0.098510 -0.149495 -0.019257
-0.096304 -0.149495 -0.019257
-0.094097 -0.149495 -0.019257
-0.091891 -0.149495 -0.019257
-0.089684 -0.149495 -0.019257
-0.087477 -0.149495 -0.019257
-0.085271 -0.149495 -0.019257
-0.083160 -0.149667 -0.021517
-0.080951 -0.149667 -0.021517
-0.078742 -0.149667 -0.021517
-0.076532 -0.149667 -0.021517
-0.074323 -0.149667 -0.021517
-0.072114 -0.149667 -0.021517
-0.069905 -0.149667 -0.021517
-0.067696 -0.149667 -0.021517
-0.065487 -0.149667 -0.021517
-0.063278 -0.149667 -0.021517
-0.061069 -0.149667 -0.021517
-0.046914 -0.119241 0.378220
-0.045033 -0.118914 0.382507
-0.043161 -0.118590 0.386772
-0.041263 -0.118160 0.392421
-0.039414 -0.117839 0.396631
-0.037575 -0.117521 0.400819
-0.035746 -0.117204 0.404983
-0.033926 -0.116888 0.409125
-0.032117 -0.116575 0.413245
-0.030317 -0.116263 0.417343
-0.028527 -0.115953 0.421418
-0.026747 -0.115644 0.425472
-0.024976 -0.115337 0.429504
-0.023214 -0.115032 0.433515
-0.021480 -0.114829 0.436177
-0.019736 -0.114527 0.440152
-0.018000 -0.114226 0.444107
-0.016274 -0.113926 0.448040
-0.014557 -0.113628 0.451953
-0.012860 -0.113431 0.454551
-0.011159 -0.113135 0.458429
-0.009467 -0.112842 0.462288
-0.007784 -0.112550 0.466126
-0.006110 -0.112259 0.469945
-0.004444 -0.111970 0.473744
-0.002787 -0.111682 0.477523
-0.001140 -0.111491 0.480032
0.000502 -0.111206 0.483779
0.002135 -0.110922 0.487506
0.003760 -0.110640 0.491215
0.005386 -0.110546 0.492447
0.007015 -0.110546 0.492447
0.008645 -0.110546 0.492447
0.010265 -0.110453 0.493677
0.011904 -0.110546 0.492447
0.013533 -0.110546 0.492447
0.015163 -0.110546 0.492447
0.016793 -0.110546 0.492447
0.018438 -0.110640 0.491215
0.020086 -0.110734 0.489981
0.021756 -0.110922 0.487506
0.023432 -0.111111 0.485023
0.025092 -0.111206 0.483779
0.026754 -0.111301 0.482532
0.028444 -0.111491 0.480032
0.030140 -0.111682 0.477523
0.031814 -0.111778 0.476265
0.033520 -0.111970 0.473744
0.035202 -0.112066 0.472480
0.036918 -0.112259 0.469945
0.038674 -0.112550 0.466126
0.040404 -0.112744 0.463570
0.042140 -0.112939 0.461004
0.043920 -0.113234 0.457139
0.045670 -0.113431 0.454551
0.047468 -0.113727 0.450651
0.049231 -0.113926 0.448040
0.051046 -0.114226 0.444107
0.052871 -0.114527 0.440152
0.054705 -0.114829 0.436177
0.056701 -0.115439 0.428163
0.076697 -0.151233 -0.042091
0.078837 -0.151057 -0.039783
0.081162 -0.151233 -0.042091
0.083492 -0.151409 -0.044403
0.085727 -0.151409 -0.044403
0.087962 -0.151409 -0.044403
0.090303 -0.151585 -0.046721
0.092540 -0.151585 -0.046721
0.094889 -0.151762 -0.049045
0.097129 -0.151762 -0.049045
0.099603 -0.152117 -0.053708
0.101849 -0.152117 -0.053708
0.104463 -0.152653 -0.060744
0.107223 -0.153373 -0.070204
0.110272 -0.154466 -0.084562
0.114190 -0.156699 -0.113903
0.287665 -0.125560 0.295196
0.288399 -0.125078 0.301531
0.289406 -0.124719 0.306250
0.290686 -0.124480 0.309382
0.291961 -0.124243 0.312501
0.292951 -0.123889 0.317157
0.294215 -0.123653 0.320246
0.295475 -0.123419 0.323324
0.296730 -0.123186 0.326390
0.298263 -0.123069 0.327919
0.299509 -0.122837 0.330967
0.301036 -0.122722 0.332487
0.302559 -0.122606 0.334004
0.303793 -0.122376 0.337030
0.305309 -0.122261 0.338538
0.306823 -0.122146 0.340044
0.308624 -0.122146 0.340044
0.310133 -0.122032 0.341547
0.311639 -0.121918 0.343047
0.313143 -0.121804 0.344544
0.314643 -0.121690 0.346038
0.316141 -0.121577 0.347530
0.317934 -0.121577 0.347530
0.319427 -0.121463 0.349019
0.320918 -0.121350 0.350505
0.322406 -0.121237 0.351988
0.323891 -0.121125 0.353468
0.325373 -0.121012 0.354946
0.327157 -0.121012 0.354946
0.328635 -0.120900 0.356421
0.330418 -0.120900 0.356421
0.331891 -0.120788 0.357893
0.333673 -0.120788 0.357893
0.335142 -0.120676 0.359363
0.336921 -0.120676 0.359363
0.338386 -0.120564 0.360829
0.340164 -0.120564 0.360829
0.341624 -0.120453 0.362293
0.343400 -0.120453 0.362293
0.345177 -0.120453 0.362293
0.346953 -0.120453 0.362293
0.348729 -0.120453 0.362293
0.350180 -0.120342 0.363755
0.351955 -0.120342 0.363755
0.353729 -0.120342 0.363755
0.355504 -0.120342 0.363755
0.357279 -0.120342 0.363755
0.359387 -0.120453 0.362293
0.361163 -0.120453 0.362293
0.363277 -0.120564 0.360829
0.365055 -0.120564 0.360829
0.367175 -0.120676 0.359363
0.369298 -0.120788 0.357893
0.371080 -0.120788 0.357893
0.373557 -0.121012 0.354946
0.375342 -0.121012 0.354946
0.377832 -0.121237 0.351988
0.379975 -0.121350 0.350505
0.382481 -0.121577 0.347530
0.384996 -0.121804 0.344544
0.388619 -0.122376 0.337030
-0.236808 -0.161741 -0.149230
-0.232456 -0.160365 -0.131416
-0.229285 -0.159782 -0.123874
-0.226137 -0.159204 -0.116387
-0.223551 -0.159012 -0.113903
-0.220439 -0.158439 -0.106489
-0.217872 -0.158249 -0.104029
-0.215053 -0.157871 -0.099127
-0.212248 -0.157494 -0.094249
-0.209706 -0.157306 -0.091819
-0.207170 -0.157119 -0.089394
-0.204884 -0.157119 -0.089394
-0.202357 -0.156932 -0.086975
-0.199836 -0.156746 -0.084562
-0.197321 -0.156560 -0.082155
-0.194812 -0.156374 -0.079753
-0.192081 -0.156005 -0.074967
-0.189588 -0.155820 -0.072583
-0.187321 -0.155820 -0.072583
-0.184835 -0.155637 -0.070204
-0.182356 -0.155453 -0.067831
-0.180095 -0.155453 -0.067831
-0.177624 -0.155270 -0.065463
-0.175159 -0.155088 -0.063101
-0.172903 -0.155088 -0.063101
-0.170446 -0.154906 -0.060744
-0.167995 -0.154724 -0.058394
-0.165550 -0.154543 -0.056048
-0.163111 -0.154362 -0.053708
-0.160677 -0.154182 -0.051374
-0.158434 -0.154182 -0.051374
-0.156009 -0.154002 -0.049045
-0.153589 -0.153823 -0.046721
-0.151352 -0.153823 -0.046721
-0.148940 -0.153644 -0.044403
-0.146706 -0.153644 -0.044403
-0.144302 -0.153465 -0.042091
-0.141905 -0.153287 -0.039783
-0.139675 -0.153287 -0.039783
-0.137286 -0.153109 -0.037482
-0.134902 -0.152932 -0.035185
-0.132677 -0.152932 -0.035185
-0.130302 -0.152755 -0.032894
-0.128080 -0.152755 -0.032894
-0.125712 -0.152578 -0.030608
-0.123493 -0.152578 -0.030608
-0.121133 -0.152402 -0.028327
-0.118917 -0.152402 -0.028327
-0.116700 -0.152402 -0.028327
-0.114351 -0.152226 -0.026052
-0.112137 -0.152226 -0.026052
-0.109796 -0.152051 -0.023782
-0.107584 -0.152051 -0.023782
-0.105372 -0.152051 -0.023782
-0.103161 -0.152051 -0.023782
-0.100949 -0.152051 -0.023782
-0.098737 -0.152051 -0.023782
-0.096526 -0.152051 -0.023782
-0.094314 -0.152051 -0.023782
-0.092102 -0.152051 -0.023782
-0.089787 -0.151876 -0.021517
-0.087578 -0.151876 -0.021517
-0.085369 -0.151876 -0.021517
-0.083256 -0.152051 -0.023782
-0.081044 -0.152051 -0.023782
-0.078832 -0.152051 -0.023782
-0.076621 -0.152051 -0.023782
-0.074409 -0.152051 -0.023782
-0.072197 -0.152051 -0.023782
-0.069986 -0.152051 -0.023782
-0.067774 -0.152051 -0.023782
-0.065562 -0.152051 -0.023782
-0.063350 -0.152051 -0.023782
-0.061139 -0.152051 -0.023782
-0.046829 -0.120778 0.381081
-0.044951 -0.120448 0.385353
-0.043044 -0.120011 0.391013
-0.041189 -0.119685 0.395230
-0.039378 -0.119469 0.398030
-0.037541 -0.119146 0.402209
-0.035714 -0.118825 0.406366
-0.033896 -0.118506 0.410501
-0.032088 -0.118188 0.414613
-0.030290 -0.117872 0.418704
-0.028502 -0.117558 0.422772
-0.026699 -0.117141 0.428163
-0.024932 -0.116831 0.432181
-0.023173 -0.116522 0.436177
-0.021424 -0.116215 0.440152
-0.019685 -0.115910 0.444107
-0.017969 -0.115707 0.446732
-0.016246 -0.115404 0.450651
-0.014532 -0.115103 0.454551
-0.012838 -0.114903 0.457139
-0.011140 -0.114605 0.461004
-0.009452 -0.114308 0.464849
-0.007771 -0.114012 0.468674
-0.006100 -0.113718 0.472480
-0.004437 -0.113426 0.476265
-0.002783 -0.113135 0.480032
-0.001138 -0.112942 0.482532
0.000500 -0.112653 0.486266
0.002131 -0.112366 0.489981
0.003756 -0.112176 0.492447
0.005386 -0.112176 0.492447
0.007015 -0.112176 0.492447
0.008645 -0.112176 0.492447
0.010274 -0.112176 0.492447
0.011904 -0.112176 0.492447
0.013533 -0.112176 0.492447
0.015163 -0.112176 0.492447
0.016793 -0.112176 0.492447
0.018454 -0.112366 0.489981
0.020104 -0.112462 0.488744
0.021775 -0.112653 0.486266
0.023432 -0.112749 0.485023
0.025114 -0.112942 0.482532
0.026778 -0.113038 0.481283
0.028469 -0.113232 0.478778
0.030167 -0.113426 0.476265
0.031842 -0.113523 0.475006
0.033550 -0.113718 0.472480
0.035263 -0.113914 0.469945
0.036983 -0.114110 0.467402
0.038742 -0.114406 0.463570
0.040475 -0.114605 0.461004
0.042214 -0.114803 0.458429
0.043998 -0.115103 0.454551
0.045751 -0.115304 0.451953
0.047552 -0.115606 0.448040
0.049362 -0.115910 0.444107
0.051182 -0.116215 0.440152
0.053012 -0.116522 0.436177
0.055048 -0.117245 0.426819
0.074552 -0.153644 -0.044403
0.076787 -0.153644 -0.044403
0.079115 -0.153823 -0.046721
0.081352 -0.153823 -0.046721
0.083590 -0.153823 -0.046721
0.085828 -0.153823 -0.046721
0.088169 -0.154002 -0.049045
0.090409 -0.154002 -0.049045
0.092758 -0.154182 -0.051374
0.095113 -0.154362 -0.053708
0.097473 -0.154543 -0.056048
0.099838 -0.154724 -0.058394
0.102210 -0.154906 -0.060744
0.104959 -0.155637 -0.070204
0.107992 -0.156746 -0.084562
0.111606 -0.158630 -0.108954
0.287665 -0.127412 0.295196
0.288121 -0.126801 0.303107
0.289406 -0.126558 0.306250
0.290407 -0.126196 0.310943
0.291681 -0.125955 0.314056
0.292951 -0.125716 0.317157
0.294215 -0.125477 0.320246
0.295194 -0.125121 0.324858
0.296448 -0.124884 0.327919
0.297980 -0.124767 0.329444
0.299509 -0.124649 0.330967
0.301036 -0.124532 0.332487
0.302273 -0.124297 0.335518
0.303793 -0.124181 0.337030
0.305309 -0.124064 0.338538
0.306823 -0.123948 0.340044
0.308333 -0.123832 0.341547
0.310133 -0.123832 0.341547
0.311639 -0.123716 0.343047
0.313143 -0.123600 0.344544
0.314643 -0.123485 0.346038
0.316141 -0.123370 0.347530
0.317636 -0.123255 0.349019
0.319128 -0.123140 0.350505
0.320618 -0.123025 0.351988
0.322406 -0.123025 0.351988
0.323588 -0.122797 0.354946
0.325373 -0.122797 0.354946
0.326852 -0.122683 0.356421
0.328635 -0.122683 0.356421
0.330110 -0.122569 0.357893
0.331891 -0.122569 0.357893
0.333362 -0.122456 0.359363
0.335142 -0.122456 0.359363
0.336608 -0.122342 0.360829
0.338386 -0.122342 0.360829
0.339848 -0.122229 0.362293
0.341624 -0.122229 0.362293
0.343081 -0.122116 0.363755
0.344856 -0.122116 0.363755
0.346631 -0.122116 0.363755
0.348405 -0.122116 0.363755
0.350180 -0.122116 0.363755
0.351955 -0.122116 0.363755
0.353729 -0.122116 0.363755
0.355504 -0.122116 0.363755
0.357279 -0.122116 0.363755
0.359053 -0.122116 0.363755
0.361163 -0.122229 0.362293
0.362940 -0.122229 0.362293
0.365055 -0.122342 0.360829
0.366833 -0.122342 0.360829
0.368954 -0.122456 0.359363
0.371080 -0.122569 0.357893
0.373209 -0.122683 0.356421
0.375342 -0.122797 0.354946
0.377479 -0.122911 0.353468
0.379620 -0.123025 0.351988
0.382123 -0.123255 0.349019
0.384996 -0.123600 0.344544
0.388252 -0.124064 0.338538
-0.230967 -0.163293 -0.139013
-0.227513 -0.162500 -0.128896
-0.224636 -0.162107 -0.123874
-0.221505 -0.161520 -0.116387
-0.218660 -0.161131 -0.111426
-0.215829 -0.160744 -0.106489
-0.213012 -0.160359 -0.101575
-0.210460 -0.160167 -0.099127
-0.207914 -0.159976 -0.096685
-0.205374 -0.159785 -0.094249
-0.202841 -0.159595 -0.091819
-0.200313 -0.159405 -0.089394
-0.197791 -0.159215 -0.086975
-0.195276 -0.159026 -0.084562
-0.192766 -0.158837 -0.082155
-0.190037 -0.158461 -0.077357
-0.187765 -0.158461 -0.077357
-0.185273 -0.158274 -0.074967
-0.182787 -0.158087 -0.072583
-0.180521 -0.158087 -0.072583
-0.178043 -0.157901 -0.070204
-0.175572 -0.157715 -0.067831
-0.173311 -0.157715 -0.067831
-0.170848 -0.157529 -0.065463
-0.168391 -0.157344 -0.063101
-0.165939 -0.157159 -0.060744
-0.163494 -0.156975 -0.058394
-0.161054 -0.156791 -0.056048
-0.158806 -0.156791 -0.056048
-0.156374 -0.156608 -0.053708
-0.153949 -0.156425 -0.051374
-0.151529 -0.156242 -0.049045
-0.149289 -0.156242 -0.049045
-0.146877 -0.156060 -0.046721
-0.144639 -0.156060 -0.046721
-0.142236 -0.155879 -0.044403
-0.139838 -0.155697 -0.042091
-0.137605 -0.155697 -0.042091
-0.135216 -0.155517 -0.039783
-0.132986 -0.155517 -0.039783
-0.130604 -0.155336 -0.037482
-0.128377 -0.155336 -0.037482
-0.126004 -0.155156 -0.035185
-0.123779 -0.155156 -0.035185
-0.121414 -0.154977 -0.032894
-0.119192 -0.154977 -0.032894
-0.116835 -0.154798 -0.030608
-0.114615 -0.154798 -0.030608
-0.112266 -0.154619 -0.028327
-0.110049 -0.154619 -0.028327
-0.107833 -0.154619 -0.028327
-0.105616 -0.154619 -0.028327
-0.103399 -0.154619 -0.028327
-0.101065 -0.154440 -0.026052
-0.098851 -0.154440 -0.026052
-0.096637 -0.154440 -0.026052
-0.094423 -0.154440 -0.026052
-0.092208 -0.154440 -0.026052
-0.089994 -0.154440 -0.026052
-0.087780 -0.154440 -0.026052
-0.085566 -0.154440 -0.026052
-0.083352 -0.154440 -0.026052
-0.081137 -0.154440 -0.026052
-0.078923 -0.154440 -0.026052
-0.076797 -0.154619 -0.028327
-0.074581 -0.154619 -0.028327
-0.072364 -0.154619 -0.028327
-0.070147 -0.154619 -0.028327
-0.067930 -0.154619 -0.028327
-0.065713 -0.154619 -0.028327
-0.063497 -0.154619 -0.028327
-0.061280 -0.154619 -0.028327
-0.046786 -0.122421 0.382507
-0.044910 -0.122087 0.386772
-0.043005 -0.121644 0.392421
-0.041151 -0.121314 0.396631
-0.039308 -0.120986 0.400819
-0.037474 -0.120660 0.404983
-0.035650 -0.120335 0.409125
-0.033836 -0.120012 0.413245
-0.032031 -0.119691 0.417343
-0.030237 -0.119372 0.421418
-0.028452 -0.119054 0.425472
-0.026676 -0.118738 0.429504
-0.024910 -0.118424 0.433515
-0.023153 -0.118111 0.437505
-0.021406 -0.117800 0.441473
-0.019668 -0.117491 0.445420
-0.017938 -0.117183 0.449347
-0.016218 -0.116877 0.453253
-0.014507 -0.116572 0.457139
-0.012816 -0.116370 0.459718
-0.011122 -0.116068 0.463570
-0.009436 -0.115768 0.467402
-0.007759 -0.115469 0.471213
-0.006090 -0.115172 0.475006
-0.004434 -0.114975 0.477523
-0.002779 -0.114582 0.482532
-0.001137 -0.114387 0.485023
0.000499 -0.114095 0.488744
0.002127 -0.113805 0.492447
0.003756 -0.113805 0.492447
0.005381 -0.113709 0.493677
0.007015 -0.113805 0.492447
0.008645 -0.113805 0.492447
0.010274 -0.113805 0.492447
0.011904 -0.113805 0.492447
0.013533 -0.113805 0.492447
0.015163 -0.113805 0.492447
0.016807 -0.113902 0.491215
0.018470 -0.114095 0.488744
0.020121 -0.114193 0.487506
0.021794 -0.114387 0.485023
0.023452 -0.114485 0.483779
0.025135 -0.114680 0.481283
0.026801 -0.114778 0.480032
0.028494 -0.114975 0.477523
0.030167 -0.115073 0.476265
0.031870 -0.115271 0.473744
0.033608 -0.115569 0.469945
0.035325 -0.115768 0.467402
0.037047 -0.115968 0.464849
0.038810 -0.116270 0.461004
0.040546 -0.116471 0.458429
0.042326 -0.116775 0.454551
0.044075 -0.116979 0.451953
0.045872 -0.117285 0.448040
0.047678 -0.117594 0.444107
0.049494 -0.117904 0.440152
0.051365 -0.118319 0.434847
0.053536 -0.119372 0.421418
0.072402 -0.156060 -0.046721
0.074640 -0.156060 -0.046721
0.076968 -0.156242 -0.049045
0.079208 -0.156242 -0.049045
0.081448 -0.156242 -0.049045
0.083787 -0.156425 -0.051374
0.086029 -0.156425 -0.051374
0.088376 -0.156608 -0.053708
0.090622 -0.156608 -0.053708
0.092977 -0.156791 -0.056048
0.095337 -0.156975 -0.058394
0.097703 -0.157159 -0.060744
0.100075 -0.157344 -0.063101
0.102695 -0.157901 -0.070204
0.105712 -0.159026 -0.084562
0.109035 -0.160552 -0.104029
0.287665 -0.129264 0.295196
0.288121 -0.128644 0.303107
0.289128 -0.128275 0.307817
0.290407 -0.128030 0.310943
0.291681 -0.127786 0.314056
0.292671 -0.127422 0.318703
0.293935 -0.127180 0.321787
0.294913 -0.126819 0.326390
0.296448 -0.126700 0.327919
0.297980 -0.126580 0.329444
0.299226 -0.126341 0.332487
0.300751 -0.126223 0.334004
0.302273 -0.126104 0.335518
0.303793 -0.125985 0.337030
0.305021 -0.125749 0.340044
0.306534 -0.125631 0.341547
0.308333 -0.125631 0.341547
0.309841 -0.125514 0.343047
0.311346 -0.125397 0.344544
0.312849 -0.125279 0.346038
0.314643 -0.125279 0.346038
0.315845 -0.125046 0.349019
0.317339 -0.124929 0.350505
0.319128 -0.124929 0.350505
0.320618 -0.124813 0.351988
0.322104 -0.124697 0.353468
0.323588 -0.124581 0.354946
0.325069 -0.124466 0.356421
0.326852 -0.124466 0.356421
0.328329 -0.124350 0.357893
0.330110 -0.124350 0.357893
0.331582 -0.124235 0.359363
0.333362 -0.124235 0.359363
0.334830 -0.124120 0.360829
0.336608 -0.124120 0.360829
0.338071 -0.124006 0.362293
0.339848 -0.124006 0.362293
0.341307 -0.123891 0.363755
0.343081 -0.123891 0.363755
0.344856 -0.123891 0.363755
0.346631 -0.123891 0.363755
0.348082 -0.123777 0.365213
0.349855 -0.123777 0.365213
0.351628 -0.123777 0.365213
0.353401 -0.123777 0.365213
0.355174 -0.123777 0.365213
0.356947 -0.123777 0.365213
0.359053 -0.123891 0.363755
0.360828 -0.123891 0.363755
0.362940 -0.124006 0.362293
0.364716 -0.124006 0.362293
0.366833 -0.124120 0.360829
0.368611 -0.124120 0.360829
0.370734 -0.124235 0.359363
0.372861 -0.124350 0.357893
0.374992 -0.124466 0.356421
0.377126 -0.124581 0.354946
0.379620 -0.124813 0.351988
0.381765 -0.124929 0.350505
0.384635 -0.125279 0.346038
0.387521 -0.125631 0.341547
-0.225732 -0.165232 -0.133942
-0.222582 -0.164631 -0.126382
-0.219720 -0.164233 -0.121372
-0.216611 -0.163639 -0.113903
-0.214039 -0.163442 -0.111426
-0.211220 -0.163049 -0.106489
-0.208413 -0.162659 -0.101575
-0.205867 -0.162464 -0.099127
-0.203326 -0.162270 -0.096685
-0.200792 -0.162076 -0.094249
-0.198264 -0.161883 -0.091819
-0.195742 -0.161690 -0.089394
-0.193226 -0.161498 -0.086975
-0.190715 -0.161306 -0.084562
-0.188211 -0.161115 -0.082155
-0.185713 -0.160924 -0.079753
-0.183221 -0.160733 -0.077357
-0.180949 -0.160733 -0.077357
-0.178465 -0.160543 -0.074967
-0.176196 -0.160543 -0.074967
-0.173721 -0.160354 -0.072583
-0.171251 -0.160165 -0.070204
-0.168788 -0.159976 -0.067831
-0.166330 -0.159788 -0.065463
-0.163879 -0.159600 -0.063101
-0.161623 -0.159600 -0.063101
-0.159179 -0.159413 -0.060744
-0.156742 -0.159226 -0.058394
-0.154310 -0.159039 -0.056048
-0.151884 -0.158853 -0.053708
-0.149638 -0.158853 -0.053708
-0.147220 -0.158668 -0.051374
-0.144978 -0.158668 -0.051374
-0.142568 -0.158483 -0.049045
-0.140164 -0.158298 -0.046721
-0.137927 -0.158298 -0.046721
-0.135531 -0.158114 -0.044403
-0.133296 -0.158114 -0.044403
-0.130908 -0.157930 -0.042091
-0.128676 -0.157930 -0.042091
-0.126297 -0.157746 -0.039783
-0.123923 -0.157563 -0.037482
-0.121696 -0.157563 -0.037482
-0.119469 -0.157563 -0.037482
-0.117106 -0.157381 -0.035185
-0.114881 -0.157381 -0.035185
-0.112526 -0.157199 -0.032894
-0.110304 -0.157199 -0.032894
-0.108082 -0.157199 -0.032894
-0.105860 -0.157199 -0.032894
-0.103519 -0.157017 -0.030608
-0.101299 -0.157017 -0.030608
-0.099080 -0.157017 -0.030608
-0.096860 -0.157017 -0.030608
-0.094641 -0.157017 -0.030608
-0.092422 -0.157017 -0.030608
-0.090202 -0.157017 -0.030608
-0.087881 -0.156836 -0.028327
-0.085665 -0.156836 -0.028327
-0.083448 -0.156836 -0.028327
-0.081231 -0.156836 -0.028327
-0.079105 -0.157017 -0.030608
-0.076886 -0.157017 -0.030608
-0.074667 -0.157017 -0.030608
-0.072447 -0.157017 -0.030608
-0.070228 -0.157017 -0.030608
-0.068009 -0.157017 -0.030608
-0.065789 -0.157017 -0.030608
-0.063570 -0.157017 -0.030608
-0.061350 -0.157017 -0.030608
-0.046701 -0.123949 0.385353
-0.044788 -0.123499 0.391013
-0.042928 -0.123163 0.395230
-0.041077 -0.122830 0.399425
-0.039237 -0.122498 0.403598
-0.037407 -0.122168 0.407747
-0.035618 -0.121949 0.410501
-0.033806 -0.121623 0.414613
-0.032003 -0.121297 0.418704
-0.030210 -0.120974 0.422772
-0.028427 -0.120652 0.426819
-0.026629 -0.120226 0.432181
-0.024866 -0.119908 0.436177
-0.023113 -0.119592 0.440152
-0.021369 -0.119278 0.444107
-0.019634 -0.118965 0.448040
-0.017908 -0.118654 0.451953
-0.016191 -0.118345 0.455846
-0.014483 -0.118037 0.459718
-0.012784 -0.117731 0.463570
-0.011093 -0.117426 0.467402
-0.009412 -0.117123 0.471213
-0.007746 -0.116922 0.473744
-0.006080 -0.116621 0.477523
-0.004427 -0.116422 0.480032
-0.002777 -0.116124 0.483779
-0.001135 -0.115828 0.487506
0.000498 -0.115533 0.491215
0.002127 -0.115435 0.492447
0.003756 -0.115435 0.492447
0.005386 -0.115435 0.492447
0.007015 -0.115435 0.492447
0.008645 -0.115435 0.492447
0.010274 -0.115435 0.492447
0.011904 -0.115435 0.492447
0.013533 -0.115435 0.492447
0.015163 -0.115435 0.492447
0.016822 -0.115631 0.489981
0.018486 -0.115828 0.487506
0.020139 -0.115926 0.486266
0.021813 -0.116124 0.483779
0.023473 -0.116223 0.482532
0.025157 -0.116422 0.480032
0.026824 -0.116521 0.478778
0.028519 -0.116721 0.476265
0.030219 -0.116922 0.473744
0.031925 -0.117123 0.471213
0.033667 -0.117426 0.467402
0.035387 -0.117629 0.464849
0.037112 -0.117832 0.462288
0.038878 -0.118139 0.458429
0.040617 -0.118345 0.455846
0.042400 -0.118654 0.451953
0.044192 -0.118965 0.448040
0.045994 -0.119278 0.444107
0.047805 -0.119592 0.440152
0.049759 -0.120226 0.432181
0.052014 -0.121514 0.415979
0.070247 -0.158483 -0.049045
0.072487 -0.158483 -0.049045
0.074816 -0.158668 -0.051374
0.077058 -0.158668 -0.051374
0.079301 -0.158668 -0.051374
0.081640 -0.158853 -0.053708
0.083885 -0.158853 -0.053708
0.086232 -0.159039 -0.056048
0.088585 -0.159226 -0.058394
0.090836 -0.159226 -0.058394
0.093196 -0.159413 -0.060744
0.095563 -0.159600 -0.063101
0.097935 -0.159788 -0.065463
0.100550 -0.160354 -0.072583
0.103308 -0.161115 -0.082155
0.106476 -0.162464 -0.099127
0.287665 -0.131116 0.295196
0.287844 -0.130362 0.304680
0.289128 -0.130113 0.307817
0.290407 -0.129864 0.310943
0.291402 -0.129493 0.315608
0.292392 -0.129125 0.320246
0.293655 -0.128880 0.323324
0.294913 -0.128636 0.326390
0.296448 -0.128515 0.327919
0.297698 -0.128272 0.330967
0.299226 -0.128151 0.332487
0.300751 -0.128031 0.334004
0.301988 -0.127790 0.337030
0.303506 -0.127670 0.338538
0.305021 -0.127551 0.340044
0.306534 -0.127431 0.341547
0.308333 -0.127431 0.341547
0.309841 -0.127312 0.343047
0.311346 -0.127193 0.344544
0.312849 -0.127074 0.346038
0.314348 -0.126956 0.347530
0.315845 -0.126837 0.349019
0.317339 -0.126719 0.350505
0.318830 -0.126601 0.351988
0.320318 -0.126483 0.353468
0.322104 -0.126483 0.353468
0.323588 -0.126366 0.354946
0.325069 -0.126249 0.356421
0.326548 -0.126132 0.357893
0.328329 -0.126132 0.357893
0.329803 -0.126015 0.359363
0.331582 -0.126015 0.359363
0.333052 -0.125898 0.360829
0.334830 -0.125898 0.360829
0.336295 -0.125782 0.362293
0.338071 -0.125782 0.362293
0.339532 -0.125666 0.363755
0.341307 -0.125666 0.363755
0.342763 -0.125550 0.365213
0.344536 -0.125550 0.365213
0.346309 -0.125550 0.365213
0.348082 -0.125550 0.365213
0.349855 -0.125550 0.365213
0.351628 -0.125550 0.365213
0.353401 -0.125550 0.365213
0.355174 -0.125550 0.365213
0.356947 -0.125550 0.365213
0.358720 -0.125550 0.365213
0.360828 -0.125666 0.363755
0.362603 -0.125666 0.363755
0.364377 -0.125666 0.363755
0.366492 -0.125782 0.362293
0.368611 -0.125898 0.360829
0.370389 -0.125898 0.360829
0.372514 -0.126015 0.359363
0.374642 -0.126132 0.357893
0.376775 -0.126249 0.356421
0.379265 -0.126483 0.353468
0.381408 -0.126601 0.351988
0.383914 -0.126837 0.349019
0.386793 -0.127193 0.344544
0.391162 -0.128031 0.334004
-0.225319 -0.169008 -0.151800
-0.220791 -0.167364 -0.131416
-0.217927 -0.166958 -0.126382
-0.215077 -0.166554 -0.121372
-0.211985 -0.165952 -0.113903
-0.209166 -0.165553 -0.108954
-0.206610 -0.165354 -0.106489
-0.204059 -0.165156 -0.104029
-0.201515 -0.164958 -0.101575
-0.198739 -0.164564 -0.096685
-0.196210 -0.164367 -0.094249
-0.193919 -0.164367 -0.094249
-0.191399 -0.164171 -0.091819
-0.188885 -0.163976 -0.089394
-0.186377 -0.163781 -0.086975
-0.183875 -0.163586 -0.084562
-0.181379 -0.163392 -0.082155
-0.178889 -0.163199 -0.079753
-0.176614 -0.163199 -0.079753
-0.174132 -0.163006 -0.077357
-0.171657 -0.162813 -0.074967
-0.169187 -0.162621 -0.072583
-0.166723 -0.162429 -0.070204
-0.164459 -0.162429 -0.070204
-0.162004 -0.162237 -0.067831
-0.159554 -0.162047 -0.065463
-0.157111 -0.161856 -0.063101
-0.154673 -0.161666 -0.060744
-0.152240 -0.161477 -0.058394
-0.149990 -0.161477 -0.058394
-0.147566 -0.161287 -0.056048
-0.145318 -0.161287 -0.056048
-0.142902 -0.161099 -0.053708
-0.140492 -0.160911 -0.051374
-0.138249 -0.160911 -0.051374
-0.135848 -0.160723 -0.049045
-0.133607 -0.160723 -0.049045
-0.131214 -0.160535 -0.046721
-0.128826 -0.160349 -0.044403
-0.126591 -0.160349 -0.044403
-0.124212 -0.160162 -0.042091
-0.121979 -0.160162 -0.042091
-0.119608 -0.159976 -0.039783
-0.117378 -0.159976 -0.039783
-0.115148 -0.159976 -0.039783
-0.112787 -0.159790 -0.037482
-0.110560 -0.159790 -0.037482
-0.108208 -0.159605 -0.035185
-0.105983 -0.159605 -0.035185
-0.103759 -0.159605 -0.035185
-0.101534 -0.159605 -0.035185
-0.099309 -0.159605 -0.035185
-0.096973 -0.159421 -0.032894
-0.094751 -0.159421 -0.032894
-0.092529 -0.159421 -0.032894
-0.090307 -0.159421 -0.032894
-0.088085 -0.159421 -0.032894
-0.085863 -0.159421 -0.032894
-0.083641 -0.159421 -0.032894
-0.081419 -0.159421 -0.032894
-0.079197 -0.159421 -0.032894
-0.076975 -0.159421 -0.032894
-0.074753 -0.159421 -0.032894
-0.072531 -0.159421 -0.032894
-0.070309 -0.159421 -0.032894
-0.068087 -0.159421 -0.032894
-0.065941 -0.159605 -0.035185
-0.063717 -0.159605 -0.035185
-0.061492 -0.159605 -0.035185
-0.046659 -0.125585 0.386772
-0.044748 -0.125129 0.392421
-0.042889 -0.124790 0.396631
-0.041040 -0.124452 0.400819
-0.039202 -0.124116 0.404983
-0.037373 -0.123782 0.409125
-0.035555 -0.123450 0.413245
-0.033746 -0.123120 0.417343
-0.031946 -0.122791 0.421418
-0.030157 -0.122464 0.425472
-0.028377 -0.122139 0.429504
-0.026606 -0.121816 0.433515
-0.024845 -0.121494 0.437505
-0.023093 -0.121174 0.441473
-0.021350 -0.120856 0.445420
-0.019617 -0.120539 0.449347
-0.017892 -0.120224 0.453253
-0.016177 -0.119911 0.457139
-0.014470 -0.119600 0.461004
-0.012773 -0.119290 0.464849
-0.011084 -0.118981 0.468674
-0.009404 -0.118674 0.472480
-0.007733 -0.118369 0.476265
-0.006070 -0.118065 0.480032
-0.004416 -0.117763 0.483779
-0.002773 -0.117563 0.486266
-0.001134 -0.117263 0.489981
0.000496 -0.116965 0.493677
0.002127 -0.117064 0.492447
0.003756 -0.117064 0.492447
0.005386 -0.117064 0.492447
0.007015 -0.117064 0.492447
0.008645 -0.117064 0.492447
0.010274 -0.117064 0.492447
0.011904 -0.117064 0.492447
0.013533 -0.117064 0.492447
0.015176 -0.117164 0.491215
0.016836 -0.117363 0.488744
0.018502 -0.117563 0.486266
0.020156 -0.117663 0.485023
0.021832 -0.117864 0.482532
0.023493 -0.117965 0.481283
0.025179 -0.118166 0.478778
0.026848 -0.118268 0.477523
0.028568 -0.118572 0.473744
0.030272 -0.118776 0.471213
0.031981 -0.118981 0.468674
0.033726 -0.119290 0.464849
0.035449 -0.119496 0.462288
0.037210 -0.119807 0.458429
0.038947 -0.120015 0.455846
0.040689 -0.120224 0.453253
0.042475 -0.120539 0.449347
0.044271 -0.120856 0.445420
0.046117 -0.121281 0.440152
0.048104 -0.122031 0.430844
0.065844 -0.160911 -0.051374
0.068167 -0.161099 -0.053708
0.070330 -0.160911 -0.051374
0.072658 -0.161099 -0.053708
0.074904 -0.161099 -0.053708
0.077240 -0.161287 -0.056048
0.079488 -0.161287 -0.056048
0.081833 -0.161477 -0.058394
0.084084 -0.161477 -0.058394
0.086436 -0.161666 -0.060744
0.088690 -0.161666 -0.060744
0.091051 -0.161856 -0.063101
0.093417 -0.162047 -0.065463
0.095789 -0.162237 -0.067831
0.098401 -0.162813 -0.074967
0.101031 -0.163392 -0.082155
0.104054 -0.164564 -0.096685
0.108701 -0.168182 -0.141558
0.287665 -0.132968 0.295196
0.287844 -0.132203 0.304680
0.288850 -0.131824 0.309382
0.290128 -0.131573 0.312501
0.291402 -0.131322 0.315608
0.292392 -0.130948 0.320246
0.293655 -0.130700 0.323324
0.294913 -0.130453 0.326390
0.296167 -0.130207 0.329444
0.297698 -0.130084 0.330967
0.299226 -0.129961 0.332487
0.300467 -0.129717 0.335518
0.301988 -0.129595 0.337030
0.303506 -0.129473 0.338538
0.305021 -0.129352 0.340044
0.306245 -0.129110 0.343047
0.308043 -0.129110 0.343047
0.309550 -0.128989 0.344544
0.311054 -0.128869 0.346038
0.312555 -0.128749 0.347530
0.314348 -0.128749 0.347530
0.315549 -0.128509 0.350505
0.317339 -0.128509 0.350505
0.318830 -0.128389 0.351988
0.320318 -0.128270 0.353468
0.321804 -0.128151 0.354946
0.323286 -0.128032 0.356421
0.324766 -0.127913 0.357893
0.326548 -0.127913 0.357893
0.328023 -0.127794 0.359363
0.329803 -0.127794 0.359363
0.331274 -0.127676 0.360829
0.333052 -0.127676 0.360829
0.334519 -0.127558 0.362293
0.336295 -0.127558 0.362293
0.337757 -0.127440 0.363755
0.339532 -0.127440 0.363755
0.340990 -0.127323 0.365213
0.342763 -0.127323 0.365213
0.344536 -0.127323 0.365213
0.345988 -0.127205 0.366669
0.347760 -0.127205 0.366669
0.349531 -0.127205 0.366669
0.351302 -0.127205 0.366669
0.353074 -0.127205 0.366669
0.354845 -0.127205 0.366669
0.356617 -0.127205 0.366669
0.358720 -0.127323 0.365213
0.360493 -0.127323 0.365213
0.362266 -0.127323 0.365213
0.364377 -0.127440 0.363755
0.366152 -0.127440 0.363755
0.368269 -0.127558 0.362293
0.370389 -0.127676 0.360829
0.372514 -0.127794 0.359363
0.374642 -0.127913 0.357893
0.376423 -0.127913 0.357893
0.378911 -0.128151 0.354946
0.381408 -0.128389 0.351988
0.383554 -0.128509 0.350505
0.386429 -0.128869 0.346038
0.390423 -0.129595 0.337030
-0.219527 -0.170526 -0.141558
-0.216125 -0.169697 -0.131416
-0.213013 -0.169081 -0.123874
-0.209925 -0.168468 -0.116387
-0.207358 -0.168265 -0.113903
-0.204551 -0.167861 -0.108954
-0.202000 -0.167659 -0.106489
-0.199455 -0.167458 -0.104029
-0.196916 -0.167257 -0.101575
-0.194384 -0.167057 -0.099127
-0.191857 -0.166858 -0.096685
-0.189336 -0.166659 -0.094249
-0.186822 -0.166460 -0.091819
-0.184313 -0.166262 -0.089394
-0.181811 -0.166064 -0.086975
-0.179314 -0.165867 -0.084562
-0.177034 -0.165867 -0.084562
-0.174546 -0.165670 -0.082155
-0.172064 -0.165473 -0.079753
-0.169588 -0.165278 -0.077357
-0.167118 -0.165082 -0.074967
-0.164849 -0.165082 -0.074967
-0.162387 -0.164887 -0.072583
-0.159931 -0.164693 -0.070204
-0.157481 -0.164499 -0.067831
-0.155037 -0.164305 -0.065463
-0.152599 -0.164112 -0.063101
-0.150343 -0.164112 -0.063101
-0.147912 -0.163919 -0.060744
-0.145659 -0.163919 -0.060744
-0.143237 -0.163727 -0.058394
-0.140821 -0.163535 -0.056048
-0.138573 -0.163535 -0.056048
-0.136166 -0.163344 -0.053708
-0.133764 -0.163153 -0.051374
-0.131521 -0.163153 -0.051374
-0.129127 -0.162963 -0.049045
-0.126887 -0.162963 -0.049045
-0.124501 -0.162773 -0.046721
-0.122264 -0.162773 -0.046721
-0.119886 -0.162583 -0.044403
-0.117651 -0.162583 -0.044403
-0.115282 -0.162394 -0.042091
-0.113050 -0.162394 -0.042091
-0.110689 -0.162206 -0.039783
-0.108459 -0.162206 -0.039783
-0.106229 -0.162206 -0.039783
-0.104000 -0.162206 -0.039783
-0.101770 -0.162206 -0.039783
-0.099425 -0.162018 -0.037482
-0.097198 -0.162018 -0.037482
-0.094970 -0.162018 -0.037482
-0.092743 -0.162018 -0.037482
-0.090516 -0.162018 -0.037482
-0.088289 -0.162018 -0.037482
-0.086062 -0.162018 -0.037482
-0.083738 -0.161830 -0.035185
-0.081513 -0.161830 -0.035185
-0.079289 -0.161830 -0.035185
-0.077064 -0.161830 -0.035185
-0.074926 -0.162018 -0.037482
-0.072699 -0.162018 -0.037482
-0.070472 -0.162018 -0.037482
-0.068245 -0.162018 -0.037482
-0.066018 -0.162018 -0.037482
-0.063791 -0.162018 -0.037482
-0.048496 -0.127566 0.383931
-0.046532 -0.126987 0.391013
-0.044667 -0.126642 0.395230
-0.042812 -0.126299 0.399425
-0.040967 -0.125958 0.403598
-0.039132 -0.125619 0.407747
-0.037307 -0.125281 0.411874
-0.035491 -0.124945 0.415979
-0.033686 -0.124612 0.420062
-0.031918 -0.124390 0.422772
-0.030130 -0.124059 0.426819
-0.028352 -0.123730 0.430844
-0.026559 -0.123294 0.436177
-0.024801 -0.122969 0.440152
-0.023053 -0.122646 0.444107
-0.021313 -0.122324 0.448040
-0.019583 -0.122004 0.451953
-0.017861 -0.121686 0.455846
-0.016149 -0.121370 0.459718
-0.014446 -0.121055 0.463570
-0.012751 -0.120742 0.467402
-0.011066 -0.120430 0.471213
-0.009389 -0.120120 0.475006
-0.007720 -0.119811 0.478778
-0.006060 -0.119505 0.482532
-0.004413 -0.119301 0.485023
-0.002768 -0.118997 0.488744
-0.001133 -0.118694 0.492447
0.000497 -0.118694 0.492447
0.002127 -0.118694 0.492447
0.003756 -0.118694 0.492447
0.005386 -0.118694 0.492447
0.007015 -0.118694 0.492447
0.008645 -0.118694 0.492447
0.010274 -0.118694 0.492447
0.011904 -0.118694 0.492447
0.013545 -0.118795 0.491215
0.015189 -0.118896 0.489981
0.016851 -0.119098 0.487506
0.018502 -0.119199 0.486266
0.020174 -0.119403 0.483779
0.021851 -0.119607 0.481283
0.023514 -0.119709 0.480032
0.025201 -0.119914 0.477523
0.026894 -0.120120 0.475006
0.028618 -0.120430 0.471213
0.030325 -0.120637 0.468674
0.032065 -0.120950 0.464849
0.033785 -0.121160 0.462288
0.035511 -0.121370 0.459718
0.037276 -0.121686 0.455846
0.039015 -0.121898 0.453253
0.040797 -0.122218 0.449347
0.042588 -0.122539 0.445420
0.044468 -0.123077 0.438830
0.046488 -0.123949 0.428163
0.063752 -0.163535 -0.056048
0.066000 -0.163535 -0.056048
0.068248 -0.163535 -0.056048
0.070496 -0.163535 -0.056048
0.072744 -0.163535 -0.056048
0.075081 -0.163727 -0.058394
0.077331 -0.163727 -0.058394
0.079676 -0.163919 -0.060744
0.081930 -0.163919 -0.060744
0.084283 -0.164112 -0.063101
0.086641 -0.164305 -0.065463
0.089005 -0.164499 -0.067831
0.091267 -0.164499 -0.067831
0.093639 -0.164693 -0.070204
0.096131 -0.165082 -0.074967
0.098753 -0.165670 -0.082155
0.101760 -0.166858 -0.096685
0.105836 -0.169697 -0.131416
0.287665 -0.134820 0.295196
0.287567 -0.133916 0.306250
0.288850 -0.133660 0.309382
0.289851 -0.133278 0.314056
0.291124 -0.133025 0.317157
0.292392 -0.132772 0.320246
0.293375 -0.132395 0.324858
0.294633 -0.132145 0.327919
0.296167 -0.132020 0.329444
0.297416 -0.131771 0.332487
0.298943 -0.131647 0.334004
0.300467 -0.131523 0.335518
0.301988 -0.131400 0.337030
0.303220 -0.131153 0.340044
0.304734 -0.131031 0.341547
0.306245 -0.130908 0.343047
0.308043 -0.130908 0.343047
0.309550 -0.130786 0.344544
0.311054 -0.130663 0.346038
0.312555 -0.130541 0.347530
0.314054 -0.130420 0.349019
0.315549 -0.130298 0.350505
0.317042 -0.130177 0.351988
0.318532 -0.130056 0.353468
0.320019 -0.129935 0.354946
0.321804 -0.129935 0.354946
0.323286 -0.129815 0.356421
0.324766 -0.129694 0.357893
0.326548 -0.129694 0.357893
0.328023 -0.129574 0.359363
0.329803 -0.129574 0.359363
0.331274 -0.129454 0.360829
0.333052 -0.129454 0.360829
0.334519 -0.129335 0.362293
0.335983 -0.129215 0.363755
0.337757 -0.129215 0.363755
0.339217 -0.129096 0.365213
0.340990 -0.129096 0.365213
0.342445 -0.128977 0.366669
0.344217 -0.128977 0.366669
0.345988 -0.128977 0.366669
0.347760 -0.128977 0.366669
0.349531 -0.128977 0.366669
0.351302 -0.128977 0.366669
0.353074 -0.128977 0.366669
0.354845 -0.128977 0.366669
0.356617 -0.128977 0.366669
0.358388 -0.128977 0.366669
0.360159 -0.128977 0.366669
0.362266 -0.129096 0.365213
0.364039 -0.129096 0.365213
0.366152 -0.129215 0.363755
0.367927 -0.129215 0.363755
0.370045 -0.129335 0.362293
0.372167 -0.129454 0.360829
0.374293 -0.129574 0.359363
0.376073 -0.129574 0.359363
0.378558 -0.129815 0.356421
0.381051 -0.130056 0.353468
0.383554 -0.130298 0.350505
0.386067 -0.130541 0.347530
0.389687 -0.131153 0.340044
-0.214052 -0.172239 -0.133942
-0.211201 -0.171821 -0.128896
-0.208364 -0.171405 -0.123874
-0.205293 -0.170785 -0.116387
-0.202731 -0.170579 -0.113903
-0.199935 -0.170168 -0.108954
-0.197390 -0.169964 -0.106489
-0.194851 -0.169760 -0.104029
-0.192317 -0.169557 -0.101575
-0.190018 -0.169557 -0.101575
-0.187494 -0.169354 -0.099127
-0.184975 -0.169152 -0.096685
-0.182245 -0.168748 -0.091819
-0.179742 -0.168547 -0.089394
-0.177245 -0.168347 -0.086975
-0.174754 -0.168147 -0.084562
-0.172474 -0.168147 -0.084562
-0.169991 -0.167947 -0.082155
-0.167714 -0.167947 -0.082155
-0.165240 -0.167748 -0.079753
-0.162772 -0.167550 -0.077357
-0.160310 -0.167352 -0.074967
-0.157854 -0.167154 -0.072583
-0.155403 -0.166957 -0.070204
-0.152959 -0.166760 -0.067831
-0.150697 -0.166760 -0.067831
-0.148261 -0.166564 -0.065463
-0.145831 -0.166368 -0.063101
-0.143575 -0.166368 -0.063101
-0.141152 -0.166173 -0.060744
-0.138736 -0.165978 -0.058394
-0.136485 -0.165978 -0.058394
-0.134077 -0.165784 -0.056048
-0.131829 -0.165784 -0.056048
-0.129429 -0.165590 -0.053708
-0.127184 -0.165590 -0.053708
-0.124792 -0.165396 -0.051374
-0.122550 -0.165396 -0.051374
-0.120166 -0.165203 -0.049045
-0.117926 -0.165203 -0.049045
-0.115551 -0.165011 -0.046721
-0.113314 -0.165011 -0.046721
-0.110947 -0.164818 -0.044403
-0.108712 -0.164818 -0.044403
-0.106477 -0.164818 -0.044403
-0.104242 -0.164818 -0.044403
-0.101888 -0.164627 -0.042091
-0.099656 -0.164627 -0.042091
-0.097424 -0.164627 -0.042091
-0.095191 -0.164627 -0.042091
-0.092851 -0.164435 -0.039783
-0.090621 -0.164435 -0.039783
-0.088392 -0.164435 -0.039783
-0.086162 -0.164435 -0.039783
-0.083932 -0.164435 -0.039783
-0.081702 -0.164435 -0.039783
-0.079473 -0.164435 -0.039783
-0.077243 -0.164435 -0.039783
-0.074926 -0.164245 -0.037482
-0.072784 -0.164435 -0.039783
-0.070554 -0.164435 -0.039783
-0.068324 -0.164435 -0.039783
-0.066094 -0.164435 -0.039783
-0.063865 -0.164435 -0.039783
-0.048408 -0.129082 0.386772
-0.046490 -0.128614 0.392421
-0.044627 -0.128265 0.396631
-0.042773 -0.127918 0.400819
-0.040930 -0.127573 0.404983
-0.039097 -0.127229 0.409125
-0.037273 -0.126888 0.413245
-0.035460 -0.126548 0.417343
-0.033656 -0.126210 0.421418
-0.031862 -0.125875 0.425472
-0.030077 -0.125540 0.429504
-0.028302 -0.125208 0.433515
-0.026536 -0.124877 0.437505
-0.024780 -0.124548 0.441473
-0.023033 -0.124221 0.445420
-0.021295 -0.123896 0.449347
-0.019566 -0.123572 0.453253
-0.017846 -0.123250 0.457139
-0.016135 -0.122930 0.461004
-0.014434 -0.122611 0.464849
-0.012741 -0.122294 0.468674
-0.011056 -0.121978 0.472480
-0.009381 -0.121665 0.476265
-0.007714 -0.121353 0.480032
-0.006055 -0.121042 0.483779
-0.004406 -0.120733 0.487506
-0.002764 -0.120426 0.491215
-0.001133 -0.120324 0.492447
0.000497 -0.120324 0.492447
0.002127 -0.120324 0.492447
0.003756 -0.120324 0.492447
0.005386 -0.120324 0.492447
0.007015 -0.120324 0.492447
0.008645 -0.120324 0.492447
0.010274 -0.120324 0.492447
0.011904 -0.120324 0.492447
0.013557 -0.120528 0.489981
0.015203 -0.120630 0.488744
0.016866 -0.120836 0.486266
0.018518 -0.120939 0.485023
0.020191 -0.121145 0.482532
0.021870 -0.121353 0.480032
0.023555 -0.121560 0.477523
0.025245 -0.121769 0.475006
0.026941 -0.121978 0.472480
0.028669 -0.122294 0.468674
0.030378 -0.122505 0.466126
0.032122 -0.122823 0.462288
0.033845 -0.123036 0.459718
0.035574 -0.123250 0.457139
0.037342 -0.123572 0.453253
0.039119 -0.123896 0.449347
0.040942 -0.124330 0.444107
0.042854 -0.124987 0.436177
0.044988 -0.126210 0.421418
0.061577 -0.165978 -0.058394
0.063827 -0.165978 -0.058394
0.066078 -0.165978 -0.058394
0.068329 -0.165978 -0.058394
0.070663 -0.166173 -0.060744
0.072916 -0.166173 -0.060744
0.075259 -0.166368 -0.063101
0.077515 -0.166368 -0.063101
0.079865 -0.166564 -0.065463
0.082124 -0.166564 -0.065463
0.084483 -0.166760 -0.067831
0.086847 -0.166957 -0.070204
0.089217 -0.167154 -0.072583
0.091593 -0.167352 -0.074967
0.093974 -0.167550 -0.077357
0.096591 -0.168147 -0.084562
0.099466 -0.169152 -0.096685
0.102999 -0.171198 -0.121372
0.287665 -0.136672 0.295196
