ply
format ascii 1.0
element vertex 1744
property float x
property float y
property float z
end_header
0.190910 0.107988 0.241749
0.191619 0.110171 0.244756
0.193497 0.110171 0.245243
0.194787 0.111260 0.246984
0.195487 0.113430 0.249971
0.197359 0.113430 0.250457
0.198641 0.114511 0.252188
0.199331 0.116668 0.255156
0.200607 0.117743 0.256877
0.201880 0.118816 0.258595
0.203151 0.119887 0.260309
0.204420 0.120956 0.262020
0.205686 0.122022 0.263727
0.206949 0.123087 0.265431
0.208210 0.124149 0.267132
0.209468 0.125209 0.268829
0.210724 0.126267 0.270523
0.211978 0.127323 0.272213
0.212632 0.129429 0.275105
0.213880 0.130478 0.276786
0.214529 0.132571 0.279661
0.215771 0.133615 0.281332
0.217011 0.134656 0.283000
0.217651 0.136733 0.285851
0.218885 0.137768 0.287510
0.220117 0.138801 0.289165
0.221346 0.139832 0.290817
0.222573 0.140861 0.292466
0.223797 0.141888 0.294111
0.225019 0.142913 0.295753
0.226239 0.143936 0.297392
0.227456 0.144957 0.299028
0.228671 0.145976 0.300661
0.229883 0.146993 0.302290
0.231093 0.148008 0.303916
0.232905 0.148008 0.304386
0.234111 0.149021 0.306009
0.235921 0.149021 0.306478
0.237731 0.149021 0.306948
0.238931 0.150032 0.308566
0.241352 0.149021 0.307886
0.243162 0.149021 0.308356
0.244972 0.149021 0.308825
0.246782 0.149021 0.309294
0.249213 0.148008 0.308615
0.250403 0.149021 0.310233
0.252837 0.148008 0.309555
0.255276 0.146993 0.308874
0.258350 0.144957 0.307039
0.260802 0.143936 0.306354
0.263258 0.142913 0.305669
0.266360 0.140861 0.303820
0.268829 0.139832 0.303129
0.272602 0.136733 0.300100
0.276397 0.133615 0.297052
0.280878 0.129429 0.292801
0.283388 0.128377 0.292092
0.285235 0.128377 0.292571
0.287081 0.128377 0.293050
0.288927 0.128377 0.293528
0.289428 0.130478 0.296376
0.291271 0.130478 0.296853
0.293114 0.130478 0.297331
0.295634 0.129429 0.296627
0.297478 0.129429 0.297106
0.299323 0.129429 0.297584
0.301852 0.128377 0.296880
0.303698 0.128377 0.297358
0.305544 0.128377 0.297837
0.308082 0.127323 0.297133
0.309930 0.127323 0.297612
0.311778 0.127323 0.298091
0.313626 0.127323 0.298570
0.315474 0.127323 0.299049
0.318025 0.126267 0.298345
0.319875 0.126267 0.298825
0.321725 0.126267 0.299305
0.323575 0.126267 0.299784
0.325425 0.126267 0.300264
0.327275 0.126267 0.300744
0.329839 0.125209 0.300041
0.331691 0.125209 0.300521
0.334262 0.124149 0.299817
0.336116 0.124149 0.300297
0.338694 0.123087 0.299592
0.340550 0.123087 0.300073
0.343136 0.122022 0.299367
0.344993 0.122022 0.299849
0.347585 0.120956 0.299142
0.349445 0.120956 0.299624
0.351304 0.120956 0.300106
0.353905 0.119887 0.299399
0.355767 0.119887 0.299882
0.357628 0.119887 0.300364
0.360238 0.118816 0.299656
0.362101 0.118816 0.300139
0.364719 0.117743 0.299431
0.366584 0.117743 0.299914
0.369209 0.116668 0.299205
0.371839 0.115591 0.298493
0.373707 0.115591 0.298978
0.376345 0.114511 0.298266
0.378987 0.113430 0.297552
0.380859 0.113430 0.298038
0.383509 0.112346 0.297323
0.386164 0.111260 0.296608
0.388041 0.111260 0.297094
0.390703 0.110171 0.296377
0.393371 0.109081 0.295659
0.396044 0.107988 0.294939
0.398723 0.106893 0.294218
0.401407 0.105796 0.293495
0.404097 0.104697 0.292771
0.405985 0.104697 0.293260
0.408682 0.103595 0.292535
0.411384 0.102491 0.291809
0.414093 0.101385 0.291080
0.417628 0.099166 0.289128
0.420351 0.098053 0.288395
0.423079 0.096938 0.287660
0.426648 0.094700 0.285692
0.429391 0.093578 0.284952
0.432984 0.091327 0.282973
0.435742 0.090198 0.282228
0.438506 0.089066 0.281482
0.442991 0.085658 0.278237
-0.364389 -0.011423 -0.053076
-0.362404 -0.006055 -0.045636
-0.360438 -0.000735 -0.038263
-0.358459 0.003224 -0.032642
-0.356493 0.007157 -0.027059
-0.354540 0.011063 -0.021513
-0.352636 0.016232 -0.014351
-0.350673 0.018799 -0.010530
-0.348798 0.023900 -0.003464
-0.346898 0.027696 0.001926
-0.344966 0.030213 0.005674
-0.343043 0.032720 0.009406
-0.341129 0.035215 0.013122
-0.339222 0.037699 0.016821
-0.337272 0.038938 0.018925
-0.335326 0.040173 0.021023
-0.333440 0.042636 0.024690
-0.331505 0.043864 0.026775
-0.329574 0.045089 0.028857
-0.327708 0.047531 0.032491
-0.325787 0.048748 0.034559
-0.323870 0.049963 0.036623
-0.321957 0.051174 0.038682
-0.320118 0.053591 0.042276
-0.318215 0.054795 0.044323
-0.316317 0.055996 0.046366
-0.314422 0.057195 0.048404
-0.312531 0.058392 0.050438
-0.310645 0.059586 0.052467
-0.308762 0.060777 0.054492
-0.306884 0.061966 0.056513
-0.305009 0.063153 0.058530
-0.303138 0.064337 0.060542
-0.301271 0.065518 0.062551
-0.299409 0.066697 0.064554
-0.297550 0.067873 0.066554
-0.295695 0.069047 0.068550
-0.293844 0.070219 0.070541
-0.291996 0.071388 0.072528
-0.290153 0.072554 0.074511
-0.288212 0.072554 0.075014
-0.286271 0.072554 0.075518
-0.284435 0.073719 0.077495
-0.282496 0.073719 0.077998
-0.280667 0.074880 0.079971
-0.278841 0.076040 0.081940
-0.276906 0.076040 0.082442
-0.275086 0.077196 0.084406
-0.273153 0.077196 0.084908
-0.271339 0.078351 0.086867
-0.269408 0.078351 0.087368
-0.267599 0.079503 0.089323
-0.265670 0.079503 0.089823
-0.263868 0.080653 0.091774
-0.262069 0.081800 0.093720
-0.260274 0.082945 0.095663
-0.258351 0.082945 0.096161
-0.256562 0.084087 0.098099
-0.254641 0.084087 0.098598
-0.252720 0.084087 0.099096
-0.250938 0.085227 0.101028
-0.249019 0.085227 0.101526
-0.247100 0.085227 0.102024
-0.245181 0.085227 0.102521
-0.243409 0.086365 0.104448
-0.241492 0.086365 0.104946
-0.239575 0.086365 0.105443
-0.237811 0.087501 0.107365
-0.235896 0.087501 0.107862
-0.234137 0.088634 0.109779
-0.232224 0.088634 0.110275
-0.230311 0.088634 0.110771
-0.228398 0.088634 0.111267
-0.226649 0.089764 0.113180
-0.224737 0.089764 0.113675
-0.222826 0.089764 0.114171
-0.220915 0.089764 0.114666
-0.219004 0.089764 0.115162
-0.217266 0.090893 0.117068
-0.215532 0.092019 0.118971
-0.213625 0.092019 0.119465
-0.211718 0.092019 0.119960
-0.209811 0.092019 0.120454
-0.207904 0.092019 0.120949
-0.206181 0.093143 0.122845
-0.204276 0.093143 0.123339
-0.202371 0.093143 0.123833
-0.200465 0.093143 0.124327
-0.198560 0.093143 0.124821
-0.196655 0.093143 0.125315
-0.194750 0.093143 0.125809
-0.192845 0.093143 0.126303
-0.190939 0.093143 0.126797
-0.189034 0.093143 0.127291
-0.187333 0.094264 0.129179
-0.185429 0.094264 0.129673
-0.183526 0.094264 0.130166
-0.181623 0.094264 0.130660
-0.179720 0.094264 0.131153
-0.177816 0.094264 0.131647
-0.175913 0.094264 0.132140
-0.174010 0.094264 0.132634
-0.172107 0.094264 0.133127
-0.170203 0.094264 0.133621
-0.168300 0.094264 0.134114
-0.166397 0.094264 0.134608
-0.164720 0.095383 0.136486
-0.162590 0.094264 0.135595
-0.160687 0.094264 0.136088
-0.158784 0.094264 0.136582
-0.156646 0.093143 0.135689
-0.154741 0.093143 0.136183
-0.152835 0.093143 0.136677
-0.150689 0.092019 0.135784
-0.148782 0.092019 0.136279
-0.146874 0.092019 0.136773
-0.144967 0.092019 0.137268
-0.142810 0.090893 0.136374
-0.140901 0.090893 0.136869
-0.138992 0.090893 0.137364
-0.136827 0.089764 0.136470
-0.134916 0.089764 0.136966
-0.132744 0.088634 0.136070
-0.130831 0.088634 0.136566
-0.128918 0.088634 0.137062
-0.126738 0.087501 0.136166
-0.124823 0.087501 0.136662
-0.122636 0.086365 0.135764
-0.120719 0.086365 0.136262
-0.118802 0.086365 0.136759
-0.116607 0.085227 0.135860
-0.114688 0.085227 0.136358
-0.112486 0.084087 0.135458
-0.110565 0.084087 0.135956
-0.108357 0.082945 0.135054
-0.106434 0.082945 0.135553
-0.104219 0.081800 0.134650
-0.102294 0.081800 0.135150
-0.100369 0.081800 0.135649
-0.098444 0.081800 0.136148
-0.096218 0.080653 0.135245
-0.094291 0.080653 0.135745
-0.092059 0.079503 0.134840
-0.090130 0.079503 0.135340
-0.087891 0.078351 0.134435
-0.085960 0.078351 0.134935
-0.083715 0.077196 0.134028
-0.081782 0.077196 0.134530
-0.079529 0.076040 0.133621
-0.077594 0.076040 0.134123
-0.075335 0.074880 0.133213
-0.073398 0.074880 0.133715
-0.071133 0.073719 0.132804
-0.069193 0.073719 0.133307
-0.066587 0.071388 0.130976
-0.064644 0.071388 0.131480
-0.062362 0.070219 0.130563
-0.060416 0.070219 0.131068
-0.058127 0.069047 0.130150
-0.056180 0.069047 0.130655
-0.053884 0.067873 0.129736
-0.051935 0.067873 0.130241
-0.049632 0.066697 0.129320
-0.047681 0.066697 0.129826
-0.045371 0.065518 0.128904
-0.043418 0.065518 0.129411
-0.041102 0.064337 0.128487
-0.039146 0.064337 0.128994
-0.036823 0.063153 0.128070
-0.034865 0.063153 0.128577
-0.032535 0.061966 0.127651
-0.030575 0.061966 0.128159
-0.028237 0.060777 0.127231
-0.026276 0.060777 0.127740
-0.023931 0.059586 0.126811
-0.021582 0.058392 0.125880
-0.019616 0.058392 0.126389
-0.017259 0.057195 0.125457
-0.015291 0.057195 0.125967
-0.012928 0.055996 0.125033
-0.010958 0.055996 0.125544
-0.008587 0.054795 0.124608
-0.006615 0.054795 0.125120
-0.004237 0.053591 0.124183
-0.002262 0.053591 0.124695
0.000123 0.052384 0.123757
0.002099 0.052384 0.124269
0.004076 0.052384 0.124782
0.006470 0.051174 0.123842
0.008449 0.051174 0.124355
0.010850 0.049963 0.123415
0.013257 0.048748 0.122472
0.015240 0.048748 0.122986
0.017654 0.047531 0.122042
0.019639 0.047531 0.122556
0.022060 0.046311 0.121611
0.024047 0.046311 0.122126
0.026476 0.045089 0.121179
0.028465 0.045089 0.121695
0.030901 0.043864 0.120746
0.032893 0.043864 0.121262
0.035336 0.042636 0.120312
0.037785 0.041406 0.119360
0.039780 0.041406 0.119877
0.042237 0.040173 0.118924
0.044234 0.040173 0.119442
0.046698 0.038938 0.118486
0.048698 0.038938 0.119005
0.051169 0.037699 0.118048
0.053171 0.037699 0.118567
0.055173 0.037699 0.119087
0.057654 0.036458 0.118129
0.059658 0.036458 0.118649
0.062147 0.035215 0.117690
0.064153 0.035215 0.118210
0.066649 0.033968 0.117249
0.068658 0.033968 0.117770
0.071161 0.032720 0.116808
0.073670 0.031468 0.115844
0.075683 0.031468 0.116365
0.078200 0.030213 0.115400
0.080215 0.030213 0.115922
0.082739 0.028956 0.114955
0.084756 0.028956 0.115478
0.087289 0.027696 0.114509
0.090345 0.025168 0.112040
0.092369 0.025168 0.112565
0.094918 0.023900 0.111590
0.096944 0.023900 0.112115
0.099501 0.022629 0.111138
0.101529 0.022629 0.111664
0.104093 0.021355 0.110686
0.106124 0.021355 0.111212
0.108696 0.020079 0.110232
0.110729 0.020079 0.110760
0.112762 0.020079 0.111287
0.115344 0.018799 0.110306
0.117932 0.017517 0.109323
0.119969 0.017517 0.109851
0.122565 0.016232 0.108866
0.125167 0.014944 0.107879
0.127774 0.013653 0.106890
0.129818 0.013653 0.107420
0.131292 0.014944 0.109468
0.133334 0.014944 0.109997
0.135375 0.014944 0.110526
0.136842 0.016232 0.112568
0.138881 0.016232 0.113097
0.140921 0.016232 0.113626
0.142960 0.016232 0.114155
0.144416 0.017517 0.116190
0.146453 0.017517 0.116718
0.148491 0.017517 0.117246
0.150528 0.017517 0.117775
0.152565 0.017517 0.118303
0.154009 0.018799 0.120331
0.156044 0.018799 0.120859
0.158079 0.018799 0.121387
0.160114 0.018799 0.121914
0.162149 0.018799 0.122442
0.164184 0.018799 0.122970
0.165614 0.020079 0.124991
0.167646 0.020079 0.125518
0.169679 0.020079 0.126045
0.171712 0.020079 0.126572
0.173745 0.020079 0.127099
0.175162 0.021355 0.129114
0.177193 0.021355 0.129640
0.179223 0.021355 0.130167
0.181254 0.021355 0.130693
0.183285 0.021355 0.131220
0.184690 0.022629 0.133228
0.186718 0.022629 0.133754
0.188747 0.022629 0.134279
0.190775 0.022629 0.134805
0.192803 0.022629 0.135331
0.194832 0.022629 0.135857
0.196223 0.023900 0.137858
0.182108 0.055996 0.175605
0.182267 0.059586 0.180277
0.182425 0.063153 0.184919
0.182581 0.066697 0.189532
0.182737 0.070219 0.194116
0.182892 0.073719 0.198672
0.183045 0.077196 0.203198
0.182607 0.081800 0.209023
0.183350 0.084087 0.212167
0.183501 0.087501 0.216609
0.184238 0.089764 0.219721
0.184972 0.092019 0.222820
0.185703 0.094264 0.225906
0.186431 0.096500 0.228979
0.186571 0.099837 0.233320
0.187293 0.102050 0.236363
0.188013 0.104254 0.239393
0.189314 0.105353 0.241148
0.190612 0.106450 0.242899
0.191322 0.108636 0.245904
0.193200 0.108636 0.246391
0.193903 0.110813 0.249382
0.195190 0.111899 0.251116
0.197062 0.111899 0.251602
0.197756 0.114063 0.254574
0.199035 0.115142 0.256297
0.200311 0.116219 0.258017
0.201585 0.117293 0.259734
0.202856 0.118366 0.261447
0.204125 0.119436 0.263156
0.205391 0.120504 0.264863
0.206655 0.121570 0.266566
0.207916 0.122634 0.268265
0.209175 0.123695 0.269961
0.210431 0.124755 0.271654
0.211089 0.126868 0.274550
0.212340 0.127921 0.276233
0.213588 0.128972 0.277913
0.214237 0.131068 0.280785
0.215480 0.132113 0.282455
0.216124 0.134196 0.285310
0.217360 0.135235 0.286971
0.218595 0.136272 0.288628
0.219827 0.137306 0.290282
0.221056 0.138339 0.291933
0.222283 0.139369 0.293581
0.223508 0.140398 0.295225
0.224730 0.141424 0.296867
0.225950 0.142449 0.298504
0.227168 0.143471 0.300139
0.228383 0.144492 0.301771
0.229595 0.145510 0.303399
0.230806 0.146527 0.305024
0.232618 0.146527 0.305494
0.234430 0.146527 0.305964
0.235634 0.147541 0.307585
0.237444 0.147541 0.308054
0.238645 0.148553 0.309672
0.241065 0.147541 0.308993
0.242875 0.147541 0.309462
0.244685 0.147541 0.309932
0.246495 0.147541 0.310401
0.248926 0.146527 0.309723
0.250116 0.147541 0.311340
0.253174 0.145510 0.309513
0.255616 0.144492 0.308832
0.258062 0.143471 0.308150
0.260513 0.142449 0.307467
0.263607 0.140398 0.305623
0.266071 0.139369 0.304935
0.269185 0.137306 0.303081
0.273615 0.133156 0.298875
0.276763 0.131068 0.296998
0.281249 0.126868 0.292742
0.283763 0.125812 0.292033
0.285611 0.125812 0.292512
0.287459 0.125812 0.292991
0.289307 0.125812 0.293470
0.289808 0.127921 0.296320
0.291652 0.127921 0.296798
0.293497 0.127921 0.297277
0.295341 0.127921 0.297755
0.297186 0.127921 0.298233
0.299713 0.126868 0.297530
0.302244 0.125812 0.296825
0.304093 0.125812 0.297304
0.305941 0.125812 0.297783
0.307789 0.125812 0.298262
0.309637 0.125812 0.298742
0.312181 0.124755 0.298037
0.314031 0.124755 0.298517
0.315881 0.124755 0.298996
0.317731 0.124755 0.299476
0.319581 0.124755 0.299956
0.322138 0.123695 0.299252
0.323990 0.123695 0.299732
0.325842 0.123695 0.300212
0.327694 0.123695 0.300692
0.329545 0.123695 0.301173
0.332115 0.122634 0.300469
0.334689 0.121570 0.299764
0.336545 0.121570 0.300245
0.339126 0.120504 0.299540
0.340984 0.120504 0.300021
0.342841 0.120504 0.300503
0.345431 0.119436 0.299797
0.347291 0.119436 0.300279
0.349888 0.118366 0.299572
0.351749 0.118366 0.300054
0.353610 0.118366 0.300537
0.355472 0.118366 0.301019
0.358080 0.117293 0.300312
0.359943 0.117293 0.300795
0.362558 0.116219 0.300087
0.365179 0.115142 0.299378
0.367046 0.115142 0.299862
0.369674 0.114063 0.299151
0.372307 0.112982 0.298439
0.374177 0.112982 0.298924
0.376818 0.111899 0.298212
0.378690 0.111899 0.298697
0.381338 0.110813 0.297983
0.383991 0.109726 0.297268
0.385867 0.109726 0.297755
0.388527 0.108636 0.297038
0.391193 0.107544 0.296321
0.393864 0.106450 0.295602
0.395746 0.106450 0.296090
0.398425 0.105353 0.295369
0.401108 0.104254 0.294648
0.403798 0.103153 0.293925
0.406493 0.102050 0.293200
0.409193 0.100945 0.292474
0.411899 0.099837 0.291747
0.414610 0.098727 0.291018
0.418150 0.096500 0.289063
0.420877 0.095383 0.288329
0.423609 0.094264 0.287594
0.427182 0.092019 0.285624
0.429929 0.090893 0.284883
0.433526 0.088634 0.282902
0.436288 0.087501 0.282156
0.439910 0.085227 0.280163
0.447004 0.078351 0.273131
-0.362607 -0.014481 -0.052991
-0.360683 -0.006417 -0.042114
-0.358697 -0.002426 -0.036461
-0.356723 0.001538 -0.030847
-0.354763 0.005477 -0.025270
-0.352852 0.010687 -0.018068
-0.350882 0.013275 -0.014226
-0.348960 0.017135 -0.008759
-0.347093 0.022243 -0.001700
-0.345199 0.026045 0.003684
-0.343271 0.028566 0.007429
-0.341351 0.031076 0.011157
-0.339440 0.033575 0.014869
-0.337537 0.036063 0.018564
-0.335643 0.038540 0.022244
-0.333701 0.039775 0.024337
-0.331821 0.042236 0.027993
-0.329889 0.043463 0.030073
-0.327961 0.044687 0.032148
-0.326101 0.047127 0.035771
-0.324184 0.048343 0.037834
-0.322271 0.049557 0.039892
-0.320362 0.050768 0.041946
-0.318457 0.051977 0.043995
-0.316556 0.053182 0.046040
-0.314659 0.054386 0.048081
-0.312766 0.055586 0.050117
-0.310877 0.056785 0.052149
-0.308992 0.057980 0.054177
-0.307111 0.059174 0.056200
-0.305235 0.060364 0.058219
-0.303362 0.061552 0.060234
-0.301493 0.062738 0.062245
-0.299537 0.062738 0.062752
-0.297674 0.063921 0.064758
-0.295815 0.065102 0.066759
-0.293960 0.066280 0.068757
-0.292109 0.067455 0.070750
-0.290261 0.068629 0.072739
-0.288418 0.069799 0.074724
-0.286475 0.069799 0.075228
-0.284637 0.070967 0.077208
-0.282804 0.072133 0.079184
-0.280864 0.072133 0.079687
-0.279037 0.073297 0.081658
-0.277100 0.073297 0.082160
-0.275278 0.074458 0.084127
-0.273459 0.075616 0.086089
-0.271526 0.075616 0.086591
-0.269714 0.076772 0.088549
-0.267783 0.076772 0.089049
-0.265976 0.077926 0.091003
-0.264047 0.077926 0.091503
-0.262246 0.079077 0.093452
-0.260319 0.079077 0.093951
-0.258524 0.080226 0.095896
-0.256599 0.080226 0.096395
-0.254810 0.081373 0.098334
-0.252887 0.081373 0.098833
-0.251103 0.082517 0.100768
-0.249182 0.082517 0.101266
-0.247261 0.082517 0.101764
-0.245485 0.083658 0.103694
-0.243566 0.083658 0.104192
-0.241647 0.083658 0.104690
-0.239879 0.084798 0.106615
-0.237962 0.084798 0.107112
-0.236045 0.084798 0.107609
-0.234284 0.085935 0.109529
-0.232369 0.085935 0.110025
-0.230454 0.085935 0.110522
-0.228539 0.085935 0.111019
-0.226788 0.087070 0.112933
-0.225040 0.088202 0.114844
-0.223129 0.088202 0.115339
-0.221218 0.088202 0.115835
-0.219307 0.088202 0.116330
-0.217396 0.088202 0.116826
-0.215485 0.088202 0.117321
-0.213751 0.089332 0.119225
-0.211842 0.089332 0.119720
-0.209933 0.089332 0.120215
-0.208023 0.089332 0.120710
-0.206114 0.089332 0.121205
-0.204392 0.090460 0.123104
-0.202485 0.090460 0.123598
-0.200577 0.090460 0.124093
-0.198670 0.090460 0.124587
-0.196763 0.090460 0.125082
-0.195052 0.091585 0.126974
-0.193147 0.091585 0.127468
-0.191241 0.091585 0.127962
-0.189336 0.091585 0.128456
-0.187634 0.092708 0.130343
-0.185731 0.092708 0.130836
-0.183828 0.092708 0.131330
-0.181925 0.092708 0.131823
-0.180021 0.092708 0.132317
-0.178118 0.092708 0.132810
-0.176215 0.092708 0.133304
-0.174312 0.092708 0.133797
-0.172408 0.092708 0.134291
-0.170284 0.091585 0.133396
-0.168379 0.091585 0.133890
-0.166474 0.091585 0.134384
-0.164795 0.092708 0.136265
-0.162892 0.092708 0.136758
-0.160758 0.091585 0.135866
-0.158853 0.091585 0.136360
-0.156713 0.090460 0.135467
-0.154805 0.090460 0.135961
-0.152898 0.090460 0.136456
-0.150750 0.089332 0.135561
-0.148840 0.089332 0.136056
-0.146931 0.089332 0.136551
-0.145022 0.089332 0.137046
-0.142863 0.088202 0.136152
-0.140952 0.088202 0.136647
-0.139041 0.088202 0.137143
-0.136873 0.087070 0.136248
-0.134960 0.087070 0.136744
-0.133047 0.087070 0.137240
-0.131134 0.087070 0.137736
-0.128956 0.085935 0.136840
-0.127041 0.085935 0.137336
-0.125126 0.085935 0.137833
-0.122940 0.084798 0.136936
-0.121023 0.084798 0.137434
-0.118830 0.083658 0.136536
-0.116911 0.083658 0.137033
-0.114992 0.083658 0.137531
-0.112790 0.082517 0.136632
-0.110869 0.082517 0.137130
-0.108661 0.081373 0.136230
-0.106738 0.081373 0.136729
-0.104524 0.080226 0.135827
-0.102599 0.080226 0.136326
-0.100378 0.079077 0.135424
-0.098451 0.079077 0.135923
-0.096223 0.077926 0.135019
-0.094294 0.077926 0.135519
-0.092059 0.076772 0.134614
-0.090128 0.076772 0.135114
-0.087887 0.075616 0.134208
-0.085954 0.075616 0.134709
-0.083706 0.074458 0.133801
-0.081771 0.074458 0.134302
-0.079517 0.073297 0.133393
-0.077579 0.073297 0.133895
-0.075318 0.072133 0.132984
-0.073379 0.072133 0.133487
-0.071111 0.070967 0.132574
-0.069170 0.070967 0.133078
-0.066895 0.069799 0.132164
-0.064952 0.069799 0.132668
-0.062670 0.068629 0.131752
-0.060725 0.068629 0.132257
-0.058436 0.067455 0.131340
-0.056489 0.067455 0.131845
-0.054193 0.066280 0.130927
-0.052244 0.066280 0.131433
-0.049942 0.065102 0.130513
-0.047990 0.065102 0.131019
-0.045681 0.063921 0.130099
-0.043728 0.063921 0.130605
-0.041412 0.062738 0.129683
-0.039090 0.061552 0.128759
-0.037133 0.061552 0.129266
-0.034805 0.060364 0.128341
-0.032472 0.059174 0.127413
-0.030510 0.059174 0.127922
-0.028170 0.057980 0.126993
-0.026206 0.057980 0.127502
-0.023859 0.056785 0.126572
-0.021893 0.056785 0.127081
-0.019539 0.055586 0.126150
-0.017571 0.055586 0.126660
-0.015210 0.054386 0.125727
-0.012844 0.053182 0.124791
-0.010871 0.053182 0.125303
-0.008498 0.051977 0.124366
-0.006524 0.051977 0.124878
-0.004143 0.050768 0.123940
-0.002167 0.050768 0.124452
0.000221 0.049557 0.123513
0.002614 0.048343 0.122571
0.004595 0.048343 0.123085
0.006995 0.047127 0.122142
0.008977 0.047127 0.122656
0.011385 0.045908 0.121711
0.013370 0.045908 0.122226
0.015784 0.044687 0.121280
0.017771 0.044687 0.121795
0.020193 0.043463 0.120847
0.022183 0.043463 0.121363
0.024612 0.042236 0.120414
0.026603 0.042236 0.120931
0.029040 0.041007 0.119980
0.031033 0.041007 0.120497
0.033027 0.041007 0.121014
0.035473 0.039775 0.120062
0.037469 0.039775 0.120580
0.039464 0.039775 0.121097
0.041920 0.038540 0.120145
0.044381 0.037303 0.119190
0.046381 0.037303 0.119709
0.048850 0.036063 0.118753
0.050852 0.036063 0.119272
0.053328 0.034820 0.118315
0.055332 0.034820 0.118835
0.057816 0.033575 0.117876
0.060305 0.032326 0.116915
0.062314 0.032326 0.117435
0.064810 0.031076 0.116473
0.066821 0.031076 0.116994
0.069325 0.029822 0.116030
0.071338 0.029822 0.116552
0.073351 0.029822 0.117074
0.075865 0.028566 0.116109
0.077880 0.028566 0.116632
0.080402 0.027307 0.115665
0.082419 0.027307 0.116188
0.084949 0.026045 0.115220
0.086968 0.026045 0.115744
0.090025 0.023513 0.113277
0.092048 0.023513 0.113802
0.094597 0.022243 0.112828
0.097151 0.020971 0.111852
0.099710 0.019695 0.110874
0.102275 0.018417 0.109894
0.104308 0.018417 0.110421
0.106881 0.017135 0.109439
0.108916 0.017135 0.109967
0.111497 0.015851 0.108983
0.113534 0.015851 0.109512
0.116123 0.014565 0.108527
0.118718 0.013275 0.107539
0.120760 0.013275 0.108069
0.123362 0.011982 0.107080
0.125406 0.011982 0.107610
0.128017 0.010687 0.106620
0.130063 0.010687 0.107150
0.132109 0.010687 0.107681
0.134156 0.010687 0.108211
0.136202 0.010687 0.108742
0.137670 0.011982 0.110790
0.139714 0.011982 0.111320
0.141758 0.011982 0.111850
0.143219 0.013275 0.113892
0.145261 0.013275 0.114422
0.147302 0.013275 0.114951
0.148755 0.014565 0.116988
0.150795 0.014565 0.117517
0.152834 0.014565 0.118046
0.154874 0.014565 0.118574
0.156317 0.015851 0.120605
0.158354 0.015851 0.121133
0.160391 0.015851 0.121661
0.162428 0.015851 0.122190
0.164466 0.015851 0.122718
0.166503 0.015851 0.123246
0.167931 0.017135 0.125269
0.169967 0.017135 0.125797
0.172002 0.017135 0.126325
0.174037 0.017135 0.126852
0.175455 0.018417 0.128869
0.177488 0.018417 0.129396
0.179521 0.018417 0.129923
0.181554 0.018417 0.130450
0.183586 0.018417 0.130978
0.185619 0.018417 0.131505
0.187024 0.019695 0.133514
0.189054 0.019695 0.134041
0.191085 0.019695 0.134567
0.193115 0.019695 0.135094
0.195146 0.019695 0.135620
0.197176 0.019695 0.136147
0.183005 0.051977 0.174022
0.182558 0.056785 0.180095
0.182715 0.060364 0.184743
0.182871 0.063921 0.189361
0.183026 0.067455 0.193950
0.182584 0.072133 0.199857
0.182739 0.075616 0.204380
0.182893 0.079077 0.208874
0.183045 0.082517 0.213341
0.183197 0.085935 0.217780
0.183935 0.088202 0.220889
0.184083 0.091585 0.225282
0.185401 0.092708 0.227069
0.186130 0.094947 0.230140
0.186271 0.098289 0.234478
0.186994 0.100505 0.237518
0.187714 0.102712 0.240546
0.189015 0.103813 0.242299
0.189729 0.106007 0.245308
0.191609 0.106007 0.245796
0.192316 0.108192 0.248792
0.193606 0.109281 0.250528
0.194893 0.110368 0.252261
0.196178 0.111453 0.253990
0.197459 0.112535 0.255716
0.198739 0.113616 0.257438
0.200016 0.114694 0.259157
0.201290 0.115770 0.260873
0.201971 0.117916 0.263811
0.203240 0.118985 0.265517
0.204505 0.120053 0.267219
0.205769 0.121118 0.268918
0.207029 0.122181 0.270613
0.208288 0.123242 0.272305
0.209543 0.124301 0.273994
0.210797 0.125358 0.275679
0.212047 0.126413 0.277361
0.213296 0.127466 0.279039
0.213946 0.129564 0.281909
0.215189 0.130611 0.283578
0.216429 0.131655 0.285244
0.217666 0.132697 0.286906
0.218902 0.133738 0.288566
0.220135 0.134776 0.290221
0.220767 0.136846 0.293050
0.221994 0.137878 0.294696
0.223219 0.138908 0.296340
0.224442 0.139936 0.297980
0.225662 0.140962 0.299616
0.226880 0.141986 0.301250
0.228095 0.143007 0.302881
0.229308 0.144027 0.304508
0.231122 0.144027 0.304978
0.232331 0.145045 0.306602
0.234142 0.145045 0.307072
0.235954 0.145045 0.307541
0.237157 0.146061 0.309161
0.238968 0.146061 0.309630
0.240778 0.146061 0.310100
0.242588 0.146061 0.310569
0.245014 0.145045 0.309891
0.246826 0.145045 0.310360
0.248019 0.146061 0.311977
0.249829 0.146061 0.312447
0.252262 0.145045 0.311770
0.255328 0.143007 0.309942
0.257774 0.141986 0.309261
0.260860 0.139936 0.307423
0.263318 0.138908 0.306737
0.266424 0.136846 0.304889
0.270190 0.133738 0.301864
0.273978 0.130611 0.298822
0.278449 0.126413 0.294578
0.282288 0.123242 0.291493
0.284138 0.123242 0.291973
0.285988 0.123242 0.292452
0.287838 0.123242 0.292932
0.289688 0.123242 0.293412
0.290188 0.125358 0.296265
0.292035 0.125358 0.296743
0.294559 0.124301 0.296038
0.296407 0.124301 0.296517
0.298255 0.124301 0.296996
0.300103 0.124301 0.297475
0.301951 0.124301 0.297955
0.303800 0.124301 0.298434
0.306338 0.123242 0.297729
0.308188 0.123242 0.298209
0.310038 0.123242 0.298688
0.311888 0.123242 0.299168
0.313738 0.123242 0.299648
0.316289 0.122181 0.298943
0.318141 0.122181 0.299424
0.319993 0.122181 0.299904
0.321845 0.122181 0.300384
0.323696 0.122181 0.300864
0.326260 0.121118 0.300160
0.327400 0.122181 0.301825
0.329967 0.121118 0.301122
0.332539 0.120053 0.300417
0.334395 0.120053 0.300899
0.336974 0.118985 0.300193
0.338832 0.118985 0.300675
0.341418 0.117916 0.299969
0.343277 0.117916 0.300451
0.345137 0.117916 0.300933
0.347732 0.116844 0.300227
0.349593 0.116844 0.300709
0.352196 0.115770 0.300002
0.354059 0.115770 0.300485
0.355922 0.115770 0.300968
0.358533 0.114694 0.300260
0.361150 0.113616 0.299551
0.363016 0.113616 0.300035
0.365640 0.112535 0.299325
0.368269 0.111453 0.298613
0.370140 0.111453 0.299098
0.372776 0.110368 0.298385
0.375418 0.109281 0.297671
0.377292 0.109281 0.298157
0.379941 0.108192 0.297442
0.381817 0.108192 0.297929
0.384473 0.107100 0.297213
0.387135 0.106007 0.296495
0.389015 0.106007 0.296983
0.390895 0.106007 0.297470
0.393566 0.104911 0.296752
0.396242 0.103813 0.296033
0.398924 0.102712 0.295312
0.401611 0.101610 0.294589
0.404303 0.100505 0.293866
0.407002 0.099398 0.293140
0.409705 0.098289 0.292414
0.412414 0.097177 0.291685
0.415129 0.096063 0.290956
0.417849 0.094947 0.290224
0.421404 0.092708 0.288264
0.424139 0.091585 0.287528
0.427717 0.089332 0.285555
0.430467 0.088202 0.284814
0.433223 0.087070 0.284071
0.436834 0.084798 0.282084
0.441319 0.081373 0.278838
-0.360848 -0.016190 -0.051171
-0.358907 -0.009453 -0.042017
-0.356955 -0.004118 -0.034660
-0.354988 -0.000148 -0.029051
-0.353034 0.003796 -0.023480
-0.351092 0.007714 -0.017946
-0.349164 0.011606 -0.012448
-0.347248 0.015472 -0.006987
-0.345388 0.020587 0.000064
-0.343499 0.024394 0.005443
-0.341575 0.026918 0.009183
-0.339659 0.029432 0.012907
-0.337803 0.033181 0.018204
-0.335906 0.035668 0.021888
-0.333962 0.036907 0.023984
-0.332079 0.039377 0.027644
-0.330145 0.040608 0.029726
-0.328215 0.041837 0.031804
-0.326289 0.043062 0.033878
-0.324433 0.045506 0.037497
-0.322517 0.046724 0.039558
-0.320537 0.046724 0.040072
-0.318628 0.047939 0.042127
-0.316722 0.049152 0.044179
-0.314896 0.051570 0.047757
-0.313001 0.052775 0.049796
-0.311110 0.053978 0.051830
-0.309142 0.053978 0.052341
-0.307257 0.055178 0.054370
-0.305376 0.056375 0.056396
-0.303499 0.057570 0.058417
-0.301626 0.058762 0.060434
-0.299757 0.059952 0.062446
-0.297892 0.061139 0.064454
-0.296030 0.062324 0.066458
-0.294173 0.063506 0.068458
-0.292320 0.064686 0.070454
-0.290470 0.065863 0.072445
-0.288523 0.065863 0.072950
-0.286679 0.067038 0.074937
-0.284840 0.068211 0.076919
-0.282896 0.068211 0.077423
-0.281063 0.069380 0.079401
-0.279233 0.070548 0.081375
-0.277294 0.070548 0.081878
-0.275469 0.071713 0.083847
-0.273532 0.071713 0.084349
-0.271714 0.072876 0.086313
-0.269900 0.074036 0.088274
-0.267967 0.074036 0.088775
-0.266158 0.075193 0.090731
-0.264227 0.075193 0.091231
-0.262424 0.076349 0.093182
-0.260495 0.076349 0.093682
-0.258698 0.077502 0.095629
-0.256771 0.077502 0.096129
-0.254979 0.078652 0.098071
-0.253054 0.078652 0.098570
-0.251269 0.079800 0.100507
-0.249346 0.079800 0.101006
-0.247423 0.079800 0.101504
-0.245645 0.080946 0.103437
-0.243724 0.080946 0.103935
-0.241803 0.080946 0.104433
-0.240032 0.082090 0.106360
-0.238113 0.082090 0.106858
-0.236194 0.082090 0.107355
-0.234432 0.083231 0.109278
-0.232515 0.083231 0.109775
-0.230598 0.083231 0.110272
-0.228843 0.084369 0.112189
-0.226928 0.084369 0.112686
-0.225178 0.085506 0.114599
-0.223265 0.085506 0.115095
-0.221352 0.085506 0.115591
-0.219439 0.085506 0.116087
-0.217699 0.086639 0.117994
-0.215788 0.086639 0.118490
-0.213877 0.086639 0.118985
-0.211966 0.086639 0.119481
-0.210055 0.086639 0.119976
-0.208143 0.086639 0.120472
-0.206417 0.087771 0.122373
-0.204508 0.087771 0.122868
-0.202599 0.087771 0.123363
-0.200690 0.087771 0.123858
-0.198780 0.087771 0.124353
-0.197065 0.088900 0.126248
-0.195158 0.088900 0.126742
-0.193251 0.088900 0.127237
-0.191344 0.088900 0.127731
-0.189638 0.090027 0.129621
-0.187733 0.090027 0.130115
-0.185828 0.090027 0.130609
-0.183923 0.090027 0.131103
-0.182017 0.090027 0.131597
-0.180112 0.090027 0.132091
-0.178207 0.090027 0.132585
-0.176302 0.090027 0.133079
-0.174397 0.090027 0.133573
-0.172491 0.090027 0.134067
-0.170365 0.088900 0.133171
-0.168458 0.088900 0.133665
-0.166551 0.088900 0.134160
-0.164871 0.090027 0.136043
-0.162965 0.090027 0.136537
-0.160829 0.088900 0.135644
-0.158922 0.088900 0.136138
-0.156780 0.087771 0.135243
-0.154870 0.087771 0.135738
-0.152961 0.087771 0.136233
-0.151052 0.087771 0.136728
-0.148899 0.086639 0.135834
-0.146988 0.086639 0.136329
-0.145077 0.086639 0.136825
-0.142916 0.085506 0.135929
-0.141003 0.085506 0.136425
-0.139090 0.085506 0.136921
-0.137177 0.085506 0.137417
-0.135005 0.084369 0.136521
-0.133090 0.084369 0.137018
-0.131175 0.084369 0.137514
-0.128995 0.083231 0.136617
-0.127078 0.083231 0.137114
-0.125161 0.083231 0.137611
-0.122972 0.082090 0.136714
-0.121053 0.082090 0.137211
-0.118858 0.080946 0.136312
-0.116937 0.080946 0.136810
-0.115016 0.080946 0.137308
-0.112812 0.079800 0.136408
-0.110889 0.079800 0.136907
-0.108679 0.078652 0.136006
-0.106754 0.078652 0.136505
-0.104537 0.077502 0.135602
-0.102610 0.077502 0.136102
-0.100387 0.076349 0.135198
-0.098458 0.076349 0.135698
-0.096227 0.075193 0.134793
-0.094296 0.075193 0.135294
-0.092060 0.074036 0.134387
-0.090127 0.074036 0.134888
-0.087883 0.072876 0.133980
-0.085948 0.072876 0.134482
-0.083698 0.071713 0.133572
-0.081761 0.071713 0.134075
-0.079504 0.070548 0.133164
-0.077565 0.070548 0.133667
-0.075301 0.069380 0.132754
-0.073360 0.069380 0.133258
-0.071089 0.068211 0.132344
-0.069146 0.068211 0.132848
-0.066869 0.067038 0.131933
-0.064924 0.067038 0.132437
-0.062639 0.065863 0.131521
-0.060692 0.065863 0.132026
-0.058401 0.064686 0.131108
-0.056452 0.064686 0.131613
-0.054154 0.063506 0.130694
-0.051851 0.062324 0.129773
-0.049898 0.062324 0.130280
-0.047588 0.061139 0.129357
-0.045632 0.061139 0.129864
-0.043316 0.059952 0.128940
-0.041358 0.059952 0.129448
-0.039035 0.058762 0.128522
-0.037075 0.058762 0.129031
-0.034744 0.057570 0.128104
-0.032409 0.056375 0.127175
-0.030445 0.056375 0.127684
-0.028103 0.055178 0.126754
-0.026137 0.055178 0.127264
-0.023787 0.053978 0.126332
-0.021819 0.053978 0.126842
-0.019462 0.052775 0.125909
-0.017101 0.051570 0.124974
-0.015128 0.051570 0.125486
-0.012759 0.050362 0.124549
-0.010785 0.050362 0.125061
-0.008409 0.049152 0.124123
-0.006433 0.049152 0.124636
-0.004050 0.047939 0.123696
-0.002071 0.047939 0.124209
0.000319 0.046724 0.123268
0.002715 0.045506 0.122325
0.004698 0.045506 0.122840
0.007101 0.044286 0.121895
0.009085 0.044286 0.122410
0.011496 0.043062 0.121464
0.013482 0.043062 0.121979
0.015469 0.043062 0.122494
0.017889 0.041837 0.121548
0.019878 0.041837 0.122063
0.022305 0.040608 0.121115
0.024296 0.040608 0.121632
0.026731 0.039377 0.120682
0.028724 0.039377 0.121199
0.031166 0.038143 0.120247
0.033161 0.038143 0.120765
0.035157 0.038143 0.121282
0.037608 0.036907 0.120330
0.040065 0.035668 0.119376
0.042064 0.035668 0.119894
0.044528 0.034426 0.118939
0.046530 0.034426 0.119458
0.049002 0.033181 0.118501
0.051479 0.031934 0.117541
0.053485 0.031934 0.118062
0.055970 0.030684 0.117101
0.057978 0.030684 0.117622
0.060470 0.029432 0.116659
0.062481 0.029432 0.117181
0.064980 0.028177 0.116217
0.066993 0.028177 0.116739
0.069501 0.026918 0.115773
0.071516 0.026918 0.116296
0.073531 0.026918 0.116818
0.076048 0.025658 0.115852
0.078065 0.025658 0.116375
0.080590 0.024394 0.115407
0.083632 0.021859 0.112940
0.086171 0.020587 0.111966
0.088197 0.020587 0.112491
0.090744 0.019312 0.111514
0.093297 0.018035 0.110536
0.095327 0.018035 0.111062
0.097888 0.016755 0.110082
0.100454 0.015472 0.109100
0.102489 0.015472 0.109628
0.105063 0.014186 0.108644
0.107100 0.014186 0.109172
0.109682 0.012897 0.108187
0.111721 0.012897 0.108716
0.114311 0.011606 0.107729
0.116353 0.011606 0.108258
0.118950 0.010311 0.107269
0.121554 0.009014 0.106279
0.123600 0.009014 0.106809
0.126211 0.007714 0.105817
0.128829 0.006411 0.104822
0.130308 0.007714 0.106879
0.132357 0.007714 0.107410
0.134405 0.007714 0.107942
0.136454 0.007714 0.108473
0.138502 0.007714 0.109004
0.139970 0.009014 0.111054
0.142016 0.009014 0.111585
0.144062 0.009014 0.112115
0.146109 0.009014 0.112646
0.148155 0.009014 0.113176
0.150201 0.009014 0.113707
0.151654 0.010311 0.115749
0.153698 0.010311 0.116279
0.155742 0.010311 0.116809
0.157187 0.011606 0.118846
0.159229 0.011606 0.119376
0.161271 0.011606 0.119905
0.162708 0.012897 0.121936
0.164748 0.012897 0.122465
0.166787 0.012897 0.122994
0.168827 0.012897 0.123523
0.170254 0.014186 0.125548
0.172292 0.014186 0.126076
0.174329 0.014186 0.126605
0.176366 0.014186 0.127133
0.178403 0.014186 0.127661
0.179819 0.015472 0.129679
0.181854 0.015472 0.130207
0.183889 0.015472 0.130735
0.185924 0.015472 0.131262
0.187959 0.015472 0.131790
0.189994 0.015472 0.132318
0.191395 0.016755 0.134329
0.193428 0.016755 0.134856
0.195461 0.016755 0.135383
0.197494 0.016755 0.135910
0.183298 0.049152 0.173832
0.182849 0.053978 0.179912
0.182404 0.058762 0.185941
0.182561 0.062324 0.190555
0.182717 0.065863 0.195141
0.182872 0.069380 0.199697
0.182433 0.074036 0.205562
0.182587 0.077502 0.210053
0.182741 0.080946 0.214516
0.183482 0.083231 0.217641
0.183632 0.086639 0.222058
0.184367 0.088900 0.225152
0.185100 0.091152 0.228233
0.185829 0.093394 0.231302
0.186555 0.095628 0.234358
0.186694 0.098960 0.238673
0.187415 0.101171 0.241699
0.188716 0.102273 0.243451
0.189431 0.104470 0.246458
0.190726 0.105565 0.248200
0.192019 0.106658 0.249939
0.193309 0.107749 0.251674
0.194596 0.108837 0.253406
0.195881 0.109923 0.255134
0.197163 0.111008 0.256858
0.198443 0.112090 0.258580
0.199131 0.114247 0.261528
0.200405 0.115322 0.263240
0.201676 0.116396 0.264948
0.202945 0.117467 0.266652
0.204211 0.118536 0.268353
0.205475 0.119603 0.270051
0.206736 0.120667 0.271745
0.207994 0.121730 0.273436
0.209251 0.122790 0.275123
0.210504 0.123849 0.276807
0.211755 0.124905 0.278488
0.213004 0.125959 0.280166
0.213654 0.128061 0.283034
0.214897 0.129109 0.284701
0.216138 0.130155 0.286366
0.217376 0.131198 0.288027
0.218015 0.133280 0.290866
0.219247 0.134317 0.292518
0.220477 0.135353 0.294166
0.221705 0.136386 0.295812
0.222930 0.137418 0.297454
0.224153 0.138447 0.299093
0.225373 0.139474 0.300729
0.226591 0.140500 0.302361
0.227807 0.141523 0.303990
0.229020 0.142544 0.305617
0.230834 0.142544 0.306087
0.232043 0.143564 0.307709
0.233855 0.143564 0.308179
0.235667 0.143564 0.308649
0.236870 0.144581 0.310268
0.238681 0.144581 0.310737
0.240491 0.144581 0.311206
0.242301 0.144581 0.311676
0.244727 0.143564 0.310998
0.246539 0.143564 0.311468
0.247732 0.144581 0.313084
0.250163 0.143564 0.312408
0.252599 0.142544 0.311731
0.255040 0.141523 0.311052
0.257486 0.140500 0.310372
0.261207 0.137418 0.307379
0.263668 0.136386 0.306693
0.266778 0.134317 0.304842
0.269899 0.132240 0.302984
0.274341 0.128061 0.298769
0.278818 0.123849 0.294521
0.282662 0.120667 0.291432
0.283845 0.121730 0.293103
0.285695 0.121730 0.293583
0.287545 0.121730 0.294063
0.289395 0.121730 0.294543
0.290570 0.122790 0.296209
0.292418 0.122790 0.296688
0.294266 0.122790 0.297167
0.296795 0.121730 0.296461
0.298645 0.121730 0.296941
0.300495 0.121730 0.297421
0.302345 0.121730 0.297900
0.304195 0.121730 0.298380
0.306045 0.121730 0.298860
0.307895 0.121730 0.299340
0.310440 0.120667 0.298635
0.312292 0.120667 0.299115
0.314144 0.120667 0.299595
0.315995 0.120667 0.300076
0.318551 0.119603 0.299371
0.320405 0.119603 0.299852
0.322259 0.119603 0.300332
0.324112 0.119603 0.300813
0.325966 0.119603 0.301294
0.327820 0.119603 0.301774
0.330390 0.118536 0.301071
0.332245 0.118536 0.301552
0.334823 0.117467 0.300847
0.337405 0.116396 0.300141
0.339264 0.116396 0.300624
0.341123 0.116396 0.301106
0.343715 0.115322 0.300399
0.345576 0.115322 0.300882
0.348174 0.114247 0.300175
0.350037 0.114247 0.300658
0.351900 0.114247 0.301141
0.354507 0.113169 0.300433
0.356372 0.113169 0.300917
0.358987 0.112090 0.300208
0.360854 0.112090 0.300692
0.363475 0.111008 0.299982
0.366102 0.109923 0.299271
0.367973 0.109923 0.299756
0.370607 0.108837 0.299044
0.373246 0.107749 0.298331
0.375121 0.107749 0.298817
0.377767 0.106658 0.298103
0.379644 0.106658 0.298589
0.382297 0.105565 0.297874
0.384957 0.104470 0.297157
0.386837 0.104470 0.297644
0.389504 0.103372 0.296927
0.391386 0.103372 0.297415
0.394060 0.102273 0.296696
0.396739 0.101171 0.295976
0.399424 0.100067 0.295254
0.402114 0.098960 0.294531
0.404810 0.097852 0.293806
0.407512 0.096741 0.293080
0.410219 0.095628 0.292353
0.412931 0.094512 0.291623
0.415649 0.093394 0.290893
0.418373 0.092274 0.290161
0.421931 0.090027 0.288198
0.424670 0.088900 0.287461
0.428253 0.086639 0.285487
0.431006 0.085506 0.284745
0.433766 0.084369 0.284001
0.438236 0.080946 0.280764
0.446194 0.072876 0.272464
-0.359089 -0.017899 -0.049352
-0.357158 -0.011152 -0.040208
-0.355214 -0.005809 -0.032859
-0.353253 -0.001833 -0.027256
-0.351304 0.002116 -0.021691
-0.349368 0.006039 -0.016163
-0.347445 0.009936 -0.010671
-0.345579 0.015093 -0.003580
-0.343683 0.018931 0.001828
-0.341800 0.022743 0.007201
-0.339879 0.025271 0.010937
-0.337967 0.027788 0.014658
-0.336117 0.031543 0.019948
-0.334223 0.034033 0.023629
-0.332338 0.036512 0.027294
-0.330402 0.037747 0.029379
-0.328469 0.038980 0.031460
-0.326541 0.040210 0.033536
-0.324617 0.041438 0.035608
-0.322698 0.042663 0.037675
-0.320782 0.043885 0.039738
-0.318870 0.045105 0.041796
-0.316963 0.046322 0.043850
-0.315059 0.047537 0.045899
-0.313160 0.048748 0.047945
-0.311265 0.049958 0.049985
-0.309373 0.051165 0.052022
-0.307486 0.052369 0.054054
-0.305603 0.053570 0.056082
-0.303724 0.054769 0.058105
-0.301848 0.055966 0.060125
-0.299977 0.057160 0.062140
-0.298110 0.058351 0.064150
-0.296246 0.059540 0.066157
-0.294387 0.060727 0.068159
-0.292531 0.061911 0.070157
-0.290580 0.061911 0.070663
-0.288730 0.063092 0.072656
-0.286884 0.064271 0.074645
-0.284937 0.064271 0.075150
-0.283097 0.065448 0.077135
-0.281261 0.066622 0.079115
-0.279318 0.066622 0.079619
-0.277488 0.067793 0.081594
-0.275662 0.068963 0.083566
-0.273723 0.068963 0.084069
-0.271902 0.070129 0.086035
-0.270086 0.071294 0.087998
-0.268151 0.071294 0.088500
-0.266340 0.072455 0.090458
-0.264407 0.072455 0.090959
-0.262602 0.073615 0.092912
-0.260671 0.073615 0.093413
-0.258872 0.074772 0.095362
-0.256943 0.074772 0.095862
-0.255149 0.075926 0.097806
-0.253222 0.075926 0.098306
-0.251435 0.077078 0.100246
-0.249510 0.077078 0.100745
-0.247728 0.078228 0.102680
-0.245805 0.078228 0.103179
-0.243882 0.078228 0.103677
-0.242107 0.079376 0.105607
-0.240186 0.079376 0.106106
-0.238265 0.079376 0.106604
-0.236344 0.079376 0.107102
-0.234580 0.080521 0.109026
-0.232661 0.080521 0.109524
-0.230742 0.080521 0.110021
-0.228984 0.081663 0.111941
-0.227067 0.081663 0.112438
-0.225316 0.082804 0.114353
-0.223401 0.082804 0.114850
-0.221655 0.083942 0.116760
-0.219742 0.083942 0.117256
-0.217829 0.083942 0.117752
-0.215916 0.083942 0.118248
-0.214003 0.083942 0.118744
-0.212090 0.083942 0.119241
-0.210177 0.083942 0.119737
-0.208446 0.085077 0.121640
-0.206535 0.085077 0.122136
-0.204624 0.085077 0.122631
-0.202713 0.085077 0.123127
-0.200802 0.085077 0.123622
-0.199083 0.086210 0.125520
-0.197174 0.086210 0.126015
-0.195265 0.086210 0.126510
-0.193356 0.086210 0.127005
-0.191646 0.087341 0.128897
-0.189739 0.087341 0.129392
-0.187832 0.087341 0.129886
-0.185925 0.087341 0.130381
-0.184017 0.087341 0.130875
-0.182110 0.087341 0.131370
-0.180203 0.087341 0.131864
-0.178296 0.087341 0.132359
-0.176389 0.087341 0.132853
-0.174482 0.087341 0.133348
-0.172575 0.087341 0.133842
-0.170446 0.086210 0.132945
-0.168537 0.086210 0.133440
-0.166628 0.086210 0.133935
-0.164946 0.087341 0.135820
-0.163039 0.087341 0.136315
-0.160900 0.086210 0.135420
-0.158991 0.086210 0.135915
-0.157082 0.086210 0.136410
-0.154936 0.085077 0.135515
-0.153024 0.085077 0.136011
-0.151113 0.085077 0.136506
-0.148958 0.083942 0.135610
-0.147045 0.083942 0.136106
-0.145132 0.083942 0.136602
-0.143219 0.083942 0.137098
-0.141054 0.082804 0.136202
-0.139139 0.082804 0.136699
-0.137224 0.082804 0.137195
-0.135050 0.081663 0.136298
-0.133133 0.081663 0.136795
-0.131216 0.081663 0.137292
-0.129299 0.081663 0.137789
-0.127114 0.080521 0.136892
-0.125195 0.080521 0.137389
-0.123004 0.079376 0.136490
-0.121083 0.079376 0.136988
-0.119162 0.079376 0.137487
-0.116963 0.078228 0.136587
-0.115040 0.078228 0.137085
-0.112834 0.077078 0.136184
-0.110909 0.077078 0.136683
-0.108697 0.075926 0.135781
-0.106770 0.075926 0.136281
-0.104550 0.074772 0.135377
-0.102621 0.074772 0.135877
-0.100396 0.073615 0.134972
-0.098465 0.073615 0.135473
-0.096232 0.072455 0.134566
-0.094299 0.072455 0.135067
-0.092060 0.071294 0.134159
-0.090125 0.071294 0.134661
-0.087879 0.070129 0.133752
-0.085942 0.070129 0.134254
-0.083689 0.068963 0.133344
-0.081750 0.068963 0.133846
-0.079491 0.067793 0.132934
-0.077550 0.067793 0.133438
-0.075284 0.066622 0.132524
-0.073340 0.066622 0.133028
-0.071068 0.065448 0.132113
-0.069122 0.065448 0.132618
-0.066843 0.064271 0.131701
-0.064895 0.064271 0.132206
-0.062609 0.063092 0.131289
-0.060659 0.063092 0.131794
-0.058366 0.061911 0.130875
-0.056068 0.060727 0.129954
-0.054114 0.060727 0.130461
-0.051809 0.059540 0.129538
-0.049853 0.059540 0.130045
-0.047541 0.058351 0.129122
-0.045584 0.058351 0.129629
-0.043265 0.057160 0.128704
-0.041305 0.057160 0.129212
-0.038979 0.055966 0.128286
-0.037017 0.055966 0.128794
-0.034684 0.054769 0.127866
-0.032346 0.053570 0.126936
-0.030380 0.053570 0.127446
-0.028035 0.052369 0.126515
-0.026067 0.052369 0.127025
-0.023715 0.051165 0.126092
-0.021357 0.049958 0.125157
-0.019385 0.049958 0.125669
-0.017021 0.048748 0.124732
-0.015047 0.048748 0.125244
-0.012675 0.047537 0.124306
-0.010699 0.047537 0.124819
-0.008320 0.046322 0.123880
-0.006342 0.046322 0.124393
-0.003956 0.045105 0.123452
-0.001975 0.045105 0.123966
0.000005 0.045105 0.124479
0.002401 0.043885 0.123538
0.004801 0.042663 0.122594
0.006786 0.042663 0.123109
0.009194 0.041438 0.122164
0.011181 0.041438 0.122679
0.013596 0.040210 0.121732
0.015585 0.040210 0.122248
0.018007 0.038980 0.121300
0.019998 0.038980 0.121816
0.022428 0.037747 0.120867
0.024421 0.037747 0.121384
0.026415 0.037747 0.121900
0.028854 0.036512 0.120950
0.030849 0.036512 0.121467
0.033296 0.035274 0.120515
0.035294 0.035274 0.121033
0.037748 0.034033 0.120080
0.040207 0.032789 0.119124
0.042209 0.032789 0.119644
0.044676 0.031543 0.118687
0.047148 0.030294 0.117727
0.049154 0.030294 0.118248
0.051634 0.029042 0.117287
0.053643 0.029042 0.117808
0.056130 0.027788 0.116846
0.058141 0.027788 0.117367
0.060636 0.026531 0.116404
0.062648 0.026531 0.116925
0.065151 0.025271 0.115960
0.067166 0.025271 0.116483
0.069676 0.024008 0.115516
0.072192 0.022743 0.114547
0.074211 0.022743 0.115071
0.077240 0.020204 0.112603
0.079772 0.018931 0.111628
0.081798 0.018931 0.112153
0.084338 0.017654 0.111177
0.086366 0.017654 0.111703
0.088914 0.016375 0.110724
0.090944 0.016375 0.111251
0.093500 0.015093 0.110271
0.096061 0.013808 0.109289
0.098096 0.013808 0.109817
0.100665 0.012520 0.108833
0.102702 0.012520 0.109361
0.105279 0.011230 0.108376
0.107862 0.009936 0.107389
0.109904 0.009936 0.107918
0.112494 0.008640 0.106929
0.114538 0.008640 0.107459
0.117137 0.007341 0.106468
0.119741 0.006039 0.105476
0.121790 0.006039 0.106007
0.124402 0.004734 0.105012
0.127020 0.003427 0.104016
0.129073 0.003427 0.104548
0.131126 0.003427 0.105081
0.133179 0.003427 0.105613
0.134656 0.004734 0.107671
0.136707 0.004734 0.108203
0.138757 0.004734 0.108735
0.140808 0.004734 0.109267
0.142275 0.006039 0.111319
0.144323 0.006039 0.111850
0.146961 0.004734 0.110862
0.148420 0.006039 0.112912
0.150469 0.006039 0.113443
0.152517 0.006039 0.113974
0.154566 0.006039 0.114506
0.156016 0.007341 0.116550
0.158062 0.007341 0.117080
0.160108 0.007341 0.117611
0.162154 0.007341 0.118141
0.163594 0.008640 0.120179
0.165638 0.008640 0.120709
0.167682 0.008640 0.121239
0.169114 0.009936 0.123271
0.171156 0.009936 0.123800
0.173198 0.009936 0.124330
0.174622 0.011230 0.126356
0.176661 0.011230 0.126885
0.178701 0.011230 0.127414
0.180740 0.011230 0.127943
0.182155 0.012520 0.129963
0.184192 0.012520 0.130491
0.186229 0.012520 0.131019
0.188267 0.012520 0.131548
0.190304 0.012520 0.132076
0.192341 0.012520 0.132604
0.193741 0.013808 0.134617
0.195776 0.013808 0.135145
0.197811 0.013808 0.135672
0.183592 0.046322 0.173642
0.182537 0.052369 0.181115
0.182695 0.055966 0.185765
0.182851 0.059540 0.190385
0.182408 0.064271 0.196331
0.183160 0.066622 0.199538
0.182719 0.071294 0.205409
0.182873 0.074772 0.209905
0.183026 0.078228 0.214373
0.183178 0.081663 0.218813
0.183329 0.085077 0.223226
0.184065 0.087341 0.226318
0.184798 0.089596 0.229396
0.185528 0.091842 0.232463
0.186255 0.094078 0.235516
0.186979 0.096305 0.238558
0.187116 0.099629 0.242852
0.187835 0.101834 0.245863
0.189133 0.102933 0.247607
0.190428 0.104029 0.249348
0.191721 0.105124 0.251086
0.192427 0.107306 0.254065
0.194299 0.107306 0.254550
0.195585 0.108394 0.256277
0.196867 0.109480 0.258001
0.197559 0.111645 0.260954
0.198836 0.112724 0.262667
0.200110 0.113801 0.264378
0.201382 0.114876 0.266084
0.202651 0.115948 0.267788
0.203917 0.117019 0.269487
0.205181 0.118087 0.271184
0.206442 0.119153 0.272877
0.207701 0.120217 0.274567
0.208958 0.121279 0.276253
0.210211 0.122339 0.277936
0.211463 0.123397 0.279616
0.212712 0.124453 0.281292
0.213363 0.126558 0.284158
0.214606 0.127607 0.285825
0.215847 0.128654 0.287488
0.216489 0.130743 0.290330
0.217725 0.131784 0.291984
0.218957 0.132823 0.293635
0.220188 0.133860 0.295283
0.221416 0.134895 0.296927
0.222641 0.135928 0.298568
0.223864 0.136958 0.300206
0.225085 0.137987 0.301841
0.226303 0.139014 0.303472
0.227519 0.140039 0.305100
0.228733 0.141062 0.306725
0.230547 0.141062 0.307196
0.231756 0.142082 0.308817
0.233568 0.142082 0.309287
0.235380 0.142082 0.309757
0.236584 0.143101 0.311374
0.238394 0.143101 0.311844
0.240204 0.143101 0.312313
0.242014 0.143101 0.312782
0.244440 0.142082 0.312106
0.246252 0.142082 0.312576
0.247445 0.143101 0.314190
0.249876 0.142082 0.313516
0.252312 0.141062 0.312839
0.255381 0.139014 0.311012
0.258461 0.136958 0.309177
0.261554 0.134895 0.307335
0.264019 0.133860 0.306648
0.267132 0.131784 0.304795
0.270907 0.128654 0.301765
0.275361 0.124453 0.297537
0.279188 0.121279 0.294464
0.282368 0.119153 0.292564
0.284220 0.119153 0.293045
0.286072 0.119153 0.293525
0.287924 0.119153 0.294005
0.289776 0.119153 0.294485
0.291628 0.119153 0.294965
0.292801 0.120217 0.296633
0.294652 0.120217 0.297113
0.296502 0.120217 0.297592
