ply
format ascii 1.0
element vertex 1752
property float x
property float y
property float z
end_header
0.438588 0.128558 0.281155
0.439832 0.128558 0.280111
0.441076 0.128558 0.279067
0.443002 0.128449 0.279047
0.444245 0.128449 0.278004
0.446166 0.128340 0.277984
0.447408 0.128340 0.276941
0.448650 0.128340 0.275899
0.450565 0.128230 0.275881
0.451806 0.128230 0.274840
0.453047 0.128230 0.273799
0.454288 0.128230 0.272757
0.455529 0.128230 0.271716
0.457437 0.128122 0.271701
0.458677 0.128122 0.270661
0.459917 0.128122 0.269621
0.461157 0.128122 0.268580
0.463059 0.128013 0.268568
0.464297 0.128013 0.267529
0.465536 0.128013 0.266489
0.466116 0.128122 0.264419
0.467356 0.128122 0.263379
0.468596 0.128122 0.262338
0.469179 0.128230 0.260262
0.470420 0.128230 0.259221
0.471661 0.128230 0.258180
0.472247 0.128340 0.256099
0.473489 0.128340 0.255057
0.474077 0.128449 0.252971
0.475320 0.128449 0.251928
0.476563 0.128449 0.250885
0.477154 0.128558 0.248794
0.477747 0.128668 0.246700
0.478992 0.128668 0.245655
0.478934 0.128888 0.242501
0.478877 0.129109 0.239335
0.479473 0.129219 0.237224
0.479416 0.129441 0.234042
0.480014 0.129552 0.231920
0.479958 0.129775 0.228721
0.480559 0.129887 0.226589
0.480503 0.130111 0.223372
0.481106 0.130224 0.221231
0.481051 0.130449 0.217996
0.481655 0.130562 0.215845
0.481602 0.130788 0.212592
0.482208 0.130902 0.210430
0.482155 0.131129 0.207160
0.482764 0.131244 0.204988
0.482049 0.131587 0.200586
0.481995 0.131817 0.197281
0.482607 0.131932 0.195089
0.482554 0.132164 0.191767
0.483168 0.132280 0.189564
0.483116 0.132512 0.186223
0.483732 0.132628 0.184010
0.483681 0.132862 0.180650
0.484298 0.132979 0.178426
0.484248 0.133214 0.175048
0.484198 0.133450 0.171658
0.484819 0.133568 0.169416
0.484770 0.133805 0.166007
0.485393 0.133924 0.163754
0.485344 0.134162 0.160326
0.485970 0.134281 0.158062
0.486596 0.134401 0.155794
0.486550 0.134641 0.152340
0.487178 0.134761 0.150061
0.487133 0.135002 0.146587
0.487763 0.135123 0.144297
0.487719 0.135366 0.140803
0.487674 0.135609 0.137297
0.488986 0.135609 0.136196
0.489621 0.135731 0.133886
0.490258 0.135853 0.131573
0.490895 0.135976 0.129255
0.491534 0.136099 0.126932
0.492174 0.136221 0.124606
0.492815 0.136345 0.122276
0.493457 0.136468 0.119941
0.494100 0.136591 0.117602
0.494745 0.136715 0.115259
0.495391 0.136839 0.112911
0.496037 0.136963 0.110560
0.496685 0.137088 0.108204
0.497334 0.137213 0.105844
0.497306 0.137463 0.102226
0.497958 0.137588 0.099854
0.497931 0.137839 0.096216
0.498585 0.137965 0.093832
0.499240 0.138092 0.091444
0.498533 0.138472 0.086501
0.498507 0.138726 0.082815
0.497795 0.139110 0.077826
0.497767 0.139367 0.074107
0.497050 0.139754 0.069070
0.496328 0.140144 0.064006
0.495603 0.140535 0.058913
0.492070 0.141457 0.048450
0.449592 0.149737 -0.036464
0.450254 0.149885 -0.039185
0.451703 0.149885 -0.040401
0.452368 0.150034 -0.043128
0.453035 0.150183 -0.045861
0.453702 0.150333 -0.048598
0.454371 0.150483 -0.051342
0.454255 0.150783 -0.055621
0.455714 0.150783 -0.056844
0.456387 0.150934 -0.059604
0.457061 0.151085 -0.062369
0.457737 0.151236 -0.065140
0.458414 0.151388 -0.067916
0.459092 0.151540 -0.070698
0.458984 0.151845 -0.075046
0.459666 0.151998 -0.077843
0.459559 0.152304 -0.082218
0.460242 0.152458 -0.085031
0.460137 0.152767 -0.089435
0.460823 0.152921 -0.092263
0.460718 0.153232 -0.096694
0.461407 0.153387 -0.099539
0.461303 0.153699 -0.103998
0.461198 0.154013 -0.108476
0.461891 0.154170 -0.111347
0.461787 0.154486 -0.115853
0.460079 0.155120 -0.123663
0.456735 0.156082 -0.134864
0.447560 0.158208 -0.158117
0.315057 0.184926 -0.435990
0.317975 0.184700 -0.435149
0.318631 0.184926 -0.438989
0.319289 0.185152 -0.442839
0.321078 0.185152 -0.444340
0.322868 0.185152 -0.445842
0.323531 0.185379 -0.449705
0.325323 0.185379 -0.451208
0.327114 0.185379 -0.452711
0.327784 0.185607 -0.456587
0.328456 0.185835 -0.460472
0.330251 0.185835 -0.461979
0.330927 0.186064 -0.465876
0.330479 0.186523 -0.472186
-0.278228 0.182370 0.065125
-0.254518 0.179735 0.084090
-0.247382 0.179088 0.087643
-0.238528 0.178232 0.092829
-0.231509 0.177596 0.096321
-0.222803 0.176755 0.101423
-0.215897 0.176129 0.104857
-0.207335 0.175301 0.109877
-0.202229 0.174890 0.111651
-0.197146 0.174482 0.113417
-0.192087 0.174074 0.115175
-0.187051 0.173669 0.116924
-0.182039 0.173266 0.118666
-0.177050 0.172865 0.120399
-0.172084 0.172465 0.122125
-0.167140 0.172067 0.123842
-0.163836 0.171869 0.123992
-0.160539 0.171671 0.124142
-0.157250 0.171474 0.124291
-0.153968 0.171277 0.124440
-0.150694 0.171081 0.124588
-0.145838 0.170689 0.126287
-0.142585 0.170494 0.126432
-0.139338 0.170300 0.126578
-0.136099 0.170106 0.126723
-0.132867 0.169912 0.126868
-0.129643 0.169719 0.127013
-0.126426 0.169526 0.127157
-0.123216 0.169334 0.127301
-0.120013 0.169142 0.127445
-0.116818 0.168950 0.127588
-0.113630 0.168759 0.127731
-0.110449 0.168568 0.127873
-0.107275 0.168378 0.128016
-0.105627 0.168378 0.126632
-0.102462 0.168188 0.126776
-0.099304 0.167999 0.126919
-0.096154 0.167810 0.127062
-0.093010 0.167621 0.127205
-0.091369 0.167621 0.125828
-0.088234 0.167433 0.125971
-0.085107 0.167246 0.126115
-0.081986 0.167058 0.126258
-0.078872 0.166871 0.126401
-0.075765 0.166685 0.126543
-0.074133 0.166685 0.125174
-0.071035 0.166499 0.125318
-0.067944 0.166313 0.125461
-0.064860 0.166128 0.125604
-0.061782 0.165943 0.125747
-0.060158 0.165943 0.124384
-0.057089 0.165759 0.124528
-0.054027 0.165575 0.124671
-0.052406 0.165575 0.123311
-0.049352 0.165391 0.123456
-0.046305 0.165208 0.123600
-0.044688 0.165208 0.122243
-0.041649 0.165026 0.122389
-0.038618 0.164843 0.122534
-0.037004 0.164843 0.121180
-0.033981 0.164661 0.121326
-0.030964 0.164480 0.121473
-0.029354 0.164480 0.120121
-0.027743 0.164480 0.118770
-0.024737 0.164299 0.118919
-0.021737 0.164118 0.119067
-0.020130 0.164118 0.117719
-0.017139 0.163937 0.117869
-0.014154 0.163757 0.118018
-0.012550 0.163757 0.116673
-0.009574 0.163578 0.116823
-0.005238 0.163220 0.118464
-0.003640 0.163220 0.117123
-0.000683 0.163041 0.117273
0.002268 0.162863 0.117422
0.003862 0.162863 0.116084
0.006805 0.162686 0.116234
0.009741 0.162509 0.116384
0.011332 0.162509 0.115049
0.012924 0.162509 0.113714
0.017182 0.162155 0.115351
0.020098 0.161979 0.115501
0.021684 0.161979 0.114170
0.024591 0.161803 0.114322
0.026176 0.161803 0.112993
0.029075 0.161628 0.113145
0.031968 0.161453 0.113298
0.033549 0.161453 0.111971
0.036434 0.161279 0.112125
0.039313 0.161104 0.112278
0.040891 0.161104 0.110954
0.043762 0.160931 0.111108
0.045338 0.160931 0.109786
0.048201 0.160757 0.109941
0.049775 0.160757 0.108621
0.051349 0.160757 0.107300
0.231541 0.136598 0.312383
0.236565 0.136099 0.315529
0.239729 0.135850 0.316534
0.242881 0.135603 0.317537
0.246022 0.135357 0.318535
0.247348 0.135357 0.317422
0.248675 0.135357 0.316310
0.250001 0.135357 0.315197
0.252226 0.135234 0.315142
0.253551 0.135234 0.314030
0.254876 0.135234 0.312918
0.256201 0.135234 0.311806
0.257526 0.135234 0.310694
0.259743 0.135111 0.310643
0.261067 0.135111 0.309533
0.263278 0.134989 0.309483
0.264600 0.134989 0.308373
0.265923 0.134989 0.307263
0.267246 0.134989 0.306153
0.268568 0.134989 0.305043
0.269891 0.134989 0.303934
0.271214 0.134989 0.302824
0.272536 0.134989 0.301714
0.273859 0.134989 0.300604
0.275182 0.134989 0.299494
0.276504 0.134989 0.298384
0.277827 0.134989 0.297274
0.279150 0.134989 0.296165
0.280472 0.134989 0.295055
0.282664 0.134866 0.295018
0.284852 0.134744 0.294981
0.287898 0.134501 0.296014
0.290932 0.134259 0.297043
0.293103 0.134138 0.297005
0.295269 0.134017 0.296967
0.298280 0.133776 0.297991
0.300436 0.133656 0.297952
0.302589 0.133536 0.297913
0.304737 0.133417 0.297874
0.307718 0.133178 0.298892
0.309856 0.133059 0.298852
0.311990 0.132940 0.298813
0.314947 0.132704 0.299825
0.317071 0.132585 0.299785
0.319192 0.132467 0.299744
0.321309 0.132350 0.299704
0.323422 0.132232 0.299664
0.326343 0.131998 0.300670
0.327636 0.131998 0.299584
0.329738 0.131881 0.299544
0.332640 0.131648 0.300547
0.334732 0.131532 0.300507
0.336820 0.131415 0.300466
0.338905 0.131300 0.300426
0.340986 0.131184 0.300385
0.343063 0.131068 0.300345
0.345136 0.130953 0.300305
0.347206 0.130838 0.300265
0.349272 0.130723 0.300225
0.351335 0.130609 0.300185
0.353394 0.130494 0.300145
0.356225 0.130266 0.301136
0.357502 0.130266 0.300065
0.359550 0.130152 0.300025
0.361595 0.130038 0.299985
0.362869 0.130038 0.298916
0.364909 0.129925 0.298877
0.366946 0.129812 0.298839
0.368979 0.129699 0.298800
0.370250 0.129699 0.297734
0.372278 0.129586 0.297696
0.374303 0.129473 0.297659
0.376325 0.129361 0.297621
0.377592 0.129361 0.296557
0.379609 0.129248 0.296521
0.381622 0.129136 0.296485
0.382888 0.129136 0.295423
0.384897 0.129024 0.295387
0.386161 0.129024 0.294326
0.388165 0.128913 0.294292
0.390166 0.128801 0.294257
0.391428 0.128801 0.293198
0.393425 0.128690 0.293165
0.396148 0.128468 0.294155
0.397407 0.128468 0.293098
0.399393 0.128357 0.293065
0.401375 0.128246 0.293032
0.402632 0.128246 0.291977
0.404610 0.128136 0.291945
0.405866 0.128136 0.290891
0.407840 0.128026 0.290860
0.409810 0.127916 0.290829
0.411064 0.127916 0.289777
0.413029 0.127806 0.289747
0.414282 0.127806 0.288696
0.415535 0.127806 0.287645
0.417495 0.127697 0.287616
0.419452 0.127587 0.287588
0.420702 0.127587 0.286539
0.422655 0.127478 0.286511
0.423904 0.127478 0.285463
0.425852 0.127369 0.285436
0.427797 0.127260 0.285410
0.429044 0.127260 0.284363
0.430985 0.127151 0.284338
0.432231 0.127151 0.283292
0.434167 0.127043 0.283268
0.435412 0.127043 0.282223
0.436657 0.127043 0.281178
0.438588 0.126934 0.281155
0.439832 0.126934 0.280111
0.441076 0.126934 0.279067
0.443002 0.126826 0.279047
0.444245 0.126826 0.278004
0.446166 0.126718 0.277984
0.447408 0.126718 0.276941
0.448650 0.126718 0.275899
0.450565 0.126611 0.275881
0.451806 0.126611 0.274840
0.453047 0.126611 0.273799
0.454957 0.126503 0.273782
0.456197 0.126503 0.272742
0.457437 0.126503 0.271701
0.458677 0.126503 0.270661
0.459917 0.126503 0.269621
0.461820 0.126396 0.269608
0.463059 0.126396 0.268568
0.464297 0.126396 0.267529
0.465536 0.126396 0.266489
0.466116 0.126503 0.264419
0.467356 0.126503 0.263379
0.468596 0.126503 0.262338
0.469179 0.126611 0.260262
0.470420 0.126611 0.259221
0.471661 0.126611 0.258180
0.472902 0.126611 0.257139
0.473489 0.126718 0.255057
0.474731 0.126718 0.254015
0.475320 0.126826 0.251928
0.476563 0.126826 0.250885
0.477806 0.126826 0.249842
0.477747 0.127043 0.246700
0.478340 0.127151 0.244602
0.478934 0.127260 0.242501
0.478877 0.127478 0.239335
0.479473 0.127587 0.237224
0.479416 0.127806 0.234042
0.480014 0.127916 0.231920
0.479958 0.128136 0.228721
0.480559 0.128246 0.226589
0.480503 0.128468 0.223372
0.480448 0.128690 0.220144
0.481051 0.128801 0.217996
0.480996 0.129024 0.214750
0.481602 0.129136 0.212592
0.481548 0.129361 0.209329
0.482155 0.129473 0.207160
0.482102 0.129699 0.203879
0.482049 0.129925 0.200586
0.481995 0.130152 0.197281
0.482607 0.130266 0.195089
0.482554 0.130494 0.191767
0.483168 0.130609 0.189564
0.483116 0.130838 0.186223
0.483064 0.131068 0.182870
0.483681 0.131184 0.180650
0.483630 0.131415 0.177279
0.484248 0.131532 0.175048
0.484198 0.131764 0.171658
0.484819 0.131881 0.169416
0.484770 0.132115 0.166007
0.485393 0.132232 0.163754
0.485344 0.132467 0.160326
0.485296 0.132704 0.156885
0.486596 0.132704 0.155794
0.486550 0.132940 0.152340
0.487178 0.133059 0.150061
0.487133 0.133297 0.146587
0.487763 0.133417 0.144297
0.487719 0.133656 0.140803
0.487674 0.133896 0.137297
0.488986 0.133896 0.136196
0.489621 0.134017 0.133886
0.490258 0.134138 0.131573
0.490895 0.134259 0.129255
0.491534 0.134380 0.126932
0.492174 0.134501 0.124606
0.492815 0.134623 0.122276
0.493457 0.134744 0.119941
0.494100 0.134866 0.117602
0.494745 0.134989 0.115259
0.495391 0.135111 0.112911
0.496037 0.135234 0.110560
0.496685 0.135357 0.108204
0.497334 0.135480 0.105844
0.497306 0.135727 0.102226
0.497958 0.135850 0.099854
0.497931 0.136099 0.096216
0.498585 0.136223 0.093832
0.499240 0.136348 0.091444
0.498533 0.136723 0.086501
0.498507 0.136975 0.082815
0.497795 0.137353 0.077826
0.497767 0.137607 0.074107
0.497050 0.137989 0.069070
0.496328 0.138374 0.064006
0.495603 0.138761 0.058913
0.492070 0.139671 0.048450
0.449592 0.147846 -0.036464
0.451040 0.147846 -0.037680
0.451703 0.147993 -0.040401
0.452368 0.148140 -0.043128
0.453819 0.148140 -0.044346
0.454487 0.148287 -0.047079
0.455156 0.148435 -0.049818
0.455827 0.148583 -0.052563
0.455714 0.148880 -0.056844
0.456387 0.149029 -0.059604
0.457846 0.149029 -0.060829
0.458522 0.149178 -0.063595
0.459199 0.149327 -0.066367
0.459092 0.149627 -0.070698
0.459772 0.149777 -0.073485
0.460453 0.149928 -0.076278
0.460348 0.150230 -0.080646
0.461032 0.150382 -0.083454
0.460928 0.150686 -0.087850
0.461614 0.150838 -0.090674
0.461511 0.151144 -0.095098
0.461407 0.151451 -0.099539
0.462097 0.151605 -0.102389
0.461994 0.151914 -0.106859
0.461891 0.152224 -0.111347
0.462585 0.152380 -0.114224
0.461683 0.152848 -0.120378
0.458356 0.153794 -0.131536
0.453349 0.155074 -0.146204
0.316190 0.182370 -0.433651
0.317975 0.182370 -0.435149
0.319760 0.182370 -0.436647
0.320418 0.182593 -0.440489
0.321078 0.182816 -0.444340
0.322868 0.182816 -0.445842
0.323531 0.183041 -0.449705
0.325323 0.183041 -0.451208
0.325990 0.183265 -0.455082
0.327784 0.183265 -0.456587
0.329578 0.183265 -0.458092
0.330251 0.183491 -0.461979
0.330927 0.183716 -0.465876
0.330479 0.184170 -0.472186
-0.263524 0.178297 0.078818
-0.252719 0.177225 0.085769
-0.243819 0.176376 0.090976
-0.236764 0.175745 0.094483
-0.228013 0.174910 0.099606
-0.221072 0.174290 0.103054
-0.212466 0.173469 0.108094
-0.207335 0.173061 0.109877
-0.200540 0.172453 0.113253
-0.195467 0.172051 0.115013
-0.190417 0.171650 0.116765
-0.185391 0.171251 0.118509
-0.180389 0.170853 0.120244
-0.175409 0.170458 0.121972
-0.170452 0.170064 0.123692
-0.165518 0.169673 0.125404
-0.162220 0.169477 0.125552
-0.158928 0.169283 0.125700
-0.155645 0.169088 0.125847
-0.152368 0.168894 0.125994
-0.149100 0.168701 0.126140
-0.145838 0.168508 0.126287
-0.142585 0.168316 0.126432
-0.139338 0.168123 0.126578
-0.136099 0.167932 0.126723
-0.132867 0.167741 0.126868
-0.129643 0.167550 0.127013
-0.126426 0.167359 0.127157
-0.123216 0.167169 0.127301
-0.120013 0.166980 0.127445
-0.116818 0.166791 0.127588
-0.113630 0.166602 0.127731
-0.110449 0.166414 0.127873
-0.107275 0.166226 0.128016
-0.104109 0.166039 0.128158
-0.100949 0.165852 0.128299
-0.099304 0.165852 0.126919
-0.096154 0.165665 0.127062
-0.093010 0.165479 0.127205
-0.089874 0.165293 0.127347
-0.086744 0.165108 0.127489
-0.085107 0.165108 0.126115
-0.081986 0.164923 0.126258
-0.078872 0.164739 0.126401
-0.075765 0.164555 0.126543
-0.072666 0.164371 0.126686
-0.071035 0.164371 0.125318
-0.067944 0.164188 0.125461
-0.064860 0.164005 0.125604
-0.061782 0.163822 0.125747
-0.058712 0.163640 0.125890
-0.057089 0.163640 0.124528
-0.054027 0.163459 0.124671
-0.050971 0.163278 0.124815
-0.049352 0.163278 0.123456
-0.046305 0.163097 0.123600
-0.043265 0.162916 0.123745
-0.041649 0.162916 0.122389
-0.038618 0.162736 0.122534
-0.035593 0.162557 0.122679
-0.033981 0.162557 0.121326
-0.030964 0.162377 0.121473
-0.029354 0.162377 0.120121
-0.026346 0.162199 0.120269
-0.024737 0.162199 0.118919
-0.021737 0.162020 0.119067
-0.018744 0.161842 0.119216
-0.017139 0.161842 0.117869
-0.014154 0.161664 0.118018
-0.011176 0.161487 0.118167
-0.009574 0.161487 0.116823
-0.005238 0.161134 0.118464
-0.002279 0.160958 0.118612
-0.000683 0.160958 0.117273
0.002268 0.160782 0.117422
0.005212 0.160606 0.117571
0.006805 0.160606 0.116234
0.009741 0.160431 0.116384
0.011332 0.160431 0.115049
0.014261 0.160257 0.115200
0.015850 0.160257 0.113866
0.018770 0.160083 0.114019
0.021684 0.159909 0.114170
0.023270 0.159909 0.112840
0.027492 0.159562 0.114473
0.030387 0.159389 0.114624
0.031968 0.159389 0.113298
0.034855 0.159217 0.113450
0.036434 0.159217 0.112125
0.039313 0.159045 0.112278
0.042186 0.158874 0.112431
0.043762 0.158874 0.111108
0.046627 0.158702 0.111262
0.048201 0.158702 0.109941
0.049775 0.158702 0.108621
0.226480 0.135347 0.309214
0.235231 0.134358 0.316648
0.237482 0.134235 0.316591
0.240641 0.133991 0.317594
0.244696 0.133625 0.319648
0.246022 0.133625 0.318535
0.247348 0.133625 0.317422
0.248675 0.133625 0.316310
0.250901 0.133504 0.316254
0.252226 0.133504 0.315142
0.253551 0.133504 0.314030
0.254876 0.133504 0.312918
0.256201 0.133504 0.311806
0.258419 0.133383 0.311754
0.259743 0.133383 0.310643
0.261955 0.133262 0.310593
0.263278 0.133262 0.309483
0.264600 0.133262 0.308373
0.265923 0.133262 0.307263
0.267246 0.133262 0.306153
0.268568 0.133262 0.305043
0.269891 0.133262 0.303934
0.271214 0.133262 0.302824
0.272536 0.133262 0.301714
0.273859 0.133262 0.300604
0.275182 0.133262 0.299494
0.276504 0.133262 0.298384
0.277827 0.133262 0.297274
0.279150 0.133262 0.296165
0.280472 0.133262 0.295055
0.282664 0.133141 0.295018
0.285717 0.132901 0.296052
0.288758 0.132661 0.297082
0.290932 0.132541 0.297043
0.293103 0.132422 0.297005
0.296120 0.132184 0.298030
0.298280 0.132065 0.297991
0.300436 0.131947 0.297952
0.302589 0.131828 0.297913
0.305576 0.131592 0.298931
0.307718 0.131475 0.298892
0.309856 0.131357 0.298852
0.312819 0.131123 0.299865
0.314947 0.131006 0.299825
0.317071 0.130889 0.299785
0.319192 0.130773 0.299744
0.322126 0.130541 0.300751
0.323422 0.130541 0.299664
0.326343 0.130309 0.300670
0.328446 0.130194 0.300629
0.330545 0.130079 0.300588
0.332640 0.129964 0.300547
0.334732 0.129849 0.300507
0.336820 0.129734 0.300466
0.338905 0.129620 0.300426
0.340986 0.129506 0.300385
0.343063 0.129392 0.300345
0.345136 0.129278 0.300305
0.347206 0.129164 0.300265
0.349272 0.129051 0.300225
0.352115 0.128825 0.301218
0.354172 0.128712 0.301177
0.356225 0.128599 0.301136
0.358274 0.128487 0.301095
0.359550 0.128487 0.300025
0.361595 0.128375 0.299985
0.363636 0.128263 0.299946
0.364909 0.128263 0.298877
0.366946 0.128151 0.298839
0.368979 0.128039 0.298800
0.371008 0.127928 0.298762
0.372278 0.127928 0.297696
0.374303 0.127817 0.297659
0.376325 0.127706 0.297621
0.377592 0.127706 0.296557
0.379609 0.127595 0.296521
0.381622 0.127484 0.296485
0.383632 0.127374 0.296448
0.384897 0.127374 0.295387
0.386902 0.127263 0.295352
0.388165 0.127263 0.294292
0.390166 0.127153 0.294257
0.392163 0.127043 0.294223
0.393425 0.127043 0.293165
0.396148 0.126824 0.294155
0.398135 0.126715 0.294121
0.399393 0.126715 0.293065
0.401375 0.126606 0.293032
0.402632 0.126606 0.291977
0.404610 0.126497 0.291945
0.406585 0.126388 0.291913
0.407840 0.126388 0.290860
0.409810 0.126279 0.290829
0.411064 0.126279 0.289777
0.413029 0.126171 0.289747
0.414282 0.126171 0.288696
0.415535 0.126171 0.287645
0.417495 0.126063 0.287616
0.419452 0.125955 0.287588
0.420702 0.125955 0.286539
0.422655 0.125847 0.286511
0.424604 0.125739 0.286484
0.426550 0.125632 0.286457
0.427797 0.125632 0.285410
0.429739 0.125524 0.285384
0.430985 0.125524 0.284338
0.432231 0.125524 0.283292
0.434167 0.125417 0.283268
0.435412 0.125417 0.282223
0.436657 0.125417 0.281178
0.438588 0.125310 0.281155
0.439832 0.125310 0.280111
0.441076 0.125310 0.279067
0.443002 0.125204 0.279047
0.444245 0.125204 0.278004
0.446166 0.125097 0.277984
0.447408 0.125097 0.276941
0.448650 0.125097 0.275899
0.450565 0.124991 0.275881
0.451806 0.124991 0.274840
0.453718 0.124884 0.274823
0.454957 0.124884 0.273782
0.456197 0.124884 0.272742
0.458103 0.124778 0.272726
0.459342 0.124778 0.271687
0.460581 0.124778 0.270647
0.461820 0.124778 0.269608
0.463059 0.124778 0.268568
0.464297 0.124778 0.267529
0.465536 0.124778 0.266489
0.466775 0.124778 0.265450
0.467356 0.124884 0.263379
0.468596 0.124884 0.262338
0.469836 0.124884 0.261298
0.470420 0.124991 0.259221
0.471661 0.124991 0.258180
0.472902 0.124991 0.257139
0.473489 0.125097 0.255057
0.474731 0.125097 0.254015
0.475320 0.125204 0.251928
0.476563 0.125204 0.250885
0.477806 0.125204 0.249842
0.477747 0.125417 0.246700
0.478340 0.125524 0.244602
0.478934 0.125632 0.242501
0.478877 0.125847 0.239335
0.479473 0.125955 0.237224
0.479416 0.126171 0.234042
0.479359 0.126388 0.230848
0.479958 0.126497 0.228721
0.479902 0.126715 0.225510
0.480503 0.126824 0.223372
0.480448 0.127043 0.220144
0.481051 0.127153 0.217996
0.480996 0.127374 0.214750
0.481602 0.127484 0.212592
0.481548 0.127706 0.209329
0.482155 0.127817 0.207160
0.482102 0.128039 0.203879
0.482049 0.128263 0.200586
0.481995 0.128487 0.197281
0.482607 0.128599 0.195089
0.482554 0.128825 0.191767
0.482501 0.129051 0.188432
0.483116 0.129164 0.186223
0.483064 0.129392 0.182870
0.483681 0.129506 0.180650
0.483630 0.129734 0.177279
0.484248 0.129849 0.175048
0.484198 0.130079 0.171658
0.484148 0.130309 0.168255
0.484770 0.130425 0.166007
0.484720 0.130657 0.162585
0.485344 0.130773 0.160326
0.485296 0.131006 0.156885
0.486596 0.131006 0.155794
0.486550 0.131240 0.152340
0.487178 0.131357 0.150061
0.487133 0.131592 0.146587
0.487087 0.131828 0.143101
0.487719 0.131947 0.140803
0.487674 0.132184 0.137297
0.488986 0.132184 0.136196
0.489621 0.132303 0.133886
0.490258 0.132422 0.131573
0.490895 0.132541 0.129255
0.491534 0.132661 0.126932
0.492174 0.132781 0.124606
0.492815 0.132901 0.122276
0.493457 0.133021 0.119941
0.494100 0.133141 0.117602
0.494745 0.133262 0.115259
0.494712 0.133504 0.111672
0.495359 0.133625 0.109317
0.496007 0.133747 0.106958
0.496656 0.133869 0.104594
0.497306 0.133991 0.102226
0.497958 0.134113 0.099854
0.497931 0.134358 0.096216
0.498585 0.134481 0.093832
0.497877 0.134851 0.088900
0.498533 0.134974 0.086501
0.498507 0.135223 0.082815
0.497795 0.135597 0.077826
0.497767 0.135847 0.074107
0.497050 0.136225 0.069070
0.496328 0.136604 0.064006
0.495603 0.136986 0.058913
0.492070 0.137885 0.048450
0.488490 0.138796 0.037849
0.451040 0.145956 -0.037680
0.452488 0.145956 -0.038895
0.453153 0.146101 -0.041618
0.453819 0.146246 -0.044346
0.454487 0.146391 -0.047079
0.455940 0.146391 -0.048298
0.456610 0.146537 -0.051038
0.457282 0.146683 -0.053784
0.457172 0.146976 -0.058068
0.457846 0.147123 -0.060829
0.458522 0.147270 -0.063595
0.459199 0.147418 -0.066367
0.459878 0.147566 -0.069144
0.460558 0.147714 -0.071927
0.460453 0.148011 -0.076278
0.461135 0.148160 -0.079076
0.461032 0.148459 -0.083454
0.461717 0.148609 -0.086268
0.461614 0.148909 -0.090674
0.462302 0.149060 -0.093504
0.462200 0.149363 -0.097938
0.462890 0.149515 -0.100784
0.462789 0.149819 -0.105246
0.462687 0.150125 -0.109726
0.463382 0.150278 -0.112598
0.463281 0.150585 -0.117107
0.459971 0.151515 -0.128222
0.455804 0.152615 -0.141152
0.438988 0.156177 -0.180248
0.317975 0.180040 -0.435149
0.319760 0.180040 -0.436647
0.320418 0.180260 -0.440489
0.321078 0.180481 -0.444340
0.322868 0.180481 -0.445842
0.323531 0.180702 -0.449705
0.325323 0.180702 -0.451208
0.327114 0.180702 -0.452711
0.328906 0.180702 -0.454214
0.329578 0.180924 -0.458092
0.330251 0.181146 -0.461979
0.332047 0.181146 -0.463486
0.331603 0.181593 -0.469782
-0.283738 0.178145 0.063161
-0.258082 0.175353 0.083885
-0.249135 0.174511 0.089114
-0.242044 0.173885 0.092636
-0.233247 0.173057 0.097780
-0.226271 0.172442 0.101243
-0.217621 0.171627 0.106303
-0.210757 0.171022 0.109708
-0.205636 0.170621 0.111484
-0.200540 0.170221 0.113253
-0.193791 0.169625 0.116605
-0.188751 0.169231 0.118351
-0.183735 0.168838 0.120089
-0.178742 0.168446 0.121819
-0.173772 0.168057 0.123542
-0.168825 0.167669 0.125256
-0.165518 0.167476 0.125404
-0.162220 0.167284 0.125552
-0.158928 0.167091 0.125700
-0.155645 0.166899 0.125847
-0.152368 0.166708 0.125994
-0.147509 0.166327 0.127689
-0.144254 0.166137 0.127833
-0.141005 0.165947 0.127977
-0.137764 0.165758 0.128121
-0.134531 0.165569 0.128264
-0.131305 0.165381 0.128407
-0.128086 0.165193 0.128550
-0.124874 0.165005 0.128692
-0.121669 0.164818 0.128834
-0.120013 0.164818 0.127445
-0.115282 0.164445 0.129117
-0.112100 0.164259 0.129258
-0.110449 0.164259 0.127873
-0.107275 0.164074 0.128016
-0.104109 0.163889 0.128158
-0.100949 0.163705 0.128299
-0.097797 0.163520 0.128441
-0.094651 0.163337 0.128582
-0.091513 0.163153 0.128722
-0.089874 0.163153 0.127347
-0.086744 0.162970 0.127489
-0.083622 0.162788 0.127631
-0.080506 0.162606 0.127772
-0.078872 0.162606 0.126401
-0.075765 0.162424 0.126543
-0.072666 0.162243 0.126686
-0.069573 0.162062 0.126828
-0.066486 0.161882 0.126969
-0.063407 0.161701 0.127110
-0.061782 0.161701 0.125747
-0.058712 0.161522 0.125890
-0.055648 0.161342 0.126032
-0.054027 0.161342 0.124671
-0.050971 0.161164 0.124815
-0.047923 0.160985 0.124958
-0.046305 0.160985 0.123600
-0.043265 0.160807 0.123745
-0.040232 0.160629 0.123889
-0.038618 0.160629 0.122534
-0.035593 0.160452 0.122679
-0.032575 0.160275 0.122824
-0.030964 0.160275 0.121473
-0.029354 0.160275 0.120121
-0.026346 0.160099 0.120269
-0.023344 0.159922 0.120416
-0.021737 0.159922 0.119067
-0.018744 0.159747 0.119216
-0.015757 0.159571 0.119364
-0.014154 0.159571 0.118018
-0.011176 0.159396 0.118167
-0.006836 0.159047 0.119805
-0.005238 0.159047 0.118464
-0.002279 0.158874 0.118612
0.000673 0.158700 0.118760
0.002268 0.158700 0.117422
0.005212 0.158527 0.117571
0.008150 0.158354 0.117719
0.009741 0.158354 0.116384
0.011332 0.158354 0.115049
0.014261 0.158182 0.115200
0.017182 0.158010 0.115351
0.018770 0.158010 0.114019
0.021684 0.157838 0.114170
0.024591 0.157667 0.114322
0.026176 0.157667 0.112993
0.029075 0.157496 0.113145
0.031968 0.157326 0.113298
0.033549 0.157326 0.111971
0.037736 0.156986 0.113601
0.039313 0.156986 0.112278
0.042186 0.156816 0.112431
0.045053 0.156647 0.112583
0.046627 0.156647 0.111262
0.049486 0.156479 0.111416
0.051058 0.156479 0.110096
0.232977 0.132738 0.316704
0.236150 0.132496 0.317709
0.239312 0.132254 0.318710
0.242462 0.132014 0.319707
0.244696 0.131894 0.319648
0.246022 0.131894 0.318535
0.247348 0.131894 0.317422
0.249576 0.131774 0.317365
0.250901 0.131774 0.316254
0.252226 0.131774 0.315142
0.253551 0.131774 0.314030
0.255771 0.131655 0.313976
0.257095 0.131655 0.312865
0.258419 0.131655 0.311754
0.259743 0.131655 0.310643
0.261955 0.131535 0.310593
0.263278 0.131535 0.309483
0.264600 0.131535 0.308373
0.265923 0.131535 0.307263
0.267246 0.131535 0.306153
0.268568 0.131535 0.305043
0.269891 0.131535 0.303934
0.271214 0.131535 0.302824
0.272536 0.131535 0.301714
0.273859 0.131535 0.300604
0.275182 0.131535 0.299494
0.276504 0.131535 0.298384
0.277827 0.131535 0.297274
0.279150 0.131535 0.296165
0.280472 0.131535 0.295055
0.282664 0.131416 0.295018
0.285717 0.131179 0.296052
0.288758 0.130942 0.297082
0.290932 0.130824 0.297043
0.293103 0.130706 0.297005
0.296120 0.130471 0.298030
0.298280 0.130354 0.297991
0.300436 0.130237 0.297952
0.303430 0.130004 0.298971
0.305576 0.129887 0.298931
0.307718 0.129771 0.298892
0.309856 0.129655 0.298852
0.312819 0.129424 0.299865
0.314947 0.129308 0.299825
0.317071 0.129193 0.299785
0.320012 0.128964 0.300792
0.322126 0.128849 0.300751
0.324236 0.128735 0.300710
0.326343 0.128621 0.300670
0.328446 0.128507 0.300629
0.330545 0.128393 0.300588
0.332640 0.128280 0.300547
0.334732 0.128166 0.300507
0.336820 0.128053 0.300466
0.338905 0.127940 0.300426
0.340986 0.127828 0.300385
0.343063 0.127715 0.300345
0.345136 0.127603 0.300305
0.347991 0.127379 0.301300
0.350055 0.127267 0.301259
0.352115 0.127155 0.301218
0.354172 0.127044 0.301177
0.356225 0.126933 0.301136
0.358274 0.126822 0.301095
0.359550 0.126822 0.300025
0.361595 0.126711 0.299985
0.363636 0.126601 0.299946
0.365674 0.126490 0.299906
0.366946 0.126490 0.298839
0.368979 0.126380 0.298800
0.371008 0.126270 0.298762
0.372278 0.126270 0.297696
0.374303 0.126160 0.297659
0.376325 0.126051 0.297621
0.378342 0.125941 0.297584
0.379609 0.125941 0.296521
0.381622 0.125832 0.296485
0.383632 0.125723 0.296448
0.384897 0.125723 0.295387
0.386902 0.125614 0.295352
0.388165 0.125614 0.294292
0.390166 0.125506 0.294257
0.392163 0.125397 0.294223
0.394157 0.125289 0.294189
0.396148 0.125181 0.294155
0.398135 0.125073 0.294121
0.399393 0.125073 0.293065
0.401375 0.124965 0.293032
0.403354 0.124857 0.292999
0.404610 0.124857 0.291945
0.406585 0.124750 0.291913
0.407840 0.124750 0.290860
0.409810 0.124643 0.290829
0.411777 0.124536 0.290798
0.413029 0.124536 0.289747
0.414282 0.124536 0.288696
0.416243 0.124429 0.288666
0.417495 0.124429 0.287616
0.419452 0.124322 0.287588
0.420702 0.124322 0.286539
0.422655 0.124216 0.286511
0.424604 0.124110 0.286484
0.426550 0.124004 0.286457
0.427797 0.124004 0.285410
0.429739 0.123898 0.285384
0.430985 0.123898 0.284338
0.432231 0.123898 0.283292
0.434167 0.123792 0.283268
0.435412 0.123792 0.282223
0.437344 0.123686 0.282199
0.438588 0.123686 0.281155
0.439832 0.123686 0.280111
0.441759 0.123581 0.280090
0.443002 0.123581 0.279047
0.444245 0.123581 0.278004
0.446166 0.123476 0.277984
0.447408 0.123476 0.276941
0.448650 0.123476 0.275899
0.450565 0.123371 0.275881
0.451806 0.123371 0.274840
0.453718 0.123266 0.274823
0.454957 0.123266 0.273782
0.456197 0.123266 0.272742
0.458103 0.123161 0.272726
0.459342 0.123161 0.271687
0.461244 0.123057 0.271672
0.461820 0.123161 0.269608
0.463719 0.123057 0.269595
0.464297 0.123161 0.267529
0.465536 0.123161 0.266489
0.466775 0.123161 0.265450
0.467356 0.123266 0.263379
0.468596 0.123266 0.262338
0.469836 0.123266 0.261298
0.470420 0.123371 0.259221
0.471661 0.123371 0.258180
0.472902 0.123371 0.257139
0.474143 0.123371 0.256097
0.474731 0.123476 0.254015
0.475320 0.123581 0.251928
0.476563 0.123581 0.250885
0.477154 0.123686 0.248794
0.477747 0.123792 0.246700
0.478340 0.123898 0.244602
0.478281 0.124110 0.241443
0.478877 0.124216 0.239335
0.478819 0.124429 0.236159
0.479416 0.124536 0.234042
0.479359 0.124750 0.230848
0.479958 0.124857 0.228721
0.479902 0.125073 0.225510
0.480503 0.125181 0.223372
0.480448 0.125397 0.220144
0.481051 0.125506 0.217996
0.480996 0.125723 0.214750
0.480941 0.125941 0.211493
0.481548 0.126051 0.209329
0.481494 0.126270 0.206054
0.482102 0.126380 0.203879
0.482049 0.126601 0.200586
0.481995 0.126822 0.197281
0.482607 0.126933 0.195089
0.482554 0.127155 0.191767
0.482501 0.127379 0.188432
0.483116 0.127491 0.186223
0.483064 0.127715 0.182870
0.483681 0.127828 0.180650
0.483630 0.128053 0.177279
0.483578 0.128280 0.173895
0.484198 0.128393 0.171658
0.484148 0.128621 0.168255
0.484770 0.128735 0.166007
0.484720 0.128964 0.162585
0.485344 0.129078 0.160326
0.485296 0.129308 0.156885
0.485922 0.129424 0.154615
0.486550 0.129539 0.152340
0.486503 0.129771 0.148873
0.487133 0.129887 0.146587
0.487087 0.130120 0.143101
0.487719 0.130237 0.140803
0.487674 0.130471 0.137297
0.488986 0.130471 0.136196
0.489621 0.130588 0.133886
0.490258 0.130706 0.131573
0.490895 0.130824 0.129255
0.491534 0.130942 0.126932
0.492174 0.131060 0.124606
0.492815 0.131179 0.122276
0.493457 0.131297 0.119941
0.494100 0.131416 0.117602
0.494067 0.131655 0.114022
0.494712 0.131774 0.111672
0.495359 0.131894 0.109317
0.496007 0.132014 0.106958
0.496656 0.132134 0.104594
0.497306 0.132254 0.102226
0.497278 0.132496 0.098596
0.497931 0.132617 0.096216
0.498585 0.132738 0.093832
0.497877 0.133103 0.088900
0.498533 0.133226 0.086501
0.498507 0.133471 0.082815
0.497795 0.133840 0.077826
0.497767 0.134087 0.074107
0.497050 0.134460 0.069070
0.497021 0.134709 0.065318
0.496298 0.135085 0.060234
0.492773 0.135971 0.049789
0.488490 0.136998 0.037849
0.451824 0.143923 -0.036177
0.452488 0.144065 -0.038895
0.453153 0.144208 -0.041618
0.454603 0.144208 -0.042834
0.455270 0.144352 -0.045563
0.455940 0.144495 -0.048298
0.457392 0.144495 -0.049517
0.457282 0.144783 -0.053784
0.458737 0.144783 -0.055005
0.458630 0.145073 -0.059291
0.459306 0.145218 -0.062054
0.459983 0.145363 -0.064821
0.460662 0.145509 -0.067594
0.460558 0.145801 -0.071927
0.461239 0.145947 -0.074716
0.461135 0.146241 -0.079076
0.461819 0.146388 -0.081880
0.461717 0.146684 -0.086268
0.462403 0.146832 -0.089088
0.462302 0.147130 -0.093504
0.462991 0.147279 -0.096340
0.462890 0.147578 -0.100784
0.463582 0.147728 -0.103635
0.463482 0.148029 -0.108108
0.463382 0.148332 -0.112598
0.464078 0.148483 -0.115476
0.461579 0.149246 -0.124921
0.457432 0.150327 -0.137801
0.444912 0.153018 -0.168023
0.317975 0.177709 -0.435149
0.319760 0.177709 -0.436647
0.321545 0.177709 -0.438145
0.322206 0.177927 -0.441989
0.322868 0.178145 -0.445842
0.324657 0.178145 -0.447343
0.325323 0.178363 -0.451208
0.327114 0.178363 -0.452711
0.328906 0.178363 -0.454214
0.329578 0.178582 -0.458092
0.331372 0.178582 -0.459597
0.332047 0.178802 -0.463486
0.331603 0.179242 -0.469782
-0.268945 0.174103 0.076907
-0.254477 0.172637 0.087243
-0.247349 0.172016 0.090781
-0.238506 0.171195 0.095945
-0.231495 0.170585 0.099423
-0.222800 0.169778 0.104504
-0.215901 0.169177 0.107923
-0.210757 0.168779 0.109708
-0.203941 0.168186 0.113088
-0.198854 0.167792 0.114850
-0.193791 0.167401 0.116605
-0.188751 0.167011 0.118351
-0.183735 0.166623 0.120089
-0.178742 0.166237 0.121819
-0.173772 0.165853 0.123542
-0.167201 0.165280 0.126816
-0.163900 0.165090 0.126962
-0.160607 0.164900 0.127108
-0.157321 0.164711 0.127254
-0.154043 0.164522 0.127399
-0.150773 0.164333 0.127544
-0.147509 0.164145 0.127689
-0.144254 0.163958 0.127833
-0.141005 0.163771 0.127977
-0.137764 0.163584 0.128121
-0.134531 0.163397 0.128264
-0.131305 0.163212 0.128407
-0.128086 0.163026 0.128550
-0.124874 0.162841 0.128692
-0.121669 0.162656 0.128834
-0.118472 0.162472 0.128976
-0.115282 0.162288 0.129117
-0.112100 0.162105 0.129258
-0.108924 0.161922 0.129399
-0.105755 0.161740 0.129539
-0.104109 0.161740 0.128158
-0.100949 0.161557 0.128299
-0.097797 0.161376 0.128441
-0.094651 0.161194 0.128582
-0.091513 0.161013 0.128722
-0.088382 0.160833 0.128863
-0.085257 0.160653 0.129003
-0.083622 0.160653 0.127631
-0.080506 0.160473 0.127772
-0.077397 0.160294 0.127913
-0.074296 0.160115 0.128053
-0.071201 0.159936 0.128194
-0.069573 0.159936 0.126828
-0.066486 0.159758 0.126969
-0.063407 0.159580 0.127110
-0.060335 0.159403 0.127251
-0.058712 0.159403 0.125890
-0.055648 0.159226 0.126032
-0.052591 0.159050 0.126174
-0.050971 0.159050 0.124815
-0.047923 0.158874 0.124958
-0.044881 0.158698 0.125100
-0.043265 0.158698 0.123745
-0.040232 0.158522 0.123889
-0.037205 0.158347 0.124032
-0.035593 0.158347 0.122679
-0.032575 0.158173 0.122824
-0.030964 0.158173 0.121473
-0.027954 0.157999 0.121619
-0.026346 0.157999 0.120269
-0.023344 0.157825 0.120416
-0.020349 0.157651 0.120562
-0.018744 0.157651 0.119216
-0.015757 0.157478 0.119364
-0.012777 0.157305 0.119511
-0.011176 0.157305 0.118167
-0.006836 0.156961 0.119805
-0.003876 0.156790 0.119952
-0.002279 0.156790 0.118612
0.000673 0.156618 0.118760
0.003619 0.156447 0.118907
0.005212 0.156447 0.117571
0.008150 0.156277 0.117719
0.009741 0.156277 0.116384
0.012671 0.156107 0.116534
0.014261 0.156107 0.115200
0.017182 0.155937 0.115351
0.020098 0.155768 0.115501
0.021684 0.155768 0.114170
0.024591 0.155599 0.114322
0.027492 0.155430 0.114473
0.029075 0.155430 0.113145
0.031968 0.155262 0.113298
0.034855 0.155094 0.113450
0.036434 0.155094 0.112125
0.039313 0.154927 0.112278
0.042186 0.154759 0.112431
0.043762 0.154759 0.111108
0.047913 0.154426 0.112735
0.049486 0.154426 0.111416
0.228864 0.131356 0.314629
0.234817 0.130757 0.318827
0.237067 0.130638 0.318768
0.240224 0.130400 0.319767
0.243370 0.130163 0.320761
0.244696 0.130163 0.319648
0.246022 0.130163 0.318535
0.248251 0.130044 0.318477
0.249576 0.130044 0.317365
0.250901 0.130044 0.316254
0.252226 0.130044 0.315142
0.254447 0.129926 0.315087
0.255771 0.129926 0.313976
0.257095 0.129926 0.312865
0.258419 0.129926 0.311754
0.259743 0.129926 0.310643
0.261955 0.129809 0.310593
0.263278 0.129809 0.309483
0.264600 0.129809 0.308373
0.265923 0.129809 0.307263
0.267246 0.129809 0.306153
0.268568 0.129809 0.305043
0.269891 0.129809 0.303934
0.271214 0.129809 0.302824
0.272536 0.129809 0.301714
0.273859 0.129809 0.300604
0.275182 0.129809 0.299494
0.276504 0.129809 0.298384
0.277827 0.129809 0.297274
0.279150 0.129809 0.296165
0.280472 0.129809 0.295055
0.282664 0.129691 0.295018
0.285717 0.129457 0.296052
0.288758 0.129223 0.297082
0.290932 0.129107 0.297043
0.293956 0.128874 0.298069
0.296120 0.128758 0.298030
0.298280 0.128643 0.297991
0.301280 0.128412 0.299011
0.303430 0.128297 0.298971
0.305576 0.128182 0.298931
0.307718 0.128067 0.298892
0.310688 0.127839 0.299906
0.312819 0.127725 0.299865
0.314947 0.127611 0.299825
0.317894 0.127384 0.300834
0.320012 0.127271 0.300792
0.322126 0.127158 0.300751
0.324236 0.127045 0.300710
0.327153 0.126820 0.301713
0.328446 0.126820 0.300629
0.330545 0.126708 0.300588
0.332640 0.126596 0.300547
0.334732 0.126484 0.300507
0.336820 0.126372 0.300466
0.338905 0.126261 0.300426
0.341778 0.126038 0.301423
0.343853 0.125928 0.301382
0.345924 0.125817 0.301341
0.347991 0.125706 0.301300
0.350055 0.125596 0.301259
0.352115 0.125486 0.301218
0.354172 0.125376 0.301177
0.356999 0.125157 0.302166
0.358274 0.125157 0.301095
0.360320 0.125048 0.301055
0.361595 0.125048 0.299985
0.363636 0.124939 0.299946
0.365674 0.124830 0.299906
0.366946 0.124830 0.298839
0.368979 0.124721 0.298800
0.371008 0.124612 0.298762
0.373034 0.124504 0.298723
0.374303 0.124504 0.297659
0.376325 0.124396 0.297621
0.378342 0.124288 0.297584
0.379609 0.124288 0.296521
0.381622 0.124180 0.296485
0.383632 0.124072 0.296448
0.385639 0.123965 0.296412
0.386902 0.123965 0.295352
0.388904 0.123858 0.295317
0.390166 0.123858 0.294257
0.392163 0.123751 0.294223
0.394889 0.123537 0.295211
0.396148 0.123537 0.294155
0.398135 0.123431 0.294121
0.399393 0.123431 0.293065
0.401375 0.123324 0.293032
0.403354 0.123218 0.292999
0.404610 0.123218 0.291945
0.406585 0.123112 0.291913
0.408556 0.123006 0.291881
0.409810 0.123006 0.290829
0.411777 0.122901 0.290798
0.413029 0.122901 0.289747
0.414282 0.122901 0.288696
0.416243 0.122795 0.288666
0.417495 0.122795 0.287616
0.419452 0.122690 0.287588
0.421405 0.122585 0.287560
0.422655 0.122585 0.286511
0.424604 0.122480 0.286484
0.426550 0.122375 0.286457
0.427797 0.122375 0.285410
0.429739 0.122271 0.285384
0.430985 0.122271 0.284338
0.432231 0.122271 0.283292
0.434167 0.122167 0.283268
0.435412 0.122167 0.282223
0.437344 0.122062 0.282199
0.438588 0.122062 0.281155
0.439832 0.122062 0.280111
0.441759 0.121958 0.280090
0.443002 0.121958 0.279047
0.444245 0.121958 0.278004
0.446166 0.121855 0.277984
0.447408 0.121855 0.276941
0.448650 0.121855 0.275899
0.450565 0.121751 0.275881
0.451806 0.121751 0.274840
0.453718 0.121647 0.274823
0.454957 0.121647 0.273782
0.456197 0.121647 0.272742
0.458103 0.121544 0.272726
0.459342 0.121544 0.271687
0.461244 0.121441 0.271672
0.462482 0.121441 0.270634
0.463059 0.121544 0.268568
0.464297 0.121544 0.267529
0.465536 0.121544 0.266489
0.466775 0.121544 0.265450
0.467356 0.121647 0.263379
0.468596 0.121647 0.262338
0.469836 0.121647 0.261298
0.471076 0.121647 0.260257
0.471661 0.121751 0.258180
0.472902 0.121751 0.257139
0.474143 0.121751 0.256097
0.474731 0.121855 0.254015
0.475973 0.121855 0.252972
0.476563 0.121958 0.250885
0.477154 0.122062 0.248794
0.477747 0.122167 0.246700
0.478340 0.122271 0.244602
0.478281 0.122480 0.241443
0.478877 0.122585 0.239335
0.478819 0.122795 0.236159
0.479416 0.122901 0.234042
0.479359 0.123112 0.230848
0.479302 0.123324 0.227644
0.479902 0.123431 0.225510
0.479845 0.123644 0.222288
0.480448 0.123751 0.220144
0.480392 0.123965 0.216905
0.480996 0.124072 0.214750
0.480941 0.124288 0.211493
0.481548 0.124396 0.209329
0.481494 0.124612 0.206054
0.482102 0.124721 0.203879
0.482049 0.124939 0.200586
0.481995 0.125157 0.197281
0.482607 0.125267 0.195089
0.482554 0.125486 0.191767
0.483168 0.125596 0.189564
0.483116 0.125817 0.186223
0.483064 0.126038 0.182870
0.483012 0.126261 0.179506
0.483630 0.126372 0.177279
0.483578 0.126596 0.173895
0.484198 0.126708 0.171658
0.484148 0.126932 0.168255
0.484770 0.127045 0.166007
0.484720 0.127271 0.162585
0.484671 0.127497 0.159152
0.485296 0.127611 0.156885
0.485922 0.127725 0.154615
0.486550 0.127839 0.152340
0.486503 0.128067 0.148873
0.487133 0.128182 0.146587
0.487087 0.128412 0.143101
0.487041 0.128643 0.139602
0.487674 0.128758 0.137297
0.488308 0.128874 0.134988
0.489621 0.128874 0.133886
0.490258 0.128990 0.131573
0.490895 0.129107 0.129255
0.491534 0.129223 0.126932
0.492174 0.129340 0.124606
0.492815 0.129457 0.122276
0.493457 0.129574 0.119941
0.494100 0.129691 0.117602
0.494067 0.129926 0.114022
0.494712 0.130044 0.111672
0.495359 0.130163 0.109317
0.496007 0.130281 0.106958
0.496656 0.130400 0.104594
0.497306 0.130518 0.102226
0.497278 0.130757 0.098596
0.497931 0.130876 0.096216
0.497904 0.131116 0.092565
0.497877 0.131356 0.088900
0.498533 0.131477 0.086501
0.498507 0.131719 0.082815
0.498481 0.131961 0.079116
0.497767 0.132327 0.074107
0.497050 0.132695 0.069070
0.497021 0.132941 0.065318
0.496298 0.133312 0.060234
0.492773 0.134186 0.049789
0.488490 0.135200 0.037849
0.451824 0.142034 -0.036177
0.452488 0.142175 -0.038895
0.453936 0.142175 -0.040110
0.454603 0.142316 -0.042834
0.455270 0.142458 -0.045563
0.456721 0.142458 -0.046781
0.457392 0.142599 -0.049517
0.458064 0.142741 -0.052258
0.458737 0.142884 -0.055005
0.458630 0.143169 -0.059291
0.460088 0.143169 -0.060515
0.460766 0.143312 -0.063278
0.460662 0.143599 -0.067594
0.461342 0.143743 -0.070373
0.462023 0.143888 -0.073157
0.461921 0.144177 -0.077510
0.462605 0.144322 -0.080310
0.462505 0.144613 -0.084690
0.463191 0.144759 -0.087506
0.463091 0.145052 -0.091914
0.462991 0.145347 -0.096340
0.463681 0.145494 -0.099181
0.463582 0.145790 -0.103635
0.464275 0.145938 -0.106493
0.464177 0.146236 -0.110975
0.464873 0.146386 -0.113849
0.463180 0.146986 -0.121634
0.459862 0.147896 -0.132800
0.451577 0.149749 -0.154270
0.317975 0.175379 -0.435149
0.319760 0.175379 -0.436647
0.321545 0.175379 -0.438145
0.322206 0.175594 -0.441989
0.322868 0.175809 -0.445842
0.324657 0.175809 -0.447343
0.325323 0.176024 -0.451208
0.327114 0.176024 -0.452711
0.328906 0.176024 -0.454214
0.329578 0.176240 -0.458092
0.331372 0.176240 -0.459597
0.332047 0.176457 -0.463486
0.332725 0.176674 -0.467385
0.332282 0.177110 -0.473698
-0.291157 0.174113 0.059444
-0.259844 0.170754 0.085363
-0.252680 0.170138 0.088916
-0.243791 0.169324 0.094102
-0.236744 0.168719 0.097594
-0.228003 0.167919 0.102696
-0.221070 0.167324 0.106129
-0.215901 0.166929 0.107923
-0.209052 0.166341 0.111317
-0.202250 0.165756 0.114688
-0.197173 0.165369 0.116444
-0.192119 0.164984 0.118193
-0.187090 0.164600 0.119934
-0.182083 0.164218 0.121666
-0.177099 0.163838 0.123391
-0.172139 0.163460 0.125107
-0.167201 0.163083 0.126816
-0.163900 0.162896 0.126962
-0.160607 0.162708 0.127108
-0.157321 0.162522 0.127254
-0.154043 0.162335 0.127399
-0.150773 0.162149 0.127544
-0.145923 0.161779 0.129234
-0.142673 0.161594 0.129376
-0.139430 0.161410 0.129518
-0.136194 0.161226 0.129660
-0.132966 0.161043 0.129801
-0.129745 0.160860 0.129942
-0.126532 0.160677 0.130083
-0.124874 0.160677 0.128692
-0.121669 0.160495 0.128834
-0.118472 0.160313 0.128976
-0.115282 0.160132 0.129117
-0.112100 0.159951 0.129258
-0.108924 0.159770 0.129399
-0.105755 0.159590 0.129539
-0.102594 0.159410 0.129679
-0.099440 0.159231 0.129819
-0.096292 0.159052 0.129959
-0.094651 0.159052 0.128582
-0.091513 0.158874 0.128722
-0.088382 0.158695 0.128863
-0.085257 0.158518 0.129003
-0.082140 0.158340 0.129143
-0.079029 0.158163 0.129282
-0.077397 0.158163 0.127913
-0.074296 0.157987 0.128053
-0.071201 0.157811 0.128194
-0.069573 0.157811 0.126828
-0.066486 0.157635 0.126969
-0.063407 0.157460 0.127110
-0.061782 0.157460 0.125747
-0.058712 0.157285 0.125890
-0.055648 0.157110 0.126032
-0.054027 0.157110 0.124671
-0.050971 0.156936 0.124815
-0.047923 0.156762 0.124958
-0.044881 0.156588 0.125100
-0.041846 0.156415 0.125243
-0.040232 0.156415 0.123889
-0.037205 0.156243 0.124032
-0.035593 0.156243 0.122679
-0.032575 0.156070 0.122824
-0.029563 0.155899 0.122968
-0.027954 0.155899 0.121619
-0.024951 0.155727 0.121764
-0.023344 0.155727 0.120416
-0.020349 0.155556 0.120562
-0.017361 0.155385 0.120709
-0.015757 0.155385 0.119364
-0.012777 0.155215 0.119511
-0.008435 0.154875 0.121146
-0.006836 0.154875 0.119805
-0.003876 0.154706 0.119952
-0.000922 0.154537 0.120098
0.000673 0.154537 0.118760
0.003619 0.154368 0.118907
0.005212 0.154368 0.117571
0.008150 0.154200 0.117719
0.011082 0.154032 0.117868
0.012671 0.154032 0.116534
0.015595 0.153865 0.116683
0.017182 0.153865 0.115351
0.020098 0.153697 0.115501
0.023007 0.153531 0.115651
0.024591 0.153531 0.114322
0.027492 0.153364 0.114473
0.030387 0.153198 0.114624
0.031968 0.153198 0.113298
0.034855 0.153033 0.113450
0.037736 0.152867 0.113601
0.039313 0.152867 0.112278
0.042186 0.152702 0.112431
0.043762 0.152702 0.111108
0.046627 0.152538 0.111262
0.223793 0.130086 0.311468
0.232564 0.129136 0.318886
0.235735 0.128900 0.319885
0.237982 0.128782 0.319826
0.242043 0.128431 0.321874
0.243370 0.128431 0.320761
0.244696 0.128431 0.319648
0.246926 0.128315 0.319589
0.248251 0.128315 0.318477
0.249576 0.128315 0.317365
0.250901 0.128315 0.316254
0.253123 0.128198 0.316198
0.254447 0.128198 0.315087
0.255771 0.128198 0.313976
0.257095 0.128198 0.312865
0.258419 0.128198 0.311754
0.260632 0.128082 0.311703
0.261955 0.128082 0.310593
0.263278 0.128082 0.309483
0.264600 0.128082 0.308373
0.265923 0.128082 0.307263
0.267246 0.128082 0.306153
0.268568 0.128082 0.305043
0.269891 0.128082 0.303934
0.271214 0.128082 0.302824
0.272536 0.128082 0.301714
0.273859 0.128082 0.300604
0.275182 0.128082 0.299494
0.276504 0.128082 0.298384
0.277827 0.128082 0.297274
0.279150 0.128082 0.296165
0.281343 0.127966 0.296127
0.282664 0.127966 0.295018
0.285717 0.127735 0.296052
0.287898 0.127619 0.296014
0.291788 0.127275 0.298108
0.293956 0.127160 0.298069
0.296120 0.127046 0.298030
0.299127 0.126818 0.299051
0.301280 0.126704 0.299011
0.303430 0.126590 0.298971
0.305576 0.126477 0.298931
0.308552 0.126251 0.299946
0.310688 0.126138 0.299906
0.312819 0.126026 0.299865
0.314947 0.125913 0.299825
0.317894 0.125689 0.300834
0.320012 0.125578 0.300792
0.322126 0.125466 0.300751
0.324236 0.125355 0.300710
0.327153 0.125133 0.301713
0.328446 0.125133 0.300629
0.330545 0.125022 0.300588
0.332640 0.124912 0.300547
0.334732 0.124801 0.300507
0.337618 0.124581 0.301505
0.339700 0.124471 0.301464
0.341778 0.124362 0.301423
0.343853 0.124252 0.301382
0.345924 0.124143 0.301341
0.347991 0.124034 0.301300
0.350055 0.123925 0.301259
0.352115 0.123817 0.301218
0.354172 0.123708 0.301177
0.356999 0.123492 0.302166
0.358274 0.123492 0.301095
0.360320 0.123384 0.301055
0.362363 0.123276 0.301014
0.363636 0.123276 0.299946
0.365674 0.123169 0.299906
0.367708 0.123062 0.299867
0.368979 0.123062 0.298800
0.371008 0.122955 0.298762
0.373034 0.122848 0.298723
0.375057 0.122741 0.298685
0.376325 0.122741 0.297621
0.378342 0.122634 0.297584
0.380357 0.122528 0.297547
0.381622 0.122528 0.296485
0.383632 0.122422 0.296448
0.385639 0.122316 0.296412
0.386902 0.122316 0.295352
0.388904 0.122210 0.295317
0.390902 0.122104 0.295281
0.392163 0.122104 0.294223
0.394889 0.121894 0.295211
0.396148 0.121894 0.294155
0.398135 0.121788 0.294121
0.400118 0.121684 0.294087
0.401375 0.121684 0.293032
0.403354 0.121579 0.292999
0.404610 0.121579 0.291945
0.406585 0.121474 0.291913
0.408556 0.121370 0.291881
0.409810 0.121370 0.290829
0.411777 0.121266 0.290798
0.413029 0.121266 0.289747
0.414282 0.121266 0.288696
0.416243 0.121162 0.288666
0.418201 0.121058 0.288637
0.419452 0.121058 0.287588
0.421405 0.120954 0.287560
0.422655 0.120954 0.286511
0.425303 0.120747 0.287503
0.426550 0.120747 0.286457
0.427797 0.120747 0.285410
0.429739 0.120644 0.285384
0.430985 0.120644 0.284338
0.432231 0.120644 0.283292
0.434167 0.120541 0.283268
0.435412 0.120541 0.282223
0.437344 0.120438 0.282199
0.438588 0.120438 0.281155
0.439832 0.120438 0.280111
0.441759 0.120336 0.280090
0.443002 0.120336 0.279047
0.444245 0.120336 0.278004
0.446166 0.120233 0.277984
0.447408 0.120233 0.276941
0.449324 0.120131 0.276922
0.450565 0.120131 0.275881
0.451806 0.120131 0.274840
0.453718 0.120029 0.274823
0.454957 0.120029 0.273782
