ply
format ascii 1.0
element vertex 1683
property float x
property float y
property float z
end_header
0.184189 0.112691 0.154137
0.183698 0.112691 0.156391
0.183206 0.112691 0.158646
0.184801 0.111472 0.161502
0.184309 0.111472 0.163760
0.183817 0.111472 0.166017
0.183325 0.111472 0.168275
0.184921 0.110251 0.171146
0.184429 0.110251 0.173407
0.183936 0.110251 0.175667
0.183443 0.110251 0.177927
0.185042 0.109027 0.180814
0.184549 0.109027 0.183077
0.184056 0.109027 0.185340
0.187757 0.106570 0.188876
0.187262 0.106570 0.191145
0.186768 0.106570 0.193413
0.188377 0.105337 0.196329
0.187882 0.105337 0.198601
0.187387 0.105337 0.200872
0.188998 0.104101 0.203800
0.188502 0.104101 0.206074
0.188007 0.104101 0.208348
0.189621 0.102862 0.211290
0.189125 0.102862 0.213566
0.188628 0.102862 0.215843
0.188132 0.102862 0.218120
0.189748 0.101620 0.221077
0.189251 0.101620 0.223356
0.188755 0.101620 0.225636
0.188258 0.101620 0.227915
0.187761 0.101620 0.230195
0.189378 0.100375 0.233170
0.188881 0.100375 0.235452
0.188384 0.100375 0.237734
0.187886 0.100375 0.240017
0.189506 0.099126 0.243007
0.189008 0.099126 0.245293
0.190631 0.097875 0.248293
0.190133 0.097875 0.250581
0.189634 0.097875 0.252869
0.191260 0.096621 0.255883
0.190760 0.096621 0.258174
0.192390 0.095363 0.261198
0.191890 0.095363 0.263491
0.191390 0.095363 0.265785
0.193022 0.094103 0.268822
0.192522 0.094103 0.271118
0.192021 0.094103 0.273415
0.191521 0.094103 0.275711
0.193155 0.092839 0.278764
0.192654 0.092839 0.281063
0.192153 0.092839 0.283362
0.193790 0.091573 0.286428
0.193288 0.091573 0.288730
0.194929 0.090303 0.291807
0.194426 0.090303 0.294112
0.196070 0.089030 0.297199
0.195567 0.089030 0.299507
0.197214 0.087754 0.302604
0.196711 0.087754 0.304915
0.198362 0.086475 0.308023
0.197857 0.086475 0.310336
0.199512 0.085192 0.313455
0.201170 0.083907 0.316581
0.200664 0.083907 0.318900
0.200159 0.083907 0.321219
0.201820 0.082618 0.324359
0.201314 0.082618 0.326681
0.202979 0.081326 0.329832
0.202472 0.081326 0.332157
0.206321 0.078732 0.336157
0.207998 0.077431 0.339331
0.207489 0.077431 0.341665
0.211365 0.074818 0.345703
-0.053320 0.317383 -0.482892
-0.060830 0.321223 -0.480411
-0.064047 0.322748 -0.478356
-0.067252 0.324268 -0.476309
-0.070445 0.325782 -0.474270
-0.072230 0.326537 -0.472366
-0.074012 0.327290 -0.470466
-0.074398 0.327290 -0.468694
-0.076176 0.328042 -0.466800
-0.076562 0.328042 -0.465030
-0.078336 0.328793 -0.463140
-0.080107 0.329542 -0.461255
-0.080492 0.329542 -0.459488
-0.082259 0.330290 -0.457607
-0.084023 0.331036 -0.455730
-0.084407 0.331036 -0.453967
-0.086167 0.331781 -0.452095
-0.086551 0.331781 -0.450333
-0.088308 0.332524 -0.448467
-0.090061 0.333267 -0.446604
-0.090444 0.333267 -0.444845
-0.092194 0.334007 -0.442987
-0.093940 0.334747 -0.441133
-0.094322 0.334747 -0.439378
-0.096065 0.335485 -0.437528
-0.096447 0.335485 -0.435775
-0.098186 0.336221 -0.433930
-0.099922 0.336956 -0.432090
-0.100303 0.336956 -0.430339
-0.102035 0.337690 -0.428504
-0.103764 0.338422 -0.426672
-0.104145 0.338422 -0.424925
-0.105870 0.339153 -0.423097
-0.106250 0.339153 -0.421352
-0.107972 0.339883 -0.419530
-0.109691 0.340611 -0.417711
-0.110070 0.340611 -0.415969
-0.111785 0.341338 -0.414155
-0.113497 0.342064 -0.412345
-0.113876 0.342064 -0.410606
-0.115584 0.342788 -0.408801
-0.115963 0.342788 -0.407063
-0.117668 0.343511 -0.405263
-0.118046 0.343511 -0.403527
-0.118424 0.343511 -0.401792
-0.120125 0.344233 -0.399998
-0.121823 0.344953 -0.398207
-0.122200 0.344953 -0.396475
-0.123894 0.345672 -0.394689
-0.124272 0.345672 -0.392959
-0.125962 0.346390 -0.391178
-0.127650 0.347106 -0.389400
-0.128026 0.347106 -0.387673
-0.129711 0.347821 -0.385900
-0.130087 0.347821 -0.384174
-0.130463 0.347821 -0.382448
-0.132143 0.348534 -0.380682
-0.132519 0.348534 -0.378958
-0.134196 0.349247 -0.377197
-0.134571 0.349247 -0.375474
-0.136245 0.349958 -0.373717
-0.139208 0.351376 -0.371932
-0.140873 0.352083 -0.370184
-0.141247 0.352083 -0.368467
-0.142908 0.352789 -0.366724
-0.143282 0.352789 -0.365009
-0.143655 0.352789 -0.363294
-0.145313 0.353493 -0.361557
-0.145686 0.353493 -0.359844
-0.146060 0.353493 -0.358130
-0.147713 0.354196 -0.356399
-0.148086 0.354196 -0.354688
-0.148460 0.354196 -0.352976
-0.150110 0.354898 -0.351251
-0.150482 0.354898 -0.349541
-0.150855 0.354898 -0.347831
-0.151228 0.354898 -0.346121
-0.151600 0.354898 -0.344411
-0.153246 0.355599 -0.342695
-0.153618 0.355599 -0.340987
-0.153991 0.355599 -0.339278
-0.155633 0.356298 -0.337569
-0.156005 0.356298 -0.335862
-0.156377 0.356298 -0.334155
-0.156749 0.356298 -0.332448
-0.159650 0.357693 -0.330753
-0.160022 0.357693 -0.329049
-0.161654 0.358388 -0.327354
-0.162025 0.358388 -0.325651
-0.162396 0.358388 -0.323949
-0.164024 0.359083 -0.322260
-0.164395 0.359083 -0.320560
-0.164766 0.359083 -0.318859
-0.165136 0.359083 -0.317158
-0.166761 0.359776 -0.315477
-0.167131 0.359776 -0.313777
-0.167501 0.359776 -0.312078
-0.167872 0.359776 -0.310379
-0.168242 0.359776 -0.308680
-0.168612 0.359776 -0.306980
-0.168983 0.359776 -0.305281
-0.169353 0.359776 -0.303582
-0.169724 0.359776 -0.301882
-0.170094 0.359776 -0.300183
-0.171712 0.360467 -0.298519
-0.172082 0.360467 -0.296821
-0.172452 0.360467 -0.295124
-0.172822 0.360467 -0.293426
-0.173192 0.360467 -0.291728
-0.173562 0.360467 -0.290030
-0.173932 0.360467 -0.288333
-0.174302 0.360467 -0.286635
-0.174672 0.360467 -0.284937
-0.175042 0.360467 -0.283239
-0.175413 0.360467 -0.281542
-0.175783 0.360467 -0.279844
-0.176153 0.360467 -0.278146
-0.176523 0.360467 -0.276448
-0.176893 0.360467 -0.274751
-0.177263 0.360467 -0.273053
-0.177633 0.360467 -0.271355
-0.178003 0.360467 -0.269657
-0.178373 0.360467 -0.267960
-0.179982 0.361158 -0.266326
-0.180352 0.361158 -0.264630
-0.180722 0.361158 -0.262934
-0.181091 0.361158 -0.261238
-0.181461 0.361158 -0.259541
-0.181831 0.361158 -0.257845
-0.182200 0.361158 -0.256149
-0.182570 0.361158 -0.254453
-0.182940 0.361158 -0.252757
-0.183309 0.361158 -0.251060
-0.183679 0.361158 -0.249364
-0.184049 0.361158 -0.247668
-0.184418 0.361158 -0.245972
-0.184788 0.361158 -0.244276
-0.185158 0.361158 -0.242579
-0.185527 0.361158 -0.240883
-0.185897 0.361158 -0.239187
-0.186267 0.361158 -0.237491
-0.186637 0.361158 -0.235795
-0.185773 0.360467 -0.234005
-0.186143 0.360467 -0.232307
-0.187746 0.361158 -0.230706
-0.188115 0.361158 -0.229010
-0.188485 0.361158 -0.227314
-0.188855 0.361158 -0.225617
-0.190453 0.361847 -0.224024
-0.190823 0.361847 -0.222329
-0.191192 0.361847 -0.220635
-0.191561 0.361847 -0.218940
-0.191931 0.361847 -0.217245
-0.192300 0.361847 -0.215551
-0.191443 0.361158 -0.213744
-0.193039 0.361847 -0.212161
-0.193408 0.361847 -0.210467
-0.193777 0.361847 -0.208772
-0.194147 0.361847 -0.207077
-0.194516 0.361847 -0.205383
-0.193661 0.361158 -0.203567
-0.194030 0.361158 -0.201871
-0.194400 0.361158 -0.200174
-0.194770 0.361158 -0.198478
-0.195139 0.361158 -0.196782
-0.194284 0.360467 -0.194957
-0.194654 0.360467 -0.193259
-0.193797 0.359776 -0.191429
-0.194167 0.359776 -0.189730
-0.194538 0.359776 -0.188030
-0.194908 0.359776 -0.186331
-0.195279 0.359776 -0.184632
-0.195649 0.359776 -0.182932
-0.194792 0.359083 -0.181091
-0.195163 0.359083 -0.179390
-0.195534 0.359083 -0.177690
-0.195904 0.359083 -0.175989
-0.195047 0.358388 -0.174139
-0.195418 0.358388 -0.172437
-0.195789 0.358388 -0.170735
-0.194931 0.357693 -0.168879
-0.192838 0.356298 -0.166865
-0.193210 0.356298 -0.165158
-0.193582 0.356298 -0.163450
-0.192720 0.355599 -0.161583
-0.193092 0.355599 -0.159874
-0.193465 0.355599 -0.158166
-0.193837 0.355599 -0.156457
-0.194209 0.355599 -0.154749
-0.193347 0.354898 -0.152872
-0.193720 0.354898 -0.151161
-0.194092 0.354898 -0.149451
-0.193229 0.354196 -0.147568
-0.193602 0.354196 -0.145856
-0.193975 0.354196 -0.144144
-0.193110 0.353493 -0.142254
-0.193484 0.353493 -0.140541
-0.192618 0.352789 -0.138645
-0.192992 0.352789 -0.136930
-0.192125 0.352083 -0.135030
-0.191256 0.351376 -0.133126
-0.191631 0.351376 -0.131408
-0.190761 0.350667 -0.129499
-0.191136 0.350667 -0.127780
-0.190265 0.349958 -0.125866
-0.189392 0.349247 -0.123948
-0.188518 0.348534 -0.122027
-0.188893 0.348534 -0.120303
-0.188018 0.347821 -0.118376
-0.187141 0.347106 -0.116447
-0.186262 0.346390 -0.114513
-0.186639 0.346390 -0.112784
-0.184499 0.344953 -0.110636
-0.184877 0.344953 -0.108903
-0.183994 0.344233 -0.106958
-0.183109 0.343511 -0.105008
-0.182222 0.342788 -0.103055
-0.181334 0.342064 -0.101099
-0.180444 0.341338 -0.099138
-0.180823 0.341338 -0.097398
-0.179932 0.340611 -0.095433
-0.179039 0.339883 -0.093463
-0.178145 0.339153 -0.091490
-0.177248 0.338422 -0.089514
-0.176350 0.337690 -0.087534
-0.175451 0.336956 -0.085550
-0.174550 0.336221 -0.083562
-0.173647 0.335485 -0.081571
-0.172742 0.334747 -0.079575
-0.171836 0.334007 -0.077577
-0.170927 0.333267 -0.075574
-0.170018 0.332524 -0.073567
-0.169106 0.331781 -0.071557
-0.165591 0.329542 -0.069037
-0.164672 0.328793 -0.067015
-0.163751 0.328042 -0.064989
-0.161518 0.326537 -0.062699
-0.160591 0.325782 -0.060663
-0.159663 0.325026 -0.058624
-0.157413 0.323509 -0.056313
-0.156479 0.322748 -0.054263
-0.154217 0.321223 -0.051938
-0.153277 0.320458 -0.049878
-0.152336 0.319691 -0.047814
-0.150057 0.318154 -0.045467
-0.149109 0.317383 -0.043393
-0.148160 0.316611 -0.041315
-0.145865 0.315062 -0.038947
-0.144910 0.314285 -0.036859
-0.142601 0.312727 -0.034475
-0.141640 0.311946 -0.032376
-0.140677 0.311163 -0.030274
-0.138351 0.309593 -0.027868
-0.137383 0.308805 -0.025755
-0.133672 0.306434 -0.023027
-0.132695 0.305641 -0.020901
-0.130338 0.304049 -0.018461
-0.129355 0.303251 -0.016324
-0.126984 0.301650 -0.013867
-0.125995 0.300847 -0.011720
-0.123611 0.299236 -0.009247
-0.122615 0.298429 -0.007088
-0.120217 0.296809 -0.004599
-0.119215 0.295996 -0.002429
-0.118211 0.295182 -0.000256
-0.115795 0.293550 0.002257
-0.114785 0.292731 0.004442
-0.110934 0.290265 0.007313
-0.109915 0.289439 0.009511
-0.106034 0.286953 0.012409
-0.103569 0.285288 0.014972
-0.102537 0.284453 0.017191
-0.100058 0.282777 0.019772
-0.097569 0.281095 0.022363
-0.095070 0.279406 0.024964
-0.092561 0.277710 0.027576
-0.090041 0.276007 0.030198
-0.086037 0.273440 0.033206
-0.082009 0.270858 0.036232
-0.077956 0.268260 0.039276
-0.075379 0.266519 0.041952
-0.071284 0.263894 0.045029
-0.067165 0.261253 0.048125
-0.063020 0.258595 0.051241
-0.058850 0.255921 0.054376
-0.054653 0.253231 0.057530
-0.047318 0.248709 0.061533
-0.041479 0.245058 0.065157
-0.014702 0.229193 0.074431
0.154997 0.129944 0.122433
0.162596 0.125228 0.126842
0.170267 0.120468 0.131293
0.180083 0.114453 0.136355
0.183748 0.112026 0.139748
0.183257 0.112026 0.142000
0.182766 0.112026 0.144252
0.184358 0.110809 0.147088
0.183867 0.110809 0.149343
0.183375 0.110809 0.151597
0.182884 0.110809 0.153852
0.184478 0.109588 0.156703
0.183986 0.109588 0.158960
0.183494 0.109588 0.161218
0.183002 0.109588 0.163475
0.184598 0.108365 0.166341
0.184105 0.108365 0.168601
0.183613 0.108365 0.170861
0.183120 0.108365 0.173122
0.184719 0.107138 0.176002
0.184225 0.107138 0.178265
0.183732 0.107138 0.180528
0.183239 0.107138 0.182791
0.186938 0.104677 0.186322
0.186444 0.104677 0.188590
0.185949 0.104677 0.190859
0.187557 0.103441 0.193772
0.187062 0.103441 0.196043
0.186567 0.103441 0.198314
0.188177 0.102203 0.201239
0.187682 0.102203 0.203513
0.187186 0.102203 0.205787
0.188799 0.100962 0.208726
0.188303 0.100962 0.211002
0.187807 0.100962 0.213279
0.187310 0.100962 0.215556
0.188926 0.099717 0.218509
0.188429 0.099717 0.220789
0.187932 0.099717 0.223069
0.189550 0.098470 0.226035
0.189052 0.098470 0.228317
0.188555 0.098470 0.230599
0.190175 0.097219 0.233579
0.189677 0.097219 0.235864
0.189179 0.097219 0.238149
0.188681 0.097219 0.240434
0.188183 0.097219 0.242719
0.187685 0.097219 0.245004
0.189307 0.095966 0.248005
0.188808 0.095966 0.250293
0.190433 0.094709 0.253303
0.189934 0.094709 0.255594
0.189434 0.094709 0.257885
0.191062 0.093449 0.260908
0.190562 0.093449 0.263202
0.190062 0.093449 0.265495
0.191693 0.092187 0.268532
0.191192 0.092187 0.270828
0.192826 0.090921 0.273876
0.192325 0.090921 0.276175
0.191824 0.090921 0.278474
0.191323 0.090921 0.280773
0.192959 0.089652 0.283836
0.192457 0.089652 0.286138
0.191955 0.089652 0.288440
0.193594 0.088379 0.291516
0.193092 0.088379 0.293821
0.194734 0.087104 0.296908
0.194231 0.087104 0.299215
0.195877 0.085826 0.302313
0.195373 0.085826 0.304623
0.197022 0.084544 0.307731
0.196518 0.084544 0.310044
0.198171 0.083259 0.313163
0.199827 0.081971 0.316289
0.199322 0.081971 0.318608
0.200982 0.080680 0.321744
0.200476 0.080680 0.324066
0.199970 0.080680 0.326388
0.201633 0.079386 0.329539
0.201126 0.079386 0.331864
0.202793 0.078088 0.335025
0.204464 0.076787 0.338193
0.203956 0.076787 0.340524
0.205630 0.075483 0.343704
-0.054358 0.315886 -0.483119
-0.063278 0.320498 -0.480499
-0.066488 0.322023 -0.478446
-0.069685 0.323543 -0.476401
-0.072870 0.325057 -0.474363
-0.074651 0.325812 -0.472462
-0.076429 0.326565 -0.470563
-0.076815 0.326565 -0.468793
-0.078589 0.327317 -0.466900
-0.078974 0.327317 -0.465132
-0.080744 0.328068 -0.463244
-0.082511 0.328817 -0.461360
-0.082896 0.328817 -0.459595
-0.084659 0.329564 -0.457716
-0.086419 0.330311 -0.455841
-0.086803 0.330311 -0.454079
-0.088559 0.331056 -0.452209
-0.088943 0.331056 -0.450449
-0.090695 0.331799 -0.448584
-0.092445 0.332541 -0.446722
-0.092828 0.332541 -0.444966
-0.094573 0.333282 -0.443109
-0.096316 0.334021 -0.441256
-0.096698 0.334021 -0.439503
-0.098436 0.334759 -0.437655
-0.098818 0.334759 -0.435903
-0.100553 0.335496 -0.434061
-0.102285 0.336231 -0.432222
-0.102666 0.336231 -0.430473
-0.104395 0.336964 -0.428639
-0.106120 0.337697 -0.426808
-0.106500 0.337697 -0.425063
-0.108221 0.338428 -0.423237
-0.108602 0.338428 -0.421494
-0.110319 0.339158 -0.419673
-0.112034 0.339886 -0.417856
-0.112413 0.339886 -0.416115
-0.114125 0.340613 -0.414303
-0.115833 0.341339 -0.412494
-0.116211 0.341339 -0.410757
-0.117916 0.342063 -0.408953
-0.118294 0.342063 -0.407218
-0.119995 0.342786 -0.405419
-0.120373 0.342786 -0.403685
-0.120751 0.342786 -0.401951
-0.122448 0.343507 -0.400158
-0.124142 0.344228 -0.398369
-0.124519 0.344228 -0.396639
-0.126210 0.344946 -0.394854
-0.126586 0.344946 -0.393125
-0.128273 0.345664 -0.391346
-0.129957 0.346380 -0.389570
-0.130333 0.346380 -0.387844
-0.132014 0.347095 -0.386073
-0.132390 0.347095 -0.384349
-0.134067 0.347809 -0.382582
-0.134442 0.347809 -0.380860
-0.134818 0.347809 -0.379137
-0.136491 0.348521 -0.377377
-0.138161 0.349232 -0.375620
-0.138536 0.349232 -0.373901
-0.141492 0.350650 -0.372117
-0.143153 0.351357 -0.370370
-0.143527 0.351357 -0.368655
-0.145184 0.352063 -0.366913
-0.145558 0.352063 -0.365200
-0.145931 0.352063 -0.363486
-0.147585 0.352768 -0.361751
-0.147958 0.352768 -0.360039
-0.148331 0.352768 -0.358327
-0.149981 0.353471 -0.356598
-0.150354 0.353471 -0.354887
-0.150727 0.353471 -0.353177
-0.152373 0.354173 -0.351454
-0.152746 0.354173 -0.349745
-0.153118 0.354173 -0.348037
-0.153490 0.354173 -0.346328
-0.153863 0.354173 -0.344620
-0.155505 0.354873 -0.342906
-0.155877 0.354873 -0.341199
-0.156249 0.354873 -0.339492
-0.159151 0.356271 -0.337783
-0.159523 0.356271 -0.336080
-0.159894 0.356271 -0.334376
-0.160265 0.356271 -0.332672
-0.160637 0.356271 -0.330968
-0.162268 0.356968 -0.329271
-0.162639 0.356968 -0.327569
-0.164267 0.357663 -0.325877
-0.164638 0.357663 -0.324176
-0.165009 0.357663 -0.322475
-0.166633 0.358357 -0.320789
-0.167004 0.358357 -0.319090
-0.167374 0.358357 -0.317390
-0.167744 0.358357 -0.315691
-0.169365 0.359051 -0.314013
-0.169735 0.359051 -0.312315
-0.170105 0.359051 -0.310617
-0.170475 0.359051 -0.308920
-0.170845 0.359051 -0.307222
-0.171215 0.359051 -0.305524
-0.171585 0.359051 -0.303826
-0.171955 0.359051 -0.302129
-0.172325 0.359051 -0.300431
-0.172695 0.359051 -0.298733
-0.174310 0.359742 -0.297072
-0.174679 0.359742 -0.295376
-0.173805 0.359051 -0.293640
-0.175419 0.359742 -0.291983
-0.175788 0.359742 -0.290287
-0.176158 0.359742 -0.288591
-0.176528 0.359742 -0.286895
-0.176897 0.359742 -0.285199
-0.177267 0.359742 -0.283502
-0.177637 0.359742 -0.281806
-0.178006 0.359742 -0.280110
-0.178376 0.359742 -0.278414
-0.178746 0.359742 -0.276718
-0.179116 0.359742 -0.275021
-0.179485 0.359742 -0.273325
-0.179855 0.359742 -0.271629
-0.180225 0.359742 -0.269933
-0.180594 0.359742 -0.268236
-0.180964 0.359742 -0.266540
-0.181334 0.359742 -0.264844
-0.182939 0.360433 -0.263215
-0.183308 0.360433 -0.261520
-0.183678 0.360433 -0.259826
-0.184047 0.360433 -0.258131
-0.184416 0.360433 -0.256436
-0.184786 0.360433 -0.254742
-0.185155 0.360433 -0.253047
-0.185524 0.360433 -0.251352
-0.185894 0.360433 -0.249658
-0.186263 0.360433 -0.247963
-0.186633 0.360433 -0.246268
-0.187002 0.360433 -0.244574
-0.187371 0.360433 -0.242879
-0.187741 0.360433 -0.241184
-0.186879 0.359742 -0.239401
-0.187249 0.359742 -0.237705
-0.188849 0.360433 -0.236100
-0.187988 0.359742 -0.234312
-0.188358 0.359742 -0.232616
-0.188727 0.359742 -0.230920
-0.190326 0.360433 -0.229322
-0.190695 0.360433 -0.227627
-0.191065 0.360433 -0.225932
-0.191434 0.360433 -0.224238
-0.193029 0.361122 -0.222647
-0.193398 0.361122 -0.220954
-0.193767 0.361122 -0.219261
-0.194136 0.361122 -0.217568
-0.194505 0.361122 -0.215874
-0.193650 0.360433 -0.214070
-0.195243 0.361122 -0.212488
-0.195612 0.361122 -0.210795
-0.195981 0.361122 -0.209102
-0.196350 0.361122 -0.207409
-0.196719 0.361122 -0.205716
-0.197088 0.361122 -0.204022
-0.196236 0.360433 -0.202207
-0.196605 0.360433 -0.200512
-0.196975 0.360433 -0.198818
-0.197344 0.360433 -0.197123
-0.196491 0.359742 -0.195300
-0.196861 0.359742 -0.193604
-0.196007 0.359051 -0.191775
-0.196377 0.359051 -0.190078
-0.196747 0.359051 -0.188380
-0.197117 0.359051 -0.186682
-0.197487 0.359051 -0.184984
-0.197857 0.359051 -0.183287
-0.197003 0.358357 -0.181447
-0.197373 0.358357 -0.179748
-0.197744 0.358357 -0.178049
-0.196889 0.357663 -0.176203
-0.196033 0.356968 -0.174354
-0.196404 0.356968 -0.172652
-0.196775 0.356968 -0.170950
-0.197146 0.356968 -0.169247
-0.196289 0.356271 -0.167390
-0.196660 0.356271 -0.165686
-0.194570 0.354873 -0.163666
-0.194943 0.354873 -0.161959
-0.195315 0.354873 -0.160252
-0.194454 0.354173 -0.158381
-0.196059 0.354873 -0.156838
-0.195199 0.354173 -0.154964
-0.195571 0.354173 -0.153256
-0.195943 0.354173 -0.151547
-0.195082 0.353471 -0.149667
-0.195455 0.353471 -0.147957
-0.195828 0.353471 -0.146247
-0.194966 0.352768 -0.144360
-0.195339 0.352768 -0.142648
-0.194476 0.352063 -0.140757
-0.194849 0.352063 -0.139043
-0.195222 0.352063 -0.137330
-0.194358 0.351357 -0.135432
-0.193493 0.350650 -0.133530
-0.193867 0.350650 -0.131814
-0.193000 0.349942 -0.129907
-0.192131 0.349232 -0.127997
-0.192506 0.349232 -0.126277
-0.191636 0.348521 -0.124362
-0.190765 0.347809 -0.122443
-0.191140 0.347809 -0.120720
-0.190267 0.347095 -0.118796
-0.189393 0.346380 -0.116868
-0.188517 0.345664 -0.114937
-0.188894 0.345664 -0.113209
-0.186761 0.344228 -0.111064
-0.187138 0.344228 -0.109333
-0.186257 0.343507 -0.107390
-0.185375 0.342786 -0.105442
-0.184492 0.342063 -0.103492
-0.183606 0.341339 -0.101537
-0.182719 0.340613 -0.099579
-0.183098 0.340613 -0.097841
-0.182210 0.339886 -0.095877
-0.181320 0.339158 -0.093910
-0.180428 0.338428 -0.091940
-0.179535 0.337697 -0.089965
-0.178640 0.336964 -0.087987
-0.177744 0.336231 -0.086006
-0.176845 0.335496 -0.084020
-0.175945 0.334759 -0.082031
-0.175044 0.334021 -0.080038
-0.174140 0.333282 -0.078042
-0.173235 0.332541 -0.076041
-0.172329 0.331799 -0.074037
-0.171420 0.331056 -0.072029
-0.170510 0.330311 -0.070018
-0.168300 0.328817 -0.067748
-0.166081 0.327317 -0.065470
-0.165162 0.326565 -0.063442
-0.164240 0.325812 -0.061411
-0.162006 0.324301 -0.059112
-0.161079 0.323543 -0.057071
-0.158832 0.322023 -0.054757
-0.157899 0.321261 -0.052706
-0.156965 0.320498 -0.050651
-0.154701 0.318966 -0.048316
-0.153761 0.318199 -0.046251
-0.152819 0.317429 -0.044182
-0.150539 0.315886 -0.041826
-0.149591 0.315112 -0.039746
-0.147298 0.313560 -0.037375
-0.146344 0.312782 -0.035285
-0.145389 0.312003 -0.033192
-0.144432 0.311221 -0.031094
-0.142118 0.309654 -0.028694
-0.139795 0.308081 -0.026285
-0.138827 0.307292 -0.024170
-0.136491 0.305710 -0.021745
-0.134146 0.304122 -0.019311
-0.133168 0.303325 -0.017179
-0.130809 0.301727 -0.014729
-0.129826 0.300926 -0.012587
-0.127454 0.299319 -0.010120
-0.126464 0.298513 -0.007967
-0.124078 0.296896 -0.005484
-0.123082 0.296086 -0.003320
-0.120682 0.294459 -0.000820
-0.118273 0.292827 0.001689
-0.118676 0.292827 0.003534
-0.116258 0.291188 0.006057
-0.113831 0.289542 0.008590
-0.111394 0.287890 0.011133
-0.107517 0.285400 0.014036
-0.106491 0.284566 0.016250
-0.104025 0.282894 0.018823
-0.101549 0.281216 0.021407
-0.100511 0.280374 0.023639
-0.098020 0.278685 0.026241
-0.095520 0.276989 0.028852
-0.093009 0.275287 0.031475
-0.089018 0.272721 0.034483
-0.085003 0.270138 0.037509
-0.082450 0.268408 0.040171
-0.078394 0.265800 0.043230
-0.074314 0.263175 0.046308
-0.070208 0.260535 0.049405
-0.067596 0.258765 0.052121
-0.063448 0.256097 0.055252
-0.057737 0.252514 0.058812
-0.051979 0.248902 0.062402
-0.044606 0.244343 0.066443
-0.024382 0.232266 0.073981
0.161309 0.123373 0.126562
0.171024 0.117404 0.131571
0.180856 0.111364 0.136641
0.182444 0.110147 0.139464
0.184036 0.108927 0.142294
0.183544 0.108927 0.144549
0.183053 0.108927 0.146803
0.182562 0.108927 0.149058
0.184155 0.107704 0.151903
0.183663 0.107704 0.154160
0.183171 0.107704 0.156418
0.182679 0.107704 0.158675
0.184275 0.106479 0.161535
0.183782 0.106479 0.163795
0.183290 0.106479 0.166056
0.182797 0.106479 0.168316
0.184395 0.105250 0.171191
0.183902 0.105250 0.173454
0.183409 0.105250 0.175717
0.182915 0.105250 0.177980
0.186614 0.102784 0.181499
0.186119 0.102784 0.183767
0.185625 0.102784 0.186036
0.185131 0.102784 0.188304
0.186737 0.101546 0.191214
0.186242 0.101546 0.193485
0.185747 0.101546 0.195756
0.185252 0.101546 0.198027
0.186861 0.100305 0.200953
0.186365 0.100305 0.203227
0.185870 0.100305 0.205501
0.187481 0.099061 0.208438
0.186985 0.099061 0.210715
0.186489 0.099061 0.212992
0.188103 0.097815 0.215942
0.187606 0.097815 0.218222
0.187109 0.097815 0.220501
0.188726 0.096565 0.223465
0.188229 0.096565 0.225747
0.187731 0.096565 0.228029
0.189351 0.095312 0.231005
0.188853 0.095312 0.233290
0.188355 0.095312 0.235576
0.189977 0.094056 0.238565
0.189478 0.094056 0.240852
0.188980 0.094056 0.243140
0.188481 0.094056 0.245428
0.187983 0.094056 0.247716
0.187484 0.094056 0.250004
0.189107 0.092797 0.253014
0.188608 0.092797 0.255305
0.190234 0.091535 0.258326
0.189735 0.091535 0.260619
0.189235 0.091535 0.262913
0.190864 0.090270 0.265946
0.190364 0.090270 0.268242
0.189863 0.090270 0.270539
0.191495 0.089002 0.273585
0.190994 0.089002 0.275885
0.192630 0.087730 0.278942
0.192128 0.087730 0.281244
0.191626 0.087730 0.283546
0.191125 0.087730 0.285848
0.190623 0.087730 0.288150
0.192260 0.086456 0.291225
0.191758 0.086456 0.293530
0.193398 0.085178 0.296617
0.192895 0.085178 0.298924
0.194539 0.083897 0.302021
0.194036 0.083897 0.304332
0.195683 0.082613 0.307439
0.195179 0.082613 0.309752
0.196830 0.081326 0.312870
0.198485 0.080036 0.315996
0.197980 0.080036 0.318315
0.199638 0.078742 0.321451
0.199132 0.078742 0.323773
0.198626 0.078742 0.326095
0.200287 0.077445 0.329245
0.199781 0.077445 0.331570
0.201446 0.076145 0.334731
0.203114 0.074842 0.337899
0.204788 0.073536 0.341076
0.204279 0.073536 0.343409
0.210343 0.069596 0.348310
-0.056824 0.315163 -0.483205
-0.065722 0.319774 -0.480588
-0.068923 0.321300 -0.478536
-0.072113 0.322819 -0.476493
-0.075290 0.324333 -0.474457
-0.077068 0.325088 -0.472557
-0.078841 0.325841 -0.470660
-0.079227 0.325841 -0.468892
-0.080997 0.326593 -0.467001
-0.081382 0.326593 -0.465234
-0.083148 0.327344 -0.463348
-0.084911 0.328093 -0.461465
-0.085295 0.328093 -0.459702
-0.087055 0.328840 -0.457825
-0.088811 0.329587 -0.455951
-0.089194 0.329587 -0.454191
-0.090947 0.330332 -0.452323
-0.091330 0.330332 -0.450564
-0.093079 0.331075 -0.448701
-0.094824 0.331817 -0.446841
-0.095207 0.331817 -0.445086
-0.096948 0.332558 -0.443231
-0.098687 0.333297 -0.441380
-0.099069 0.333297 -0.439628
-0.100804 0.334035 -0.437782
-0.101185 0.334035 -0.436032
-0.102916 0.334771 -0.434191
-0.104644 0.335506 -0.432353
-0.105025 0.335506 -0.430606
-0.106749 0.336240 -0.428774
-0.108471 0.336973 -0.426945
-0.108851 0.336973 -0.425201
-0.110568 0.337704 -0.423377
-0.110948 0.337704 -0.421635
-0.112662 0.338433 -0.419816
-0.114373 0.339162 -0.418000
-0.114752 0.339162 -0.416261
-0.116460 0.339889 -0.414451
-0.118164 0.340614 -0.412643
-0.118542 0.340614 -0.410908
-0.120243 0.341339 -0.409105
-0.120621 0.341339 -0.407371
-0.122318 0.342061 -0.405574
-0.122695 0.342061 -0.403842
-0.123073 0.342061 -0.402109
-0.124766 0.342783 -0.400318
-0.126457 0.343503 -0.398531
-0.126834 0.343503 -0.396802
-0.128520 0.344222 -0.395019
-0.128897 0.344222 -0.393291
-0.130580 0.344940 -0.391514
-0.132260 0.345656 -0.389739
-0.132636 0.345656 -0.388015
-0.134313 0.346371 -0.386245
-0.134688 0.346371 -0.384522
-0.136362 0.347085 -0.382758
-0.136737 0.347085 -0.381036
-0.138407 0.347797 -0.379277
-0.138782 0.347797 -0.377557
-0.139156 0.347797 -0.375837
-0.140822 0.348508 -0.374084
-0.143772 0.349926 -0.372301
-0.145429 0.350633 -0.370556
-0.145803 0.350633 -0.368842
-0.147457 0.351339 -0.367102
-0.147830 0.351339 -0.365390
-0.148203 0.351339 -0.363678
-0.149853 0.352044 -0.361944
-0.150226 0.352044 -0.360234
-0.150598 0.352044 -0.358523
-0.152245 0.352747 -0.356795
-0.152617 0.352747 -0.355087
-0.152990 0.352747 -0.353378
-0.154633 0.353449 -0.351656
-0.155005 0.353449 -0.349949
-0.155377 0.353449 -0.348242
-0.155749 0.353449 -0.346535
-0.156121 0.353449 -0.344828
-0.159023 0.354849 -0.343110
-0.159395 0.354849 -0.341406
-0.159766 0.354849 -0.339702
-0.160138 0.354849 -0.337998
-0.161769 0.355547 -0.336295
-0.162141 0.355547 -0.334593
-0.162512 0.355547 -0.332891
-0.164140 0.356244 -0.331194
-0.164510 0.356244 -0.329493
-0.164881 0.356244 -0.327792
-0.166506 0.356939 -0.326101
-0.166876 0.356939 -0.324402
-0.167246 0.356939 -0.322703
-0.168867 0.357634 -0.321018
-0.169237 0.357634 -0.319320
-0.169607 0.357634 -0.317623
-0.169977 0.357634 -0.315925
-0.170347 0.357634 -0.314227
-0.170718 0.357634 -0.312529
-0.172334 0.358327 -0.310856
-0.171458 0.357634 -0.309134
-0.171828 0.357634 -0.307436
-0.172198 0.357634 -0.305738
-0.172568 0.357634 -0.304041
-0.172938 0.357634 -0.302343
-0.174552 0.358327 -0.300678
-0.174922 0.358327 -0.298982
-0.175291 0.358327 -0.297286
-0.175661 0.358327 -0.295590
-0.176031 0.358327 -0.293894
-0.176400 0.358327 -0.292197
-0.176770 0.358327 -0.290501
-0.177140 0.358327 -0.288805
-0.177510 0.358327 -0.287109
-0.177879 0.358327 -0.285413
-0.179488 0.359019 -0.283765
-0.179857 0.359019 -0.282070
-0.180226 0.359019 -0.280375
-0.180596 0.359019 -0.278681
-0.180965 0.359019 -0.276986
-0.181334 0.359019 -0.275291
-0.180467 0.358327 -0.273539
-0.180837 0.358327 -0.271843
-0.182443 0.359019 -0.270207
-0.182812 0.359019 -0.268513
-0.183181 0.359019 -0.266818
-0.183551 0.359019 -0.265123
-0.183920 0.359019 -0.263429
-0.184289 0.359019 -0.261734
-0.184659 0.359019 -0.260039
-0.185028 0.359019 -0.258345
-0.185397 0.359019 -0.256650
-0.185767 0.359019 -0.254955
-0.186136 0.359019 -0.253261
-0.186505 0.359019 -0.251566
-0.186875 0.359019 -0.249871
-0.187244 0.359019 -0.248177
-0.187614 0.359019 -0.246482
-0.187983 0.359019 -0.244787
-0.189581 0.359709 -0.243178
-0.189950 0.359709 -0.241485
-0.189091 0.359019 -0.239704
-0.189460 0.359019 -0.238009
-0.189830 0.359019 -0.236314
-0.190199 0.359019 -0.234619
-0.190568 0.359019 -0.232925
-0.190938 0.359019 -0.231230
-0.191307 0.359019 -0.229536
-0.192902 0.359709 -0.227940
-0.193271 0.359709 -0.226247
-0.193640 0.359709 -0.224554
-0.194009 0.359709 -0.222861
-0.195600 0.360398 -0.221272
-0.195968 0.360398 -0.219581
-0.196337 0.360398 -0.217889
-0.196706 0.360398 -0.216198
-0.195854 0.359709 -0.214395
-0.197443 0.360398 -0.212814
-0.197812 0.360398 -0.211123
-0.198181 0.360398 -0.209431
-0.198549 0.360398 -0.207740
-0.198918 0.360398 -0.206048
-0.199287 0.360398 -0.204356
-0.198437 0.359709 -0.202543
-0.198806 0.359709 -0.200850
-0.199175 0.359709 -0.199157
-0.199544 0.359709 -0.197464
-0.198694 0.359019 -0.195642
-0.199064 0.359019 -0.193948
-0.198212 0.358327 -0.192121
-0.198582 0.358327 -0.190425
-0.198952 0.358327 -0.188729
-0.198099 0.357634 -0.186896
-0.199691 0.358327 -0.185337
-0.200061 0.358327 -0.183640
-0.199210 0.357634 -0.181803
-0.198357 0.356939 -0.179963
-0.198727 0.356939 -0.178263
-0.199098 0.356939 -0.176564
-0.198244 0.356244 -0.174717
-0.198615 0.356244 -0.173016
-0.198986 0.356244 -0.171315
-0.198131 0.355547 -0.169462
-0.198502 0.355547 -0.167760
-0.198873 0.355547 -0.166057
-0.198018 0.354849 -0.164197
-0.198389 0.354849 -0.162493
-0.196303 0.353449 -0.160467
-0.196675 0.353449 -0.158760
-0.199503 0.354849 -0.157381
-0.197419 0.353449 -0.155346
-0.197791 0.353449 -0.153639
-0.198163 0.353449 -0.151932
-0.197305 0.352747 -0.150054
-0.197677 0.352747 -0.148345
-0.196818 0.352044 -0.146462
-0.197190 0.352044 -0.144752
-0.197563 0.352044 -0.143042
-0.196703 0.351339 -0.141153
-0.197076 0.351339 -0.139441
-0.196214 0.350633 -0.137546
-0.196588 0.350633 -0.135833
-0.195725 0.349926 -0.133933
-0.194860 0.349218 -0.132030
-0.195234 0.349218 -0.130314
-0.194369 0.348508 -0.128406
-0.194743 0.348508 -0.126688
-0.193876 0.347797 -0.124774
-0.193008 0.347085 -0.122858
-0.193383 0.347085 -0.121136
-0.192513 0.346371 -0.119214
-0.191641 0.345656 -0.117289
-0.190768 0.344940 -0.115360
-0.191145 0.344940 -0.113634
-0.190270 0.344222 -0.111700
-0.189394 0.343503 -0.109762
-0.188517 0.342783 -0.107821
-0.187638 0.342061 -0.105876
-0.186757 0.341339 -0.103927
-0.185875 0.340614 -0.101975
-0.186253 0.340614 -0.100240
-0.185369 0.339889 -0.098282
-0.184484 0.339162 -0.096321
-0.183597 0.338433 -0.094356
-0.182708 0.337704 -0.092388
-0.181818 0.336973 -0.090416
-0.180926 0.336240 -0.088440
-0.180032 0.335506 -0.086461
-0.179137 0.334771 -0.084478
-0.178240 0.334035 -0.082491
-0.177341 0.333297 -0.080500
-0.176441 0.332558 -0.078506
-0.175539 0.331817 -0.076508
-0.174635 0.331075 -0.074506
-0.173730 0.330332 -0.072501
-0.172823 0.329587 -0.070491
-0.171914 0.328840 -0.068478
-0.169706 0.327344 -0.066206
-0.168792 0.326593 -0.064183
-0.166572 0.325088 -0.061896
-0.165652 0.324333 -0.059863
-0.163420 0.322819 -0.057561
-0.162494 0.322060 -0.055518
-0.161567 0.321300 -0.053472
-0.159319 0.319774 -0.051149
-0.158386 0.319009 -0.049093
-0.156125 0.317475 -0.046755
-0.155186 0.316706 -0.044688
-0.154246 0.315935 -0.042617
-0.151968 0.314389 -0.040258
-0.151022 0.313614 -0.038177
-0.150074 0.312837 -0.036093
-0.147779 0.311279 -0.033712
-0.146825 0.310498 -0.031616
-0.145869 0.309715 -0.029517
-0.143558 0.308146 -0.027114
-0.142596 0.307358 -0.025005
-0.140272 0.305779 -0.022586
-0.139304 0.304987 -0.020466
-0.135596 0.302603 -0.017721
-0.134620 0.301805 -0.015587
-0.132264 0.300204 -0.013134
-0.131282 0.299401 -0.010990
-0.128912 0.297791 -0.008520
-0.127924 0.296984 -0.006365
-0.125541 0.295364 -0.003879
-0.124546 0.294552 -0.001713
-0.122150 0.292922 0.000789
-0.121149 0.292105 0.002966
-0.120146 0.291287 0.005147
-0.117731 0.289645 0.007673
-0.115307 0.287996 0.010209
-0.114293 0.287169 0.012408
-0.110429 0.284679 0.015312
-0.107976 0.283011 0.017878
-0.105512 0.281336 0.020455
-0.104481 0.280496 0.022682
-0.102003 0.278811 0.025276
-0.099516 0.277119 0.027881
-0.098473 0.276270 0.030126
-0.095971 0.274568 0.032748
-0.091993 0.272002 0.035757
-0.089465 0.270283 0.038404
-0.085447 0.267690 0.041446
-0.081404 0.265082 0.044506
-0.077337 0.262458 0.047585
-0.074750 0.260700 0.050286
-0.070642 0.258049 0.053398
-0.066507 0.255382 0.056530
-0.062348 0.252698 0.059681
-0.055075 0.248188 0.063683
-0.047727 0.243630 0.067727
-0.032367 0.234372 0.073970
0.169730 0.115538 0.131289
0.179554 0.109486 0.136357
0.183222 0.107045 0.139754
0.182731 0.107045 0.142009
0.182239 0.107045 0.144264
0.183832 0.105820 0.147103
0.183340 0.105820 0.149360
0.182848 0.105820 0.151618
0.182356 0.105820 0.153875
0.181864 0.105820 0.156133
0.183459 0.104592 0.158990
0.182967 0.104592 0.161250
0.182474 0.104592 0.163510
0.184072 0.103361 0.166379
0.183578 0.103361 0.168642
0.183085 0.103361 0.170905
0.182592 0.103361 0.173168
0.186290 0.100890 0.176676
0.185795 0.100890 0.178944
0.185301 0.100890 0.181212
0.184806 0.100890 0.183481
0.186413 0.099650 0.186385
0.185918 0.099650 0.188656
0.185423 0.099650 0.190927
0.184927 0.099650 0.193198
0.184432 0.099650 0.195470
0.186040 0.098407 0.198392
0.185545 0.098407 0.200666
0.185049 0.098407 0.202940
0.186659 0.097161 0.205874
0.186163 0.097161 0.208151
0.185667 0.097161 0.210428
0.187280 0.095912 0.213375
0.186783 0.095912 0.215655
0.186287 0.095912 0.217934
0.187902 0.094660 0.220894
0.187405 0.094660 0.223177
0.186907 0.094660 0.225459
0.186410 0.094660 0.227741
0.188028 0.093405 0.230717
0.187530 0.093405 0.233002
0.187032 0.093405 0.235287
0.188653 0.092147 0.238276
0.188154 0.092147 0.240564
0.187655 0.092147 0.242852
0.189279 0.090886 0.245853
0.188780 0.090886 0.248144
0.188280 0.090886 0.250435
0.187781 0.090886 0.252725
0.187282 0.090886 0.255016
0.188907 0.089621 0.258036
0.188407 0.089621 0.260330
0.187907 0.089621 0.262623
0.189535 0.088354 0.265656
0.189034 0.088354 0.267953
0.190666 0.087083 0.270996
0.188033 0.088354 0.272545
0.189663 0.087083 0.275595
0.191297 0.085809 0.278651
0.190796 0.085809 0.280953
0.190294 0.085809 0.283255
0.189792 0.085809 0.285557
0.191428 0.084532 0.288630
0.190926 0.084532 0.290935
0.190424 0.084532 0.293240
0.192063 0.083252 0.296326
0.191560 0.083252 0.298633
0.193202 0.081969 0.301730
0.192698 0.081969 0.304040
0.194344 0.080683 0.307147
0.193840 0.080683 0.309461
0.195489 0.079393 0.312578
0.197143 0.078100 0.315703
0.196637 0.078100 0.318023
0.198294 0.076804 0.321158
0.197788 0.076804 0.323480
0.197282 0.076804 0.325802
0.198942 0.075505 0.328952
0.198435 0.075505 0.331277
0.200098 0.074203 0.334437
0.201765 0.072897 0.337605
0.203437 0.071588 0.340781
0.202928 0.071588 0.343115
0.204603 0.070276 0.346302
-0.059286 0.314441 -0.483291
-0.066753 0.318287 -0.480812
-0.069953 0.319815 -0.478761
-0.074537 0.322097 -0.476584
-0.077706 0.323611 -0.474550
-0.079480 0.324365 -0.472652
-0.081249 0.325119 -0.470757
-0.081634 0.325119 -0.468990
-0.083400 0.325870 -0.467101
-0.083785 0.325870 -0.465336
-0.085548 0.326621 -0.463451
-0.087307 0.327370 -0.461571
-0.087691 0.327370 -0.459809
-0.089446 0.328118 -0.457933
-0.091198 0.328864 -0.456061
-0.091581 0.328864 -0.454303
-0.093330 0.329609 -0.452436
-0.095075 0.330352 -0.450573
-0.095457 0.330352 -0.448817
-0.097199 0.331094 -0.446959
-0.097581 0.331094 -0.445206
-0.099319 0.331835 -0.443353
-0.101054 0.332574 -0.441503
-0.101435 0.332574 -0.439753
-0.103166 0.333312 -0.437908
-0.103547 0.333312 -0.436160
-0.105275 0.334049 -0.434320
-0.106999 0.334784 -0.432484
-0.107379 0.334784 -0.430739
-0.109100 0.335517 -0.428908
-0.110818 0.336250 -0.427081
-0.111197 0.336250 -0.425339
-0.112911 0.336981 -0.423516
-0.114622 0.337711 -0.421697
-0.115001 0.337711 -0.419958
-0.116708 0.338439 -0.418144
-0.117087 0.338439 -0.416407
-0.118790 0.339166 -0.414598
-0.120491 0.339891 -0.412792
-0.120869 0.339891 -0.411058
-0.122566 0.340616 -0.409257
-0.122943 0.340616 -0.407525
-0.124637 0.341339 -0.405729
-0.125014 0.341339 -0.403998
-0.125391 0.341339 -0.402267
-0.127081 0.342060 -0.400478
-0.128767 0.342781 -0.398692
-0.129144 0.342781 -0.396965
-0.130827 0.343499 -0.395183
-0.132507 0.344217 -0.393406
-0.132883 0.344217 -0.391681
-0.134559 0.344933 -0.389908
-0.134935 0.344933 -0.388185
-0.136608 0.345648 -0.386417
-0.138278 0.346362 -0.384652
-0.138653 0.346362 -0.382933
-0.140319 0.347074 -0.381173
-0.140694 0.347074 -0.379455
-0.141068 0.347074 -0.377737
-0.142731 0.347785 -0.375983
-0.143105 0.347785 -0.374266
-0.146048 0.349203 -0.372485
-0.146421 0.349203 -0.370772
-0.148074 0.349910 -0.369029
-0.149725 0.350616 -0.367290
-0.150097 0.350616 -0.365580
-0.150470 0.350616 -0.363870
-0.152117 0.351321 -0.362137
-0.152489 0.351321 -0.360428
-0.152862 0.351321 -0.358720
-0.154505 0.352024 -0.356993
-0.154877 0.352024 -0.355286
-0.155249 0.352024 -0.353579
-0.158153 0.353427 -0.351845
-0.158524 0.353427 -0.350141
-0.158896 0.353427 -0.348437
-0.159267 0.353427 -0.346733
-0.159638 0.353427 -0.345029
-0.161271 0.354126 -0.343320
-0.161642 0.354126 -0.341617
-0.162013 0.354126 -0.339915
-0.162384 0.354126 -0.338213
-0.162755 0.354126 -0.336510
-0.164383 0.354824 -0.334810
-0.164754 0.354824 -0.333109
-0.166378 0.355521 -0.331414
-0.166749 0.355521 -0.329714
-0.167119 0.355521 -0.328015
-0.168740 0.356217 -0.326326
-0.169110 0.356217 -0.324628
-0.169480 0.356217 -0.322930
-0.169850 0.356217 -0.321232
-0.171467 0.356911 -0.319551
-0.171837 0.356911 -0.317854
-0.172207 0.356911 -0.316158
-0.172576 0.356911 -0.314462
-0.172946 0.356911 -0.312766
-0.173316 0.356911 -0.311070
-0.173685 0.356911 -0.309373
-0.174055 0.356911 -0.307677
-0.174425 0.356911 -0.305981
-0.174794 0.356911 -0.304285
-0.175164 0.356911 -0.302589
-0.175534 0.356911 -0.300892
-0.175904 0.356911 -0.299196
-0.176273 0.356911 -0.297500
-0.176643 0.356911 -0.295804
-0.178253 0.357604 -0.294147
-0.178622 0.357604 -0.292452
-0.178991 0.357604 -0.290757
-0.179361 0.357604 -0.289063
-0.179730 0.357604 -0.287368
-0.180099 0.357604 -0.285673
-0.180469 0.357604 -0.283979
-0.180838 0.357604 -0.282284
-0.181207 0.357604 -0.280589
-0.181577 0.357604 -0.278895
-0.181946 0.357604 -0.277200
-0.183549 0.358296 -0.275561
-0.183918 0.358296 -0.273868
-0.184287 0.358296 -0.272175
-0.184656 0.358296 -0.270482
-0.185025 0.358296 -0.268789
-0.185394 0.358296 -0.267096
-0.185763 0.358296 -0.265402
-0.186132 0.358296 -0.263709
-0.186501 0.358296 -0.262016
-0.186870 0.358296 -0.260323
-0.187239 0.358296 -0.258630
-0.187608 0.358296 -0.256937
-0.187978 0.358296 -0.255244
-0.188347 0.358296 -0.253550
-0.188716 0.358296 -0.251857
-0.189085 0.358296 -0.250164
-0.189454 0.358296 -0.248471
-0.189823 0.358296 -0.246778
-0.190192 0.358296 -0.245085
-0.190561 0.358296 -0.243392
-0.190930 0.358296 -0.241699
-0.191299 0.358296 -0.240005
-0.191668 0.358296 -0.238312
-0.192037 0.358296 -0.236619
-0.192406 0.358296 -0.234926
-0.192775 0.358296 -0.233233
-0.193144 0.358296 -0.231540
-0.193513 0.358296 -0.229847
-0.193882 0.358296 -0.228153
-0.195473 0.358987 -0.226561
-0.195842 0.358987 -0.224869
-0.196210 0.358987 -0.223177
-0.196579 0.358987 -0.221486
-0.198166 0.359676 -0.219900
-0.198534 0.359676 -0.218210
-0.198903 0.359676 -0.216520
-0.198054 0.358987 -0.214719
-0.199639 0.359676 -0.213140
-0.200008 0.359676 -0.211450
-0.200376 0.359676 -0.209760
-0.200744 0.359676 -0.208070
-0.201113 0.359676 -0.206380
-0.201481 0.359676 -0.204690
-0.200634 0.358987 -0.202878
-0.201003 0.358987 -0.201187
-0.201372 0.358987 -0.199495
-0.201741 0.358987 -0.197803
-0.200893 0.358296 -0.195984
-0.201262 0.358296 -0.194291
-0.200414 0.357604 -0.192467
-0.200783 0.357604 -0.190772
-0.201153 0.357604 -0.189077
-0.201522 0.357604 -0.187383
-0.200673 0.356911 -0.185551
-0.201043 0.356911 -0.183854
-0.201412 0.356911 -0.182158
-0.200562 0.356217 -0.180320
-0.200932 0.356217 -0.178622
-0.201302 0.356217 -0.176924
-0.200452 0.355521 -0.175079
-0.200822 0.355521 -0.173380
-0.199970 0.354824 -0.171530
-0.200341 0.354824 -0.169829
-0.200712 0.354824 -0.168128
-0.199859 0.354126 -0.166272
-0.200230 0.354126 -0.164570
-0.200601 0.354126 -0.162867
-0.199747 0.353427 -0.161004
-0.200118 0.353427 -0.159300
-0.200490 0.353427 -0.157596
-0.200861 0.353427 -0.155892
-0.201233 0.353427 -0.154189
-0.199151 0.352024 -0.152147
-0.199523 0.352024 -0.150440
-0.199895 0.352024 -0.148733
-0.199039 0.351321 -0.146852
-0.199411 0.351321 -0.145144
-0.198553 0.350616 -0.143258
-0.198926 0.350616 -0.141548
-0.199299 0.350616 -0.139837
-0.198440 0.349910 -0.137945
-0.198813 0.349910 -0.136233
-0.197953 0.349203 -0.134336
-0.197091 0.348495 -0.132435
-0.197465 0.348495 -0.130720
-0.196602 0.347785 -0.128814
-0.195737 0.347074 -0.126904
-0.196112 0.347074 -0.125186
-0.195246 0.346362 -0.123272
-0.195621 0.346362 -0.121552
-0.194754 0.345648 -0.119632
-0.193886 0.344933 -0.117709
-0.193015 0.344217 -0.115782
-0.193391 0.344217 -0.114058
-0.192520 0.343499 -0.112126
-0.191647 0.342781 -0.110190
-0.190772 0.342060 -0.108251
-0.189896 0.341339 -0.106308
-0.189018 0.340616 -0.104362
-0.189396 0.340616 -0.102630
-0.188517 0.339891 -0.100678
-0.187636 0.339166 -0.098723
-0.186753 0.338439 -0.096764
-0.185869 0.337711 -0.094802
-0.184984 0.336981 -0.092836
-0.184096 0.336250 -0.090866
-0.183207 0.335517 -0.088892
-0.182317 0.334784 -0.086915
-0.181424 0.334049 -0.084934
-0.180530 0.333312 -0.082950
-0.179635 0.332574 -0.080962
-0.180016 0.332574 -0.079211
-0.179119 0.331835 -0.077218
-0.178220 0.331094 -0.075220
-0.177320 0.330352 -0.073219
-0.175131 0.328864 -0.070964
-0.174225 0.328118 -0.068953
-0.172024 0.326621 -0.066684
-0.171113 0.325870 -0.064663
-0.170200 0.325119 -0.062639
-0.167982 0.323611 -0.060349
-0.167064 0.322854 -0.058315
-0.166144 0.322097 -0.056277
-0.163910 0.320577 -0.053966
-0.162984 0.319815 -0.051918
-0.160739 0.318287 -0.049592
-0.159807 0.317521 -0.047534
-0.158874 0.316753 -0.045472
-0.156611 0.315213 -0.043125
-0.155672 0.314441 -0.041053
-0.153398 0.312892 -0.038691
-0.152453 0.312115 -0.036608
-0.151506 0.311337 -0.034522
-0.149214 0.309776 -0.032138
-0.148262 0.308994 -0.030041
-0.147307 0.308210 -0.027941
-0.146351 0.307424 -0.025836
-0.144038 0.305848 -0.023423
-0.141717 0.304266 -0.021002
-0.140750 0.303473 -0.018880
-0.138415 0.301881 -0.016442
-0.136071 0.300284 -0.013995
-0.135095 0.299483 -0.011856
-0.132738 0.297876 -0.009393
-0.131755 0.297070 -0.007243
-0.129384 0.295454 -0.004764
-0.128395 0.294644 -0.002603
-0.126011 0.293018 -0.000107
-0.123617 0.291386 0.002398
-0.122618 0.290567 0.004577
-0.121616 0.289747 0.006759
-0.119204 0.288102 0.009289
-0.118196 0.287277 0.011482
-0.115771 0.285622 0.014029
-0.111911 0.283127 0.016937
-0.110890 0.282292 0.019151
-0.108435 0.280617 0.021728
-0.105970 0.278936 0.024315
-0.103496 0.277247 0.026913
-0.102459 0.276401 0.029153
-0.099970 0.274702 0.031768
-0.097471 0.272997 0.034393
-0.096423 0.272142 0.036652
-0.092442 0.269566 0.039676
-0.088437 0.266974 0.042718
-0.085891 0.265238 0.045390
-0.081846 0.262619 0.048466
-0.077776 0.259985 0.051560
-0.073681 0.257335 0.054673
-0.069560 0.254668 0.057806
-0.063886 0.251086 0.061369
-0.058165 0.247475 0.064962
-0.052396 0.243834 0.068584
-0.041864 0.237388 0.073526
0.178252 0.107609 0.136073
0.181917 0.105163 0.139470
0.183510 0.103936 0.142303
0.183018 0.103936 0.144561
0.182526 0.103936 0.146818
0.182034 0.103936 0.149076
0.183629 0.102706 0.151924
0.183136 0.102706 0.154184
0.182644 0.102706 0.156444
0.182151 0.102706 0.158705
0.181658 0.102706 0.160965
0.183255 0.101473 0.163831
0.182762 0.101473 0.166094
0.182268 0.101473 0.168357
0.181775 0.101473 0.170620
0.185471 0.098997 0.174121
0.184976 0.098997 0.176389
0.184482 0.098997 0.178658
0.186088 0.097755 0.181556
0.185593 0.097755 0.183827
0.185098 0.097755 0.186098
0.184603 0.097755 0.188369
0.186211 0.096510 0.191283
0.185715 0.096510 0.193557
0.185220 0.096510 0.195831
0.184724 0.096510 0.198105
0.184228 0.096510 0.200379
0.185838 0.095261 0.203310
0.185342 0.095261 0.205587
0.184845 0.095261 0.207864
0.184349 0.095261 0.210141
0.185961 0.094010 0.213088
0.185464 0.094010 0.215367
0.184967 0.094010 0.217647
0.186581 0.092756 0.220606
0.186084 0.092756 0.222889
0.185586 0.092756 0.225171
0.187203 0.091498 0.228144
0.186705 0.091498 0.230429
0.186207 0.091498 0.232714
0.187827 0.090237 0.235699
0.187328 0.090237 0.237987
0.186830 0.090237 0.240275
0.188452 0.088974 0.243273
0.187953 0.088974 0.245564
0.187454 0.088974 0.247855
0.189079 0.087707 0.250866
0.188579 0.087707 0.253160
0.188079 0.087707 0.255453
0.187579 0.087707 0.257747
0.187079 0.087707 0.260040
0.188706 0.086437 0.263070
0.188206 0.086437 0.265367
0.187705 0.086437 0.267663
0.189335 0.085164 0.270706
0.186704 0.086437 0.272256
0.188332 0.085164 0.275304
0.187831 0.085164 0.277604
0.189463 0.083888 0.280663
0.191099 0.082609 0.283729
0.190597 0.082609 0.286034
0.190094 0.082609 0.288339
0.189592 0.082609 0.290644
0.191230 0.081326 0.293727
0.190727 0.081326 0.296034
0.190224 0.081326 0.298342
0.191864 0.080041 0.301438
0.191361 0.080041 0.303749
0.193005 0.078752 0.306855
0.192501 0.078752 0.309169
0.194148 0.077460 0.312286
0.195800 0.076165 0.315411
0.195295 0.076165 0.317730
0.196950 0.074866 0.320865
0.196444 0.074866 0.323188
0.198103 0.073565 0.326334
0.197596 0.073565 0.328659
0.197089 0.073565 0.330984
0.198751 0.072260 0.334143
0.198243 0.072260 0.336471
0.202086 0.069640 0.340487
0.203760 0.068326 0.343671
0.203251 0.068326 0.346007
0.207121 0.065686 0.350062
-0.061742 0.313720 -0.483377
-0.069191 0.317566 -0.480900
-0.072383 0.319094 -0.478850
-0.076955 0.321376 -0.476676
-0.080118 0.322889 -0.474643
-0.081887 0.323644 -0.472747
-0.083653 0.324397 -0.470854
-0.084037 0.324397 -0.469088
-0.085800 0.325149 -0.467201
-0.086184 0.325149 -0.465437
-0.087943 0.325900 -0.463555
-0.089698 0.326649 -0.461676
-0.090081 0.326649 -0.459915
-0.091833 0.327396 -0.458042
-0.093581 0.328143 -0.456171
-0.093964 0.328143 -0.454414
-0.095708 0.328887 -0.452549
-0.097450 0.329631 -0.450687
-0.097832 0.329631 -0.448934
-0.099570 0.330373 -0.447077
-0.099951 0.330373 -0.445326
-0.101685 0.331114 -0.443474
-0.103416 0.331853 -0.441626
-0.103797 0.331853 -0.439878
-0.105524 0.332591 -0.438035
-0.105905 0.332591 -0.436288
-0.107629 0.333327 -0.434450
-0.109349 0.334062 -0.432616
-0.109729 0.334062 -0.430872
-0.111446 0.334796 -0.429043
-0.113160 0.335528 -0.427217
-0.113539 0.335528 -0.425476
-0.115249 0.336259 -0.423655
-0.116956 0.336989 -0.421838
-0.117335 0.336989 -0.420100
-0.119038 0.337717 -0.418288
-0.119417 0.337717 -0.416552
-0.121116 0.338444 -0.414745
-0.122813 0.339170 -0.412941
-0.123191 0.339170 -0.411208
-0.124884 0.339894 -0.409409
-0.125261 0.339894 -0.407678
-0.126951 0.340617 -0.405884
-0.127328 0.340617 -0.404155
-0.127705 0.340617 -0.402425
-0.129391 0.341339 -0.400638
-0.131074 0.342059 -0.398853
-0.131450 0.342059 -0.397127
-0.133129 0.342778 -0.395347
-0.134806 0.343496 -0.393571
-0.135181 0.343496 -0.391848
-0.136854 0.344212 -0.390077
-0.137229 0.344212 -0.388356
-0.138898 0.344927 -0.386589
-0.140565 0.345640 -0.384825
-0.142228 0.346353 -0.383065
-0.142602 0.346353 -0.381349
-0.142976 0.346353 -0.379632
-0.143350 0.346353 -0.377916
-0.145010 0.347064 -0.376164
-0.145383 0.347064 -0.374449
-0.147039 0.347773 -0.372701
-0.148692 0.348482 -0.370957
-0.150342 0.349189 -0.369216
-0.150715 0.349189 -0.367506
-0.152361 0.349895 -0.365770
-0.152734 0.349895 -0.364061
-0.154377 0.350599 -0.362329
-0.154749 0.350599 -0.360622
-0.155121 0.350599 -0.358915
-0.158025 0.352005 -0.357172
-0.158396 0.352005 -0.355468
-0.158768 0.352005 -0.353764
-0.160401 0.352705 -0.352046
-0.160772 0.352705 -0.350344
-0.161143 0.352705 -0.348642
-0.161514 0.352705 -0.346939
-0.161885 0.352705 -0.345237
-0.162256 0.352705 -0.343534
-0.163885 0.353405 -0.341828
-0.164255 0.353405 -0.340127
-0.164626 0.353405 -0.338426
-0.164997 0.353405 -0.336725
-0.166621 0.354103 -0.335026
-0.166992 0.354103 -0.333327
-0.168613 0.354800 -0.331633
-0.168983 0.354800 -0.329935
-0.169353 0.354800 -0.328237
-0.170970 0.355495 -0.326549
-0.171340 0.355495 -0.324853
-0.171710 0.355495 -0.323157
-0.172079 0.355495 -0.321461
-0.172449 0.355495 -0.319765
-0.172819 0.355495 -0.318068
-0.173189 0.355495 -0.316372
-0.174801 0.356190 -0.314696
-0.175171 0.356190 -0.313002
-0.175540 0.356190 -0.311307
-0.175909 0.356190 -0.309612
-0.176279 0.356190 -0.307918
-0.176648 0.356190 -0.306223
-0.177017 0.356190 -0.304528
-0.177387 0.356190 -0.302834
-0.177756 0.356190 -0.301139
-0.178125 0.356190 -0.299444
-0.178495 0.356190 -0.297750
-0.178864 0.356190 -0.296055
-0.179233 0.356190 -0.294360
