ply
format ascii 1.0
element vertex 1668
property float x
property float y
property float z
end_header
0.239734 -0.051755 0.106938
0.238766 -0.053406 0.104225
0.237799 -0.055054 0.101518
0.236836 -0.056698 0.098818
0.235874 -0.058338 0.096123
0.234915 -0.059974 0.093435
0.234915 -0.059569 0.091251
0.233958 -0.061202 0.088571
0.233003 -0.062831 0.085898
0.232050 -0.064456 0.083232
0.231099 -0.066078 0.080571
0.230151 -0.067696 0.077917
0.229205 -0.069310 0.075268
0.228261 -0.070920 0.072626
0.227319 -0.072527 0.069990
0.227319 -0.072126 0.067825
0.226380 -0.073729 0.065197
0.225442 -0.075329 0.062576
0.224507 -0.076925 0.059960
0.223574 -0.078517 0.057351
0.221714 -0.082090 0.054299
0.220787 -0.083671 0.051705
0.220787 -0.083273 0.049557
0.219862 -0.084851 0.046972
0.218940 -0.086425 0.044392
0.218019 -0.087996 0.041818
0.217101 -0.089563 0.039249
0.216184 -0.091127 0.036687
0.215270 -0.092687 0.034130
0.214358 -0.094243 0.031580
0.213448 -0.095796 0.029034
0.213448 -0.095402 0.026907
0.212540 -0.096952 0.024370
0.211634 -0.098498 0.021839
0.210730 -0.100041 0.019313
0.209828 -0.101581 0.016793
0.209828 -0.101188 0.014675
0.208928 -0.102724 0.012163
0.208031 -0.104257 0.009657
0.207135 -0.105787 0.007157
0.206241 -0.107313 0.004662
0.206241 -0.106922 0.002553
0.205349 -0.108445 0.000066
0.204459 -0.109965 -0.002415
0.203571 -0.111481 -0.004891
0.203571 -0.111092 -0.006992
0.202686 -0.112605 -0.009460
0.202686 -0.112216 -0.011560
0.201802 -0.113727 -0.014020
0.200920 -0.115234 -0.016474
0.200040 -0.116737 -0.018923
0.199162 -0.118238 -0.021367
0.199162 -0.117850 -0.023457
0.198286 -0.119348 -0.025893
0.197412 -0.120842 -0.028324
0.196540 -0.122333 -0.030749
0.196540 -0.121947 -0.032832
0.195669 -0.123435 -0.035249
0.194801 -0.124919 -0.037662
0.194801 -0.124534 -0.039740
0.193935 -0.126016 -0.042145
0.193070 -0.127495 -0.044544
0.193070 -0.127110 -0.046618
0.192208 -0.128586 -0.049009
0.192208 -0.128202 -0.051081
0.192208 -0.127818 -0.053153
0.191347 -0.129291 -0.055534
0.191347 -0.128907 -0.057604
0.190488 -0.130378 -0.059978
0.190488 -0.129995 -0.062045
0.189631 -0.131463 -0.064412
0.189631 -0.131080 -0.066477
0.188776 -0.132545 -0.068836
0.188776 -0.132162 -0.070899
0.188776 -0.131780 -0.072961
0.187923 -0.133242 -0.075311
0.187923 -0.132860 -0.077371
0.187072 -0.134320 -0.079714
0.187072 -0.133939 -0.081772
0.187072 -0.133557 -0.083830
0.186222 -0.135015 -0.086162
0.184529 -0.138300 -0.088761
0.184529 -0.137920 -0.090812
0.184529 -0.137540 -0.092864
0.184529 -0.137159 -0.094915
0.183685 -0.138608 -0.097228
0.183685 -0.138228 -0.099277
0.183685 -0.137848 -0.101326
0.182843 -0.139295 -0.103630
0.182843 -0.138915 -0.105676
0.182843 -0.138536 -0.107723
0.182843 -0.138156 -0.109770
0.182003 -0.139601 -0.112062
0.182003 -0.139222 -0.114107
0.182003 -0.138843 -0.116151
0.181165 -0.140285 -0.118434
0.181165 -0.139906 -0.120476
0.181165 -0.139528 -0.122518
0.181165 -0.139149 -0.124561
0.180328 -0.140589 -0.126831
0.180328 -0.140211 -0.128872
0.180328 -0.139833 -0.130912
0.180328 -0.139454 -0.132952
0.180328 -0.139076 -0.134992
0.180328 -0.138698 -0.137032
0.180328 -0.138320 -0.139073
0.180328 -0.137941 -0.141113
0.180328 -0.137563 -0.143153
0.180328 -0.137185 -0.145193
0.180328 -0.136807 -0.147233
0.180328 -0.136428 -0.149273
0.180328 -0.136050 -0.151314
0.180328 -0.135672 -0.153354
0.180328 -0.135294 -0.155394
0.180328 -0.134915 -0.157434
0.179493 -0.136359 -0.159667
0.179493 -0.135981 -0.161705
0.179493 -0.135603 -0.163743
0.179493 -0.135225 -0.165781
0.179493 -0.134847 -0.167819
0.179493 -0.134470 -0.169857
0.179493 -0.134092 -0.171895
0.179493 -0.133714 -0.173933
0.179493 -0.133336 -0.175971
0.179493 -0.132958 -0.178008
0.180328 -0.130755 -0.179876
0.181165 -0.128546 -0.181748
0.181165 -0.128168 -0.183790
0.181165 -0.127789 -0.185832
0.181165 -0.127410 -0.187875
0.181165 -0.127032 -0.189917
0.182003 -0.124817 -0.191802
0.182003 -0.124438 -0.193846
0.182003 -0.124059 -0.195891
0.182003 -0.123680 -0.197936
0.182003 -0.123301 -0.199980
0.182003 -0.122922 -0.202025
0.182843 -0.120700 -0.203925
0.182843 -0.120320 -0.205971
0.182843 -0.119941 -0.208018
0.182843 -0.119561 -0.210065
0.182843 -0.119182 -0.212112
0.183685 -0.116954 -0.214025
0.183685 -0.116574 -0.216074
0.183685 -0.116194 -0.218123
0.183685 -0.115814 -0.220172
0.183685 -0.115434 -0.222221
0.184529 -0.113200 -0.224147
0.184529 -0.112819 -0.226198
0.184529 -0.112439 -0.228249
0.184529 -0.112059 -0.230301
0.184529 -0.111678 -0.232352
0.184529 -0.111298 -0.234403
0.186222 -0.107191 -0.236234
0.186222 -0.106810 -0.238290
0.186222 -0.106429 -0.240346
0.186222 -0.106048 -0.242402
0.186222 -0.105666 -0.244458
0.187072 -0.103414 -0.246414
0.187072 -0.103032 -0.248472
0.187072 -0.102651 -0.250530
0.187072 -0.102269 -0.252588
0.187072 -0.101888 -0.254646
0.187923 -0.099628 -0.256616
0.187923 -0.099246 -0.258676
0.187923 -0.098864 -0.260737
0.187923 -0.098482 -0.262797
0.187923 -0.098100 -0.264857
0.187923 -0.097718 -0.266918
0.188776 -0.095452 -0.268903
0.188776 -0.095070 -0.270966
0.188776 -0.094687 -0.273028
0.188776 -0.094305 -0.275091
0.188776 -0.093922 -0.277153
0.189631 -0.091649 -0.279152
0.189631 -0.091267 -0.281217
0.189631 -0.090884 -0.283282
0.189631 -0.090501 -0.285347
0.189631 -0.090118 -0.287411
0.190488 -0.087839 -0.289424
0.190488 -0.087455 -0.291491
0.190488 -0.087072 -0.293558
0.190488 -0.086689 -0.295625
0.190488 -0.086306 -0.297692
0.190488 -0.085922 -0.299759
0.191347 -0.083636 -0.301787
0.191347 -0.083252 -0.303857
0.190488 -0.084773 -0.305960
0.190488 -0.084389 -0.308028
0.191347 -0.082101 -0.310065
0.191347 -0.081717 -0.312134
0.191347 -0.081334 -0.314203
0.192208 -0.079039 -0.316250
0.192208 -0.078655 -0.318321
0.192208 -0.078271 -0.320393
0.192208 -0.077887 -0.322465
0.192208 -0.077503 -0.324536
0.193070 -0.075202 -0.326596
0.193070 -0.074817 -0.328670
0.193070 -0.074433 -0.330744
0.193935 -0.072126 -0.332813
0.193935 -0.071741 -0.334889
0.193935 -0.071356 -0.336966
0.194801 -0.069043 -0.339044
0.194801 -0.068658 -0.341122
0.194801 -0.068272 -0.343201
0.195669 -0.065953 -0.345288
0.195669 -0.065567 -0.347369
0.195669 -0.065182 -0.349450
0.195669 -0.064796 -0.351531
0.196540 -0.062470 -0.353630
0.196540 -0.062084 -0.355713
0.196540 -0.061698 -0.357796
0.197412 -0.059367 -0.359904
0.197412 -0.058980 -0.361990
0.198286 -0.056643 -0.364105
0.199162 -0.054301 -0.366225
0.199162 -0.053913 -0.368315
0.200040 -0.051565 -0.370442
0.200040 -0.051177 -0.372534
0.195669 -0.060552 -0.374419
0.194801 -0.062106 -0.376457
0.193070 -0.065589 -0.378444
0.191347 -0.069056 -0.380423
0.189631 -0.072509 -0.382393
0.187923 -0.075946 -0.384354
0.186222 -0.079367 -0.386307
0.183685 -0.084662 -0.388195
0.182843 -0.086167 -0.390186
0.181165 -0.089544 -0.392114
0.179493 -0.092907 -0.394033
0.177829 -0.096255 -0.395943
0.176172 -0.099589 -0.397846
0.174522 -0.102909 -0.399740
0.172880 -0.106214 -0.401626
0.171244 -0.109505 -0.403504
0.169615 -0.112782 -0.405374
0.168804 -0.114229 -0.407311
0.167186 -0.117485 -0.409167
0.165574 -0.120728 -0.411015
0.164771 -0.122159 -0.412935
0.163170 -0.125381 -0.414769
0.161576 -0.128590 -0.416596
0.159988 -0.131785 -0.418414
0.159197 -0.133193 -0.420313
0.157619 -0.136369 -0.422118
0.156833 -0.137768 -0.424007
0.155265 -0.140924 -0.425798
0.153704 -0.144066 -0.427582
0.152926 -0.145450 -0.429455
0.151375 -0.148574 -0.431226
0.150602 -0.149949 -0.433090
0.149060 -0.153053 -0.434847
0.148291 -0.154419 -0.436701
0.146759 -0.157504 -0.438446
0.145996 -0.158861 -0.440290
0.144473 -0.161928 -0.442022
0.143714 -0.163276 -0.443857
0.142201 -0.166324 -0.445577
0.141447 -0.167663 -0.447402
0.140694 -0.169000 -0.449224
0.139194 -0.172024 -0.450925
0.138446 -0.173352 -0.452738
0.138446 -0.172994 -0.454667
0.137699 -0.174320 -0.456474
0.136954 -0.175644 -0.458277
0.136954 -0.175287 -0.460203
0.136211 -0.176608 -0.462000
0.135469 -0.177926 -0.463794
0.135469 -0.177570 -0.465716
0.134728 -0.178885 -0.467504
0.133989 -0.180199 -0.469288
0.133989 -0.179843 -0.471206
0.133252 -0.181154 -0.472985
0.132516 -0.182462 -0.474760
0.131782 -0.183768 -0.476532
0.131782 -0.183413 -0.478444
0.131049 -0.184717 -0.480210
0.131049 -0.184363 -0.482120
0.131782 -0.182350 -0.484179
0.131782 -0.181996 -0.486090
0.131782 -0.181641 -0.488002
0.136211 -0.171259 -0.490851
0.287865 0.026251 0.294869
0.286779 0.024402 0.291759
0.285695 0.022559 0.288656
0.284613 0.020720 0.285561
0.283535 0.018885 0.282474
0.278181 0.008070 0.276372
0.275001 0.001815 0.271828
0.271843 -0.004395 0.267317
0.269751 -0.008368 0.263567
0.265597 -0.016679 0.258393
0.264565 -0.018428 0.255405
0.263535 -0.020174 0.252425
0.261483 -0.024071 0.248747
0.260460 -0.025804 0.245785
0.259440 -0.027532 0.242831
0.258423 -0.029256 0.239883
0.256395 -0.033108 0.236257
0.255385 -0.034820 0.233328
0.255385 -0.034403 0.231083
0.254377 -0.036111 0.228164
0.254377 -0.035695 0.225922
0.254377 -0.035280 0.223680
0.253372 -0.036984 0.220773
0.253372 -0.036569 0.218534
0.252369 -0.038270 0.215636
0.251368 -0.039967 0.212745
0.251368 -0.039553 0.210511
0.251368 -0.039139 0.208277
0.250370 -0.040833 0.205399
0.250370 -0.040419 0.203168
0.250370 -0.040005 0.200936
0.250370 -0.039591 0.198705
0.249374 -0.041283 0.195841
0.249374 -0.040870 0.193613
0.248381 -0.042558 0.190758
0.249374 -0.040043 0.189155
0.248381 -0.041732 0.186306
0.249374 -0.039217 0.184698
0.249374 -0.038804 0.182469
0.249374 -0.038391 0.180240
0.250370 -0.035868 0.178623
0.250370 -0.035454 0.176391
0.250370 -0.035041 0.174160
0.250370 -0.034627 0.171929
0.250370 -0.034213 0.169697
0.250370 -0.033800 0.167466
0.250370 -0.033386 0.165234
0.250370 -0.032972 0.163003
0.250370 -0.032559 0.160772
0.250370 -0.032145 0.158540
0.250370 -0.031731 0.156309
0.250370 -0.031318 0.154078
0.251368 -0.028784 0.152427
0.251368 -0.028370 0.150193
0.251368 -0.027956 0.147959
0.251368 -0.027541 0.145725
0.251368 -0.027127 0.143491
0.252369 -0.024586 0.141826
0.252369 -0.024171 0.139589
0.250370 -0.028008 0.136227
0.248381 -0.031827 0.132880
0.246401 -0.035628 0.129549
0.245414 -0.037316 0.126781
0.243448 -0.041090 0.123476
0.242468 -0.042766 0.120724
0.241491 -0.044438 0.117979
0.240516 -0.046106 0.115240
0.239544 -0.047770 0.112508
0.238573 -0.049430 0.109782
0.236639 -0.053145 0.106544
0.235676 -0.054793 0.103834
0.234714 -0.056437 0.101131
0.234714 -0.056031 0.098941
0.233755 -0.057672 0.096247
0.232798 -0.059309 0.093559
0.231843 -0.060942 0.090877
0.230891 -0.062572 0.088201
0.229941 -0.064197 0.085532
0.228993 -0.065819 0.082868
0.228993 -0.065416 0.080694
0.228047 -0.067035 0.078039
0.227103 -0.068649 0.075391
0.226161 -0.070261 0.072748
0.225222 -0.071868 0.070112
0.224285 -0.073472 0.067482
0.223350 -0.075072 0.064857
0.222417 -0.076668 0.062239
0.221486 -0.078261 0.059627
0.221486 -0.077861 0.057472
0.219631 -0.081435 0.054420
0.218707 -0.083017 0.051826
0.217784 -0.084596 0.049238
0.216864 -0.086170 0.046655
0.215946 -0.087741 0.044078
0.215030 -0.089309 0.041507
0.215030 -0.088912 0.039370
0.214116 -0.090477 0.036807
0.213204 -0.092038 0.034251
0.212294 -0.093595 0.031700
0.211387 -0.095149 0.029155
0.210481 -0.096699 0.026615
0.209577 -0.098246 0.024081
0.208676 -0.099789 0.021553
0.207776 -0.101329 0.019031
0.207776 -0.100936 0.016913
0.207776 -0.100543 0.014795
0.206878 -0.102080 0.012283
0.205983 -0.103614 0.009777
0.205089 -0.105144 0.007276
0.204198 -0.106671 0.004781
0.203308 -0.108195 0.002292
0.202421 -0.109715 -0.000192
0.202421 -0.109325 -0.002296
0.201535 -0.110842 -0.004772
0.200652 -0.112356 -0.007243
0.200652 -0.111966 -0.009342
0.199770 -0.113477 -0.011804
0.199770 -0.113088 -0.013901
0.198890 -0.114596 -0.016356
0.198013 -0.116101 -0.018805
0.197137 -0.117602 -0.021249
0.196263 -0.119100 -0.023688
0.195391 -0.120594 -0.026121
0.195391 -0.120207 -0.028206
0.194521 -0.121699 -0.030631
0.193653 -0.123187 -0.033051
0.192787 -0.124672 -0.035466
0.192787 -0.124287 -0.037544
0.191923 -0.125769 -0.039951
0.191061 -0.127248 -0.042353
0.191061 -0.126863 -0.044427
0.190201 -0.128340 -0.046821
0.190201 -0.127955 -0.048892
0.190201 -0.127571 -0.050964
0.189342 -0.129045 -0.053348
0.189342 -0.128661 -0.055418
0.188486 -0.130132 -0.057794
0.188486 -0.129749 -0.059861
0.187631 -0.131217 -0.062231
0.187631 -0.130834 -0.064295
0.187631 -0.130451 -0.066360
0.186778 -0.131917 -0.068720
0.186778 -0.131535 -0.070782
0.185927 -0.132997 -0.073134
0.185927 -0.132615 -0.075195
0.185078 -0.134076 -0.077539
0.185078 -0.133694 -0.079597
0.184231 -0.135151 -0.081935
0.184231 -0.134770 -0.083991
0.184231 -0.134389 -0.086046
0.182542 -0.137676 -0.088645
0.181700 -0.139124 -0.090965
0.181700 -0.138744 -0.093014
0.181700 -0.138364 -0.095063
0.181700 -0.137984 -0.097112
0.181700 -0.137605 -0.099161
0.180860 -0.139051 -0.101467
0.180860 -0.138672 -0.103514
0.180860 -0.138292 -0.105561
0.180022 -0.139737 -0.107857
0.180022 -0.139358 -0.109902
0.180022 -0.138979 -0.111947
0.180022 -0.138600 -0.113991
0.179186 -0.140042 -0.116276
0.179186 -0.139663 -0.118318
0.179186 -0.139285 -0.120361
0.178351 -0.140725 -0.122636
0.178351 -0.140347 -0.124676
0.178351 -0.139968 -0.126716
0.177519 -0.141406 -0.128982
0.177519 -0.141028 -0.131020
0.177519 -0.140651 -0.133058
0.177519 -0.140273 -0.135096
0.177519 -0.139895 -0.137134
0.177519 -0.139517 -0.139172
0.177519 -0.139139 -0.141210
0.177519 -0.138761 -0.143248
0.177519 -0.138383 -0.145286
0.177519 -0.138006 -0.147324
0.178351 -0.135807 -0.149158
0.177519 -0.137250 -0.151400
0.177519 -0.136872 -0.153438
0.177519 -0.136494 -0.155476
0.177519 -0.136116 -0.157514
0.177519 -0.135739 -0.159552
0.176688 -0.137179 -0.161780
0.176688 -0.136802 -0.163816
0.176688 -0.136425 -0.165851
0.177519 -0.134227 -0.167704
0.177519 -0.133849 -0.169742
0.177519 -0.133472 -0.171780
0.177519 -0.133094 -0.173818
0.177519 -0.132716 -0.175856
0.177519 -0.132338 -0.177894
0.178351 -0.130134 -0.179761
0.178351 -0.129755 -0.181801
0.178351 -0.129377 -0.183841
0.179186 -0.127168 -0.185717
0.179186 -0.126789 -0.187760
0.179186 -0.126410 -0.189802
0.179186 -0.126032 -0.191844
0.179186 -0.125653 -0.193887
0.180022 -0.123437 -0.195776
0.180022 -0.123058 -0.197820
0.180022 -0.122678 -0.199865
0.180022 -0.122299 -0.201909
0.180022 -0.121920 -0.203954
0.180022 -0.121541 -0.205999
0.180860 -0.119318 -0.207903
0.180860 -0.118939 -0.209950
0.180860 -0.118559 -0.211996
0.180860 -0.118180 -0.214043
0.180860 -0.117800 -0.216090
0.181700 -0.115570 -0.218007
0.181700 -0.115191 -0.220056
0.181700 -0.114811 -0.222105
0.181700 -0.114431 -0.224154
0.181700 -0.114051 -0.226203
0.182542 -0.111815 -0.228134
0.182542 -0.111434 -0.230185
0.182542 -0.111054 -0.232236
0.182542 -0.110674 -0.234288
0.182542 -0.110293 -0.236339
0.182542 -0.109913 -0.238390
0.184231 -0.105803 -0.240230
0.184231 -0.105422 -0.242286
0.184231 -0.105041 -0.244342
0.184231 -0.104660 -0.246397
0.184231 -0.104279 -0.248453
0.185078 -0.102024 -0.250414
0.185078 -0.101643 -0.252472
0.185078 -0.101261 -0.254530
0.185078 -0.100880 -0.256588
0.185078 -0.100498 -0.258646
0.185927 -0.098237 -0.260620
0.185927 -0.097855 -0.262681
0.185927 -0.097473 -0.264741
0.185927 -0.097091 -0.266801
0.185927 -0.096709 -0.268862
0.185927 -0.096327 -0.270922
0.186778 -0.094060 -0.272912
0.186778 -0.093677 -0.274974
0.186778 -0.093295 -0.277037
0.186778 -0.092912 -0.279099
0.186778 -0.092530 -0.281162
0.187631 -0.090255 -0.283165
0.187631 -0.089873 -0.285230
0.187631 -0.089490 -0.287295
0.187631 -0.089107 -0.289360
0.187631 -0.088724 -0.291425
0.188486 -0.086443 -0.293441
0.188486 -0.086060 -0.295508
0.188486 -0.085677 -0.297575
0.188486 -0.085293 -0.299643
0.188486 -0.084910 -0.301710
0.188486 -0.084527 -0.303777
0.189342 -0.082238 -0.305809
0.189342 -0.081855 -0.307879
0.188486 -0.083377 -0.309978
0.188486 -0.082994 -0.312045
0.189342 -0.080704 -0.314087
0.189342 -0.080320 -0.316156
0.189342 -0.079937 -0.318225
0.190201 -0.077641 -0.320276
0.190201 -0.077257 -0.322348
0.190201 -0.076872 -0.324419
0.190201 -0.076488 -0.326491
0.190201 -0.076104 -0.328563
0.191061 -0.073802 -0.330627
0.191061 -0.073417 -0.332701
0.191061 -0.073033 -0.334775
0.191923 -0.070724 -0.336848
0.191923 -0.070339 -0.338925
0.191923 -0.069954 -0.341001
0.192787 -0.067640 -0.343084
0.192787 -0.067254 -0.345162
0.192787 -0.066869 -0.347241
0.193653 -0.064548 -0.349332
0.193653 -0.064163 -0.351413
0.193653 -0.063777 -0.353494
0.193653 -0.063391 -0.355575
0.193653 -0.063005 -0.357656
0.194521 -0.060678 -0.359761
0.194521 -0.060292 -0.361845
0.195391 -0.057959 -0.363957
0.196263 -0.055621 -0.366075
0.196263 -0.055234 -0.368162
0.197137 -0.052890 -0.370287
0.197137 -0.052502 -0.372377
0.192787 -0.061859 -0.374261
0.191061 -0.065342 -0.376253
0.189342 -0.068810 -0.378237
0.187631 -0.072263 -0.380211
0.185927 -0.075700 -0.382177
0.184231 -0.079123 -0.384135
0.182542 -0.082531 -0.386084
0.180860 -0.085923 -0.388024
0.179186 -0.089301 -0.389956
0.177519 -0.092665 -0.391880
0.175859 -0.096013 -0.393795
0.174206 -0.099348 -0.395702
0.172561 -0.102668 -0.397601
0.171741 -0.104135 -0.399559
0.170106 -0.107434 -0.401443
0.168478 -0.110719 -0.403320
0.166857 -0.113990 -0.405188
0.165243 -0.117247 -0.407048
0.163635 -0.120490 -0.408901
0.162834 -0.121921 -0.410823
0.161237 -0.125144 -0.412662
0.159647 -0.128353 -0.414493
0.158064 -0.131549 -0.416316
0.157274 -0.132958 -0.418217
0.155701 -0.136133 -0.420026
0.154917 -0.137533 -0.421917
0.153353 -0.140689 -0.423713
0.151796 -0.143832 -0.425501
0.150245 -0.146962 -0.427282
0.149473 -0.148340 -0.429152
0.147932 -0.151451 -0.430920
0.147164 -0.152820 -0.432780
0.145632 -0.155912 -0.434534
0.144869 -0.157272 -0.436385
0.143347 -0.160345 -0.438127
0.142589 -0.161696 -0.439967
0.141076 -0.164750 -0.441697
0.140323 -0.166093 -0.443528
0.139570 -0.167433 -0.445356
0.138070 -0.170463 -0.447067
0.137323 -0.171794 -0.448885
0.136577 -0.173123 -0.450700
0.136577 -0.172765 -0.452629
0.135832 -0.174091 -0.454438
0.135089 -0.175415 -0.456243
0.135089 -0.175058 -0.458169
0.134347 -0.176379 -0.459968
0.133607 -0.177697 -0.461764
0.132869 -0.179013 -0.463557
0.132869 -0.178657 -0.465476
0.132132 -0.179971 -0.467263
0.131396 -0.181281 -0.469046
0.131396 -0.180926 -0.470961
0.130662 -0.182235 -0.472739
0.129930 -0.183540 -0.474513
0.129930 -0.183186 -0.476424
0.129199 -0.184489 -0.478193
0.128469 -0.185790 -0.479957
0.128469 -0.185437 -0.481865
0.129199 -0.183427 -0.483922
0.129199 -0.183073 -0.485831
0.129199 -0.182719 -0.487741
0.129199 -0.182365 -0.489651
0.289970 0.036140 0.298150
0.285607 0.027392 0.292670
0.284523 0.025543 0.289562
0.284523 0.025974 0.287234
0.273830 0.003884 0.277301
0.271723 -0.000129 0.273508
0.268581 -0.006324 0.268997
0.264428 -0.014655 0.263790
0.262366 -0.018579 0.260071
0.261339 -0.020325 0.257085
0.260314 -0.022066 0.254107
0.258273 -0.025954 0.250429
0.257255 -0.027682 0.247469
0.256240 -0.029406 0.244516
0.255228 -0.031125 0.241570
0.253210 -0.034969 0.237944
0.253210 -0.034553 0.235699
0.253210 -0.034137 0.233455
0.252205 -0.035845 0.230532
0.252205 -0.035429 0.228290
0.251202 -0.037133 0.225378
0.251202 -0.036718 0.223139
0.250202 -0.038419 0.220236
0.249204 -0.040116 0.217340
0.249204 -0.039701 0.215106
0.249204 -0.039287 0.212872
0.248208 -0.040981 0.209988
0.248208 -0.040567 0.207756
0.248208 -0.040154 0.205525
0.248208 -0.039740 0.203294
0.247215 -0.041431 0.200424
0.247215 -0.041018 0.198196
0.247215 -0.040605 0.195967
0.246224 -0.042293 0.193110
0.247215 -0.039778 0.191510
0.246224 -0.041467 0.188658
0.247215 -0.038952 0.187052
0.247215 -0.038539 0.184823
0.248208 -0.036017 0.183211
0.248208 -0.035603 0.180980
0.248208 -0.035189 0.178749
0.248208 -0.034775 0.176517
0.248208 -0.034362 0.174286
0.248208 -0.033948 0.172054
0.248208 -0.033534 0.169823
0.248208 -0.033121 0.167592
0.248208 -0.032707 0.165360
0.248208 -0.032293 0.163129
0.248208 -0.031880 0.160898
0.248208 -0.031466 0.158666
0.249204 -0.028932 0.157021
0.249204 -0.028518 0.154787
0.249204 -0.028104 0.152553
0.249204 -0.027690 0.150319
0.249204 -0.027276 0.148085
0.249204 -0.026862 0.145851
0.249204 -0.026447 0.143617
0.250202 -0.023905 0.141952
0.250202 -0.023490 0.139715
0.248208 -0.027329 0.136353
0.246224 -0.031149 0.133006
0.244249 -0.034952 0.129675
0.243265 -0.036641 0.126906
0.241304 -0.040417 0.123601
0.240327 -0.042093 0.120849
0.238380 -0.045844 0.117570
0.237410 -0.047508 0.114835
0.236442 -0.049168 0.112106
0.235476 -0.050825 0.109384
0.234513 -0.052477 0.106668
0.233552 -0.054126 0.103958
0.232593 -0.055771 0.101255
0.231636 -0.057412 0.098558
0.230682 -0.059049 0.095867
0.230682 -0.058644 0.093682
0.229729 -0.060278 0.091000
0.228779 -0.061908 0.088324
0.227831 -0.063535 0.085654
0.226886 -0.065157 0.082991
0.225942 -0.066776 0.080334
0.225001 -0.068391 0.077683
0.224062 -0.070003 0.075038
0.223125 -0.071611 0.072399
0.223125 -0.071209 0.070234
0.222190 -0.072814 0.067603
0.221258 -0.074415 0.064979
0.220327 -0.076012 0.062361
0.219399 -0.077605 0.059748
0.218472 -0.079195 0.057142
0.216626 -0.082762 0.054094
0.216626 -0.082364 0.051947
0.215706 -0.083943 0.049359
0.214788 -0.085518 0.046776
0.213873 -0.087090 0.044199
0.212959 -0.088658 0.041628
0.212047 -0.090223 0.039063
0.211138 -0.091784 0.036504
0.210230 -0.093342 0.033950
0.209325 -0.094896 0.031402
0.209325 -0.094501 0.029275
0.208422 -0.096052 0.026735
0.207520 -0.097600 0.024201
0.206621 -0.099144 0.021673
0.205724 -0.100684 0.019151
0.204829 -0.102221 0.016634
0.204829 -0.101829 0.014518
0.203935 -0.103363 0.012009
0.203044 -0.104893 0.009506
0.203044 -0.104502 0.007395
0.202155 -0.106030 0.004900
0.201268 -0.107554 0.002410
0.200382 -0.109075 -0.000073
0.199499 -0.110592 -0.002552
0.198618 -0.112106 -0.005025
0.198618 -0.111717 -0.007124
0.197738 -0.113228 -0.009589
0.197738 -0.112839 -0.011686
0.196861 -0.114347 -0.014143
0.195986 -0.115852 -0.016595
0.195112 -0.117353 -0.019041
0.195112 -0.116966 -0.021131
0.194241 -0.118464 -0.023570
0.193371 -0.119959 -0.026003
0.192503 -0.121451 -0.028431
0.191638 -0.122940 -0.030853
0.191638 -0.122554 -0.032934
0.190774 -0.124040 -0.035348
0.189912 -0.125522 -0.037758
0.189052 -0.127001 -0.040162
0.189052 -0.126617 -0.042236
0.188194 -0.128093 -0.044632
0.188194 -0.127709 -0.046704
0.188194 -0.127325 -0.048776
0.187337 -0.128799 -0.051162
0.187337 -0.128415 -0.053232
0.186483 -0.129886 -0.055611
0.186483 -0.129503 -0.057678
0.185630 -0.130971 -0.060049
0.185630 -0.130589 -0.062114
0.185630 -0.130206 -0.064179
0.184780 -0.131672 -0.066541
0.184780 -0.131289 -0.068603
0.183931 -0.132752 -0.070958
0.183931 -0.132370 -0.073018
0.183084 -0.133831 -0.075365
0.183084 -0.133449 -0.077423
0.182239 -0.134907 -0.079763
0.182239 -0.134526 -0.081819
0.182239 -0.134144 -0.083875
0.180554 -0.137432 -0.086478
0.180554 -0.137052 -0.088530
0.179715 -0.138501 -0.090850
0.179715 -0.138121 -0.092899
0.179715 -0.137741 -0.094948
0.178877 -0.139187 -0.097258
0.178877 -0.138808 -0.099305
0.178877 -0.138428 -0.101352
0.178877 -0.138049 -0.103399
0.178041 -0.139494 -0.105697
0.178041 -0.139115 -0.107742
0.178041 -0.138735 -0.109787
0.177207 -0.140178 -0.112076
0.177207 -0.139799 -0.114118
0.177207 -0.139420 -0.116161
0.177207 -0.139042 -0.118203
0.176375 -0.140482 -0.120481
0.176375 -0.140104 -0.122521
0.176375 -0.139726 -0.124561
0.175544 -0.141164 -0.126829
0.175544 -0.140786 -0.128867
0.175544 -0.140408 -0.130905
0.175544 -0.140030 -0.132943
0.175544 -0.139652 -0.134981
0.175544 -0.139275 -0.137019
0.175544 -0.138897 -0.139057
0.175544 -0.138519 -0.141095
0.175544 -0.138141 -0.143133
0.175544 -0.137763 -0.145171
0.175544 -0.137385 -0.147209
0.175544 -0.137008 -0.149247
0.175544 -0.136630 -0.151285
0.175544 -0.136252 -0.153323
0.175544 -0.135874 -0.155361
0.175544 -0.135496 -0.157399
0.175544 -0.135118 -0.159437
0.174716 -0.136560 -0.161665
0.174716 -0.136182 -0.163701
0.174716 -0.135805 -0.165736
0.174716 -0.135428 -0.167772
0.174716 -0.135050 -0.169808
0.174716 -0.134673 -0.171844
0.174716 -0.134295 -0.173880
0.174716 -0.133918 -0.175915
0.175544 -0.131718 -0.177779
0.176375 -0.129513 -0.179646
0.176375 -0.129135 -0.181686
0.176375 -0.128756 -0.183726
0.176375 -0.128378 -0.185766
0.176375 -0.128000 -0.187807
0.177207 -0.125789 -0.189687
0.177207 -0.125410 -0.191729
0.177207 -0.125031 -0.193771
0.177207 -0.124653 -0.195814
0.177207 -0.124274 -0.197856
0.177207 -0.123895 -0.199899
0.178041 -0.121677 -0.201794
0.178041 -0.121298 -0.203839
0.178041 -0.120919 -0.205883
0.178041 -0.120540 -0.207928
0.178041 -0.120161 -0.209972
0.178877 -0.117936 -0.211881
0.178877 -0.117557 -0.213928
0.178877 -0.117177 -0.215975
0.178877 -0.116798 -0.218021
0.178877 -0.116418 -0.220068
0.179715 -0.114187 -0.221990
0.179715 -0.113807 -0.224039
0.179715 -0.113427 -0.226088
0.179715 -0.113047 -0.228137
0.179715 -0.112667 -0.230186
0.179715 -0.112288 -0.232235
0.180554 -0.110049 -0.234172
0.180554 -0.109669 -0.236223
0.180554 -0.109289 -0.238274
0.180554 -0.108909 -0.240326
0.180554 -0.108528 -0.242377
0.182239 -0.104415 -0.244226
0.182239 -0.104034 -0.246281
0.182239 -0.103653 -0.248337
0.182239 -0.103272 -0.250393
0.182239 -0.102891 -0.252449
0.183084 -0.100635 -0.254414
0.183084 -0.100253 -0.256472
0.183084 -0.099872 -0.258530
0.183084 -0.099490 -0.260588
0.183084 -0.099109 -0.262646
0.183084 -0.098727 -0.264704
0.183931 -0.096464 -0.266685
0.183931 -0.096082 -0.268745
0.183931 -0.095700 -0.270806
0.183931 -0.095318 -0.272866
0.183931 -0.094936 -0.274926
0.184780 -0.092667 -0.276921
0.184780 -0.092285 -0.278983
0.184780 -0.091902 -0.281046
0.184780 -0.091520 -0.283108
0.184780 -0.091137 -0.285171
0.185630 -0.088861 -0.287178
0.185630 -0.088479 -0.289243
0.185630 -0.088096 -0.291308
0.185630 -0.087713 -0.293373
0.185630 -0.087330 -0.295438
0.185630 -0.086947 -0.297502
0.186483 -0.084664 -0.299526
0.186483 -0.084281 -0.301593
0.186483 -0.083898 -0.303660
0.186483 -0.083515 -0.305727
0.186483 -0.083131 -0.307794
0.187337 -0.080841 -0.309831
0.187337 -0.080458 -0.311901
0.186483 -0.081982 -0.313995
0.186483 -0.081598 -0.316063
0.187337 -0.079307 -0.318109
0.187337 -0.078923 -0.320178
0.187337 -0.078539 -0.322247
0.187337 -0.078156 -0.324317
0.187337 -0.077772 -0.326386
0.188194 -0.075474 -0.328446
0.188194 -0.075090 -0.330517
0.188194 -0.074706 -0.332589
0.189052 -0.072401 -0.334658
0.189052 -0.072017 -0.336732
0.189052 -0.071632 -0.338806
0.189912 -0.069322 -0.340884
0.189912 -0.068937 -0.342960
0.189912 -0.068552 -0.345036
0.190774 -0.066236 -0.347123
0.190774 -0.065851 -0.349202
0.190774 -0.065466 -0.351280
0.191638 -0.063144 -0.353377
0.191638 -0.062758 -0.355457
0.191638 -0.062372 -0.357538
0.191638 -0.061986 -0.359619
0.191638 -0.061600 -0.361700
0.192503 -0.059272 -0.363810
0.193371 -0.056937 -0.365925
0.193371 -0.056551 -0.368010
0.194241 -0.054211 -0.370132
0.194241 -0.053824 -0.372220
0.189052 -0.065096 -0.374062
0.188194 -0.066640 -0.376093
0.186483 -0.070101 -0.378075
0.184780 -0.073547 -0.380048
0.183084 -0.076978 -0.382012
0.180554 -0.082287 -0.383917
0.178877 -0.085680 -0.385862
0.177207 -0.089058 -0.387799
0.175544 -0.092422 -0.389727
0.174716 -0.093910 -0.391706
0.173064 -0.097253 -0.393619
0.171419 -0.100581 -0.395525
0.169781 -0.103895 -0.397422
0.168150 -0.107194 -0.399311
0.166527 -0.110480 -0.401192
0.164910 -0.113751 -0.403065
0.163300 -0.117008 -0.404930
0.161697 -0.120252 -0.406787
0.160101 -0.123482 -0.408636
0.159305 -0.124907 -0.410555
0.157719 -0.128116 -0.412390
0.156139 -0.131312 -0.414218
0.155352 -0.132722 -0.416120
0.153783 -0.135898 -0.417934
0.153000 -0.137298 -0.419827
0.151441 -0.140454 -0.421628
0.149888 -0.143598 -0.423421
0.148341 -0.146728 -0.425206
0.147570 -0.148107 -0.427078
0.146033 -0.151218 -0.428850
0.145267 -0.152587 -0.430712
0.143740 -0.155679 -0.432471
0.142979 -0.157040 -0.434323
0.141461 -0.160113 -0.436069
0.140704 -0.161465 -0.437912
0.139196 -0.164520 -0.439646
0.138444 -0.165862 -0.441479
0.136945 -0.168899 -0.443200
0.136197 -0.170233 -0.445024
0.134707 -0.173251 -0.446732
0.134707 -0.172893 -0.448662
0.134707 -0.172536 -0.450591
0.133965 -0.173862 -0.452402
0.133224 -0.175186 -0.454209
0.133224 -0.174829 -0.456135
0.132484 -0.176150 -0.457936
0.131746 -0.177469 -0.459735
0.131009 -0.178785 -0.461529
0.131009 -0.178429 -0.463448
0.130274 -0.179743 -0.465237
0.129540 -0.181054 -0.467022
0.129540 -0.180698 -0.468938
0.128808 -0.182007 -0.470717
0.128078 -0.183313 -0.472493
0.128078 -0.182959 -0.474405
0.127348 -0.184262 -0.476175
0.126621 -0.185563 -0.477942
0.125895 -0.186862 -0.479705
0.125895 -0.186509 -0.481611
0.126621 -0.184502 -0.483665
0.126621 -0.184149 -0.485573
0.126621 -0.183795 -0.487481
0.126621 -0.183441 -0.489389
0.286608 0.034982 0.295152
0.272657 0.005959 0.282788
0.270550 0.001935 0.278977
0.267409 -0.004275 0.274440
0.263256 -0.012625 0.269201
0.261195 -0.016560 0.265464
0.259143 -0.020475 0.261746
0.258121 -0.022216 0.258761
0.256085 -0.026104 0.255072
0.255070 -0.027832 0.252107
0.254058 -0.029555 0.249148
0.253048 -0.031275 0.246197
0.252041 -0.032991 0.243253
0.251036 -0.034702 0.240315
0.251036 -0.034286 0.238071
0.250033 -0.035994 0.235143
0.250033 -0.035578 0.232901
0.249033 -0.037282 0.229983
0.249033 -0.036867 0.227744
0.248035 -0.038567 0.224835
0.247040 -0.040264 0.221934
0.247040 -0.039850 0.219700
0.246046 -0.041543 0.216808
0.246046 -0.041129 0.214576
0.246046 -0.040716 0.212345
0.246046 -0.040302 0.210114
0.246046 -0.039888 0.207882
0.246046 -0.039474 0.205651
0.245056 -0.041166 0.202779
0.245056 -0.040753 0.200550
0.244067 -0.042441 0.197688
0.245056 -0.039927 0.196093
0.244067 -0.041615 0.193236
0.245056 -0.039100 0.191635
0.245056 -0.038687 0.189407
0.245056 -0.038274 0.187178
0.246046 -0.035751 0.185569
0.246046 -0.035337 0.183337
0.246046 -0.034924 0.181106
0.246046 -0.034510 0.178874
0.246046 -0.034096 0.176643
0.246046 -0.033683 0.174412
0.246046 -0.033269 0.172180
0.246046 -0.032855 0.169949
0.246046 -0.032442 0.167718
0.246046 -0.032028 0.165486
0.246046 -0.031614 0.163255
0.246046 -0.031201 0.161024
0.247040 -0.028667 0.159381
0.247040 -0.028253 0.157147
0.247040 -0.027838 0.154913
0.247040 -0.027424 0.152679
0.247040 -0.027010 0.150445
0.247040 -0.026596 0.148211
0.247040 -0.026182 0.145977
0.247040 -0.025767 0.143743
0.248035 -0.023224 0.142078
0.248035 -0.022810 0.139842
0.246046 -0.026650 0.136478
0.244067 -0.030472 0.133131
0.242097 -0.034276 0.129800
0.241116 -0.035966 0.127031
0.239160 -0.039743 0.123726
0.238186 -0.041421 0.120974
0.237213 -0.043094 0.118228
0.235276 -0.046837 0.114959
0.234310 -0.048499 0.112230
0.233347 -0.050156 0.109508
0.232386 -0.051809 0.106791
0.231428 -0.053459 0.104082
0.230471 -0.055104 0.101378
0.229517 -0.056746 0.098681
0.227615 -0.060423 0.095487
0.227615 -0.060019 0.093305
0.226668 -0.061649 0.090627
0.225722 -0.063276 0.087954
0.224779 -0.064899 0.085288
0.224779 -0.064496 0.083114
0.223838 -0.066115 0.080456
0.222899 -0.067731 0.077805
0.221962 -0.069343 0.075160
0.221028 -0.070952 0.072521
0.220096 -0.072557 0.069888
0.219165 -0.074158 0.067261
0.218237 -0.075755 0.064640
0.217311 -0.077349 0.062025
0.217311 -0.076950 0.059870
0.216387 -0.078540 0.057263
0.214546 -0.082108 0.054216
0.213628 -0.083688 0.051624
0.212713 -0.085263 0.049039
0.211800 -0.086835 0.046460
0.210888 -0.088404 0.043886
0.210888 -0.088008 0.041749
0.209979 -0.089573 0.039183
0.209072 -0.091135 0.036624
0.208167 -0.092693 0.034070
0.207264 -0.094248 0.031523
0.206363 -0.095799 0.028980
0.205464 -0.097347 0.026444
0.204567 -0.098891 0.023913
0.204567 -0.098498 0.021793
0.203672 -0.100039 0.019270
0.202779 -0.101577 0.016753
0.202779 -0.101185 0.014637
0.201888 -0.102720 0.012129
0.200999 -0.104251 0.009625
0.200112 -0.105779 0.007128
0.199227 -0.107303 0.004636
0.198344 -0.108824 0.002149
0.198344 -0.108434 0.000045
0.197463 -0.109952 -0.002433
0.196584 -0.111467 -0.004906
0.196584 -0.111078 -0.007006
0.195707 -0.112590 -0.009471
0.194832 -0.114098 -0.011930
0.194832 -0.113710 -0.014025
0.193959 -0.115215 -0.016477
0.193087 -0.116717 -0.018923
0.192218 -0.118216 -0.021364
0.191351 -0.119711 -0.023800
0.190485 -0.121204 -0.026230
0.190485 -0.120817 -0.028313
0.189622 -0.122307 -0.030736
0.188760 -0.123793 -0.033153
0.188760 -0.123407 -0.035231
0.187900 -0.124890 -0.037641
0.187043 -0.126370 -0.040045
0.187043 -0.125986 -0.042119
0.186187 -0.127463 -0.044515
0.186187 -0.127079 -0.046587
0.185333 -0.128553 -0.048976
0.185333 -0.128169 -0.051045
0.184480 -0.129641 -0.053427
0.184480 -0.129257 -0.055494
0.183630 -0.130726 -0.057868
0.183630 -0.130343 -0.059933
0.183630 -0.129960 -0.061998
0.182782 -0.131426 -0.064362
0.182782 -0.131044 -0.066425
0.181935 -0.132507 -0.068781
0.181935 -0.132125 -0.070842
0.181090 -0.133586 -0.073191
0.181090 -0.133205 -0.075249
0.181090 -0.132823 -0.077307
0.180247 -0.134281 -0.079647
0.180247 -0.133900 -0.081703
0.178567 -0.137188 -0.084311
0.178567 -0.136808 -0.086363
0.177730 -0.138257 -0.088685
0.177730 -0.137877 -0.090734
0.176894 -0.139323 -0.093049
0.176894 -0.138944 -0.095096
0.176894 -0.138564 -0.097143
0.176894 -0.138185 -0.099189
0.176894 -0.137806 -0.101236
0.176060 -0.139250 -0.103537
0.176060 -0.138871 -0.105582
0.176060 -0.138492 -0.107627
0.175229 -0.139935 -0.109918
0.175229 -0.139556 -0.111961
0.175229 -0.139178 -0.114003
0.174398 -0.140618 -0.116285
0.174398 -0.140240 -0.118325
0.174398 -0.139861 -0.120366
0.174398 -0.139483 -0.122406
0.173570 -0.140921 -0.124676
0.173570 -0.140544 -0.126714
0.172744 -0.141979 -0.128978
0.172744 -0.141602 -0.131014
0.172744 -0.141224 -0.133049
0.172744 -0.140847 -0.135085
0.172744 -0.140470 -0.137121
0.172744 -0.140092 -0.139157
0.172744 -0.139715 -0.141193
0.172744 -0.139337 -0.143228
0.172744 -0.138960 -0.145264
0.173570 -0.136765 -0.147094
0.173570 -0.136387 -0.149132
0.172744 -0.137828 -0.151371
0.172744 -0.137450 -0.153407
0.172744 -0.137073 -0.155443
0.172744 -0.136695 -0.157479
0.172744 -0.136318 -0.159514
0.171919 -0.137757 -0.161740
0.172744 -0.135563 -0.163586
0.172744 -0.135186 -0.165622
0.172744 -0.134808 -0.167657
0.172744 -0.134431 -0.169693
0.172744 -0.134053 -0.171729
0.172744 -0.133676 -0.173765
0.172744 -0.133298 -0.175800
0.172744 -0.132921 -0.177836
0.173570 -0.130720 -0.179702
0.173570 -0.130342 -0.181739
0.174398 -0.128136 -0.183611
0.174398 -0.127757 -0.185651
0.174398 -0.127379 -0.187691
0.174398 -0.127001 -0.189732
0.174398 -0.126622 -0.191772
0.175229 -0.124410 -0.193656
0.175229 -0.124031 -0.195699
0.175229 -0.123652 -0.197741
0.175229 -0.123274 -0.199783
0.175229 -0.122895 -0.201826
0.175229 -0.122516 -0.203868
0.176060 -0.120297 -0.205768
0.176060 -0.119918 -0.207813
0.176060 -0.119539 -0.209857
0.176060 -0.119160 -0.211902
0.176060 -0.118781 -0.213946
0.176894 -0.116554 -0.215859
0.176894 -0.116175 -0.217906
0.176894 -0.115795 -0.219953
0.176894 -0.115416 -0.222000
0.176894 -0.115036 -0.224046
0.177730 -0.112804 -0.225972
0.177730 -0.112424 -0.228021
0.177730 -0.112044 -0.230070
0.177730 -0.111664 -0.232119
0.177730 -0.111284 -0.234168
0.177730 -0.110904 -0.236218
0.178567 -0.108665 -0.238159
0.178567 -0.108284 -0.240210
0.178567 -0.107904 -0.242261
0.178567 -0.107524 -0.244313
0.178567 -0.107143 -0.246364
0.180247 -0.103027 -0.248221
0.180247 -0.102646 -0.250277
0.180247 -0.102265 -0.252333
0.180247 -0.101884 -0.254389
0.180247 -0.101503 -0.256444
0.181090 -0.099246 -0.258414
0.181090 -0.098864 -0.260472
0.181090 -0.098482 -0.262530
0.181090 -0.098101 -0.264588
0.181090 -0.097719 -0.266646
0.181090 -0.097338 -0.268704
0.181935 -0.095073 -0.270689
0.181935 -0.094691 -0.272750
0.181935 -0.094309 -0.274810
0.181935 -0.093927 -0.276870
0.181935 -0.093545 -0.278931
0.182782 -0.091275 -0.280929
0.182782 -0.090892 -0.282992
0.182782 -0.090510 -0.285054
0.182782 -0.090127 -0.287117
0.182782 -0.089745 -0.289179
0.183630 -0.087467 -0.291192
0.183630 -0.087085 -0.293256
0.183630 -0.086702 -0.295321
0.183630 -0.086319 -0.297386
0.183630 -0.085936 -0.299451
0.183630 -0.085553 -0.301516
0.184480 -0.083269 -0.303543
0.184480 -0.082885 -0.305611
0.184480 -0.082502 -0.307678
0.184480 -0.082119 -0.309745
0.184480 -0.081736 -0.311812
0.185333 -0.079444 -0.313853
0.185333 -0.079061 -0.315923
0.184480 -0.080586 -0.318013
0.184480 -0.080203 -0.320080
0.185333 -0.077910 -0.322131
0.185333 -0.077526 -0.324200
0.185333 -0.077142 -0.326269
0.185333 -0.076759 -0.328339
0.185333 -0.076375 -0.330408
0.186187 -0.074075 -0.332472
0.186187 -0.073691 -0.334544
0.187043 -0.071386 -0.336615
0.187043 -0.071001 -0.338689
0.187043 -0.070617 -0.340763
0.187043 -0.070232 -0.342837
0.187900 -0.067921 -0.344919
0.187900 -0.067536 -0.346995
0.187900 -0.067151 -0.349071
0.188760 -0.064833 -0.351163
0.188760 -0.064448 -0.353242
0.188760 -0.064062 -0.355320
0.188760 -0.063677 -0.357399
0.188760 -0.063292 -0.359477
0.189622 -0.060967 -0.361582
0.189622 -0.060581 -0.363663
0.190485 -0.058251 -0.365776
0.190485 -0.057865 -0.367859
0.191351 -0.055530 -0.369978
0.191351 -0.055143 -0.372064
0.186187 -0.066394 -0.373905
0.184480 -0.069855 -0.375891
0.182782 -0.073302 -0.377869
0.181090 -0.076733 -0.379838
0.178567 -0.082043 -0.381750
0.176894 -0.085437 -0.383700
0.176060 -0.086938 -0.385694
0.174398 -0.090310 -0.387629
0.172744 -0.093668 -0.389555
0.171096 -0.097011 -0.391473
0.169455 -0.100340 -0.393383
0.167822 -0.103654 -0.395285
0.166195 -0.106954 -0.397179
0.165384 -0.108412 -0.399131
0.163768 -0.111691 -0.401010
0.162159 -0.114957 -0.402881
0.160557 -0.118208 -0.404745
0.158961 -0.121445 -0.406600
0.157372 -0.124669 -0.408448
0.155790 -0.127880 -0.410287
0.154215 -0.131076 -0.412119
0.153430 -0.132486 -0.414024
0.151864 -0.135662 -0.415843
0.150305 -0.138826 -0.417653
0.149529 -0.140220 -0.419543
0.147979 -0.143364 -0.421340
0.146437 -0.146495 -0.423130
0.145668 -0.147873 -0.425003
0.144135 -0.150985 -0.426780
0.142608 -0.154084 -0.428549
0.141848 -0.155447 -0.430407
0.140330 -0.158527 -0.432163
0.139574 -0.159882 -0.434012
0.138067 -0.162943 -0.435756
0.137315 -0.164289 -0.437595
0.135817 -0.167331 -0.439325
0.135070 -0.168669 -0.441156
0.134324 -0.170003 -0.442982
0.133581 -0.171335 -0.444805
0.132838 -0.172664 -0.446624
0.132098 -0.173990 -0.448439
0.131358 -0.175314 -0.450250
0.131358 -0.174957 -0.452175
0.130621 -0.176278 -0.453981
0.130621 -0.175921 -0.455905
0.129884 -0.177240 -0.457705
0.129150 -0.178557 -0.459501
0.129150 -0.178201 -0.461421
0.128416 -0.179515 -0.463211
0.127685 -0.180826 -0.464999
0.127685 -0.180471 -0.466914
0.126954 -0.181779 -0.468696
0.126226 -0.183086 -0.470474
0.126226 -0.182731 -0.472385
0.125498 -0.184035 -0.474158
0.124773 -0.185337 -0.475927
0.124773 -0.184983 -0.477834
0.124048 -0.186282 -0.479598
0.124048 -0.185929 -0.481504
0.123325 -0.187225 -0.483261
0.124048 -0.185222 -0.485315
0.124048 -0.184869 -0.487221
0.124048 -0.184515 -0.489127
0.269375 0.004005 0.284459
0.266234 -0.002220 0.279897
0.264153 -0.006204 0.276111
0.260021 -0.014535 0.270870
0.256948 -0.020626 0.266406
0.255928 -0.022367 0.263416
0.254912 -0.024103 0.260434
0.252885 -0.027982 0.256745
0.251875 -0.029705 0.253781
0.250868 -0.031425 0.250824
0.249863 -0.033140 0.247874
0.248861 -0.034851 0.244931
0.248861 -0.034435 0.242687
0.247861 -0.036143 0.239753
0.247861 -0.035727 0.237511
0.246863 -0.037431 0.234588
0.246863 -0.037016 0.232349
0.245868 -0.038716 0.229435
0.244875 -0.040413 0.226528
0.244875 -0.039998 0.224294
0.243885 -0.041691 0.221396
0.243885 -0.041278 0.219165
0.243885 -0.040864 0.216934
0.243885 -0.040450 0.214702
0.243885 -0.040036 0.212471
0.243885 -0.039623 0.210239
0.242896 -0.041314 0.207362
0.242896 -0.040901 0.205133
0.241911 -0.042589 0.202266
0.242896 -0.040075 0.200676
0.241911 -0.041763 0.197813
0.242896 -0.039248 0.196218
0.242896 -0.038835 0.193990
0.242896 -0.038422 0.191761
0.243885 -0.035900 0.190157
0.243885 -0.035486 0.187926
0.243885 -0.035072 0.185694
0.243885 -0.034658 0.183463
0.243885 -0.034245 0.181232
0.243885 -0.033831 0.179000
0.243885 -0.033417 0.176769
0.243885 -0.033004 0.174538
0.243885 -0.032590 0.172306
0.243885 -0.032176 0.170075
0.243885 -0.031763 0.167844
0.243885 -0.031349 0.165612
0.243885 -0.030935 0.163381
0.244875 -0.028401 0.161741
0.244875 -0.027987 0.159507
0.244875 -0.027573 0.157273
0.244875 -0.027159 0.155039
0.244875 -0.026744 0.152805
0.244875 -0.026330 0.150571
0.244875 -0.025916 0.148337
0.244875 -0.025502 0.146103
0.244875 -0.025088 0.143869
0.245868 -0.022544 0.142204
0.245868 -0.022129 0.139968
0.243885 -0.025971 0.136604
0.241911 -0.029794 0.133257
0.239946 -0.033600 0.129925
0.237990 -0.037388 0.126609
0.237016 -0.039070 0.123851
0.236044 -0.040748 0.121098
0.235074 -0.042422 0.118353
0.233142 -0.046167 0.115083
0.232179 -0.047829 0.112354
0.231218 -0.049487 0.109632
0.230260 -0.051141 0.106915
0.229304 -0.052792 0.104205
0.228350 -0.054438 0.101502
0.227398 -0.056081 0.098804
0.225501 -0.059759 0.095611
0.224556 -0.061390 0.092929
0.224556 -0.060986 0.090750
0.223613 -0.062613 0.088077
0.222672 -0.064237 0.085411
0.221734 -0.065857 0.082751
0.220797 -0.067473 0.080097
0.219863 -0.069086 0.077449
0.218931 -0.070695 0.074807
0.218931 -0.070293 0.072643
0.218001 -0.071899 0.070010
0.217073 -0.073501 0.067382
0.216147 -0.075099 0.064761
0.215224 -0.076693 0.062146
0.214302 -0.078284 0.059537
0.213383 -0.079871 0.056934
0.212466 -0.081455 0.054337
0.211550 -0.083035 0.051745
0.210637 -0.084611 0.049160
0.209726 -0.086184 0.046581
0.208817 -0.087754 0.044007
0.207910 -0.089319 0.041439
0.207006 -0.090881 0.038877
0.206103 -0.092440 0.036321
0.205202 -0.093995 0.033770
0.205202 -0.093600 0.031643
0.204303 -0.095153 0.029100
0.203407 -0.096701 0.026564
0.202512 -0.098246 0.024033
0.201619 -0.099787 0.021508
0.200729 -0.101326 0.018989
0.199840 -0.102860 0.016475
0.199840 -0.102468 0.014361
0.198954 -0.104000 0.011856
0.198954 -0.103608 0.009745
0.198069 -0.105137 0.007247
0.197186 -0.106662 0.004755
0.196306 -0.108184 0.002268
0.195427 -0.109702 -0.000213
0.194550 -0.111217 -0.002688
0.193675 -0.112729 -0.005158
0.193675 -0.112340 -0.007255
0.193675 -0.111951 -0.009352
0.192802 -0.113461 -0.011812
0.192802 -0.113072 -0.013907
0.191063 -0.116469 -0.016715
0.190195 -0.117968 -0.019159
0.190195 -0.117581 -0.021247
0.189330 -0.119077 -0.023682
0.188467 -0.120570 -0.026112
0.187606 -0.122059 -0.028537
0.187606 -0.121673 -0.030618
0.186746 -0.123160 -0.033035
0.185889 -0.124643 -0.035447
0.185033 -0.126124 -0.037854
0.185889 -0.123874 -0.039600
0.185033 -0.125355 -0.042002
0.184180 -0.126832 -0.044399
0.184180 -0.126448 -0.046470
0.183328 -0.127923 -0.048859
0.182478 -0.129395 -0.051243
0.182478 -0.129012 -0.053310
0.181630 -0.130480 -0.055687
0.181630 -0.130098 -0.057752
0.181630 -0.129715 -0.059816
0.180783 -0.131181 -0.062183
0.180783 -0.130799 -0.064246
0.179939 -0.132262 -0.066605
0.179939 -0.131880 -0.068665
0.179096 -0.133341 -0.071017
0.179096 -0.132960 -0.073075
0.179096 -0.132578 -0.075133
0.178256 -0.134037 -0.077475
0.178256 -0.133656 -0.079531
0.176580 -0.136944 -0.082144
0.176580 -0.136564 -0.084196
0.175745 -0.138013 -0.086520
0.175745 -0.137633 -0.088569
0.174911 -0.139080 -0.090887
0.174911 -0.138701 -0.092933
0.174911 -0.138321 -0.094980
0.174911 -0.137942 -0.097027
0.174080 -0.139386 -0.099333
0.174080 -0.139007 -0.101377
0.174080 -0.138628 -0.103422
0.173250 -0.140071 -0.105718
0.173250 -0.139692 -0.107761
0.173250 -0.139313 -0.109803
0.173250 -0.138935 -0.111845
0.172422 -0.140375 -0.114130
0.172422 -0.139997 -0.116170
0.172422 -0.139619 -0.118210
0.171596 -0.141057 -0.120486
0.171596 -0.140679 -0.122524
0.171596 -0.140301 -0.124561
0.171596 -0.139923 -0.126599
0.170771 -0.141360 -0.128863
0.170771 -0.140982 -0.130899
0.170771 -0.140605 -0.132935
0.170771 -0.140227 -0.134970
0.170771 -0.139850 -0.137006
0.170771 -0.139473 -0.139042
0.170771 -0.139095 -0.141078
0.170771 -0.138718 -0.143113
0.170771 -0.138340 -0.145149
0.170771 -0.137963 -0.147185
0.170771 -0.137585 -0.149221
0.170771 -0.137208 -0.151256
0.170771 -0.136831 -0.153292
0.170771 -0.136453 -0.155328
0.170771 -0.136076 -0.157364
0.169949 -0.137515 -0.159592
0.169949 -0.137138 -0.161625
0.169949 -0.136761 -0.163659
0.169949 -0.136384 -0.165692
0.169949 -0.136007 -0.167726
0.169949 -0.135630 -0.169759
0.169949 -0.135253 -0.171793
0.170771 -0.133056 -0.173650
0.170771 -0.132679 -0.175686
0.170771 -0.132301 -0.177721
0.171596 -0.130100 -0.179587
0.171596 -0.129722 -0.181624
0.171596 -0.129344 -0.183662
0.171596 -0.128966 -0.185700
0.172422 -0.126758 -0.187576
0.172422 -0.126380 -0.189616
0.172422 -0.126002 -0.191657
0.172422 -0.125623 -0.193697
0.172422 -0.125245 -0.195737
0.172422 -0.124867 -0.197777
0.173250 -0.122652 -0.199668
0.173250 -0.122274 -0.201711
0.173250 -0.121895 -0.203753
0.173250 -0.121516 -0.205795
0.173250 -0.121138 -0.207838
0.174080 -0.118916 -0.209742
0.174080 -0.118537 -0.211786
0.174080 -0.118158 -0.213831
0.174080 -0.117779 -0.215876
0.174080 -0.117400 -0.217920
0.174911 -0.115172 -0.219837
0.174911 -0.114793 -0.221884
0.174911 -0.114413 -0.223931
0.174911 -0.114034 -0.225978
0.174911 -0.113655 -0.228025
0.174911 -0.113275 -0.230071
0.175745 -0.111040 -0.232004
0.175745 -0.110660 -0.234053
0.175745 -0.110281 -0.236102
0.175745 -0.109901 -0.238151
0.175745 -0.109521 -0.240200
0.176580 -0.107280 -0.242146
0.176580 -0.106899 -0.244197
0.176580 -0.106519 -0.246248
0.176580 -0.106139 -0.248299
0.176580 -0.105758 -0.250351
0.178256 -0.101639 -0.252217
0.178256 -0.101258 -0.254273
0.178256 -0.100877 -0.256328
0.178256 -0.100496 -0.258384
0.178256 -0.100115 -0.260440
0.178256 -0.099734 -0.262496
0.179096 -0.097475 -0.264472
0.179096 -0.097093 -0.266530
0.179096 -0.096711 -0.268588
0.179096 -0.096330 -0.270646
0.179096 -0.095948 -0.272704
0.179939 -0.093682 -0.274694
0.179939 -0.093300 -0.276754
0.179939 -0.092919 -0.278814
0.179939 -0.092537 -0.280875
0.179939 -0.092155 -0.282935
0.180783 -0.089882 -0.284938
0.180783 -0.089500 -0.287001
0.180783 -0.089117 -0.289063
0.180783 -0.088735 -0.291126
0.180783 -0.088353 -0.293188
0.180783 -0.087970 -0.295251
0.181630 -0.085691 -0.297269
0.181630 -0.085308 -0.299334
0.181630 -0.084925 -0.301399
0.181630 -0.084542 -0.303464
0.181630 -0.084159 -0.305529
0.182478 -0.081873 -0.307561
0.182478 -0.081490 -0.309628
0.182478 -0.081107 -0.311695
0.182478 -0.080723 -0.313762
0.182478 -0.080340 -0.315829
0.183328 -0.078047 -0.317875
0.183328 -0.077664 -0.319945
0.182478 -0.079191 -0.322031
0.182478 -0.078807 -0.324098
0.183328 -0.076513 -0.326153
0.183328 -0.076129 -0.328222
0.183328 -0.075745 -0.330291
0.183328 -0.075362 -0.332361
0.183328 -0.074978 -0.334430
0.184180 -0.072677 -0.336499
0.184180 -0.072293 -0.338570
0.185033 -0.069986 -0.340646
0.185033 -0.069601 -0.342720
0.185033 -0.069217 -0.344793
0.185033 -0.068832 -0.346867
0.185889 -0.066519 -0.348954
0.185889 -0.066134 -0.351030
0.185889 -0.065749 -0.353107
0.186746 -0.063430 -0.355203
0.185889 -0.064979 -0.357259
0.186746 -0.062659 -0.359360
0.186746 -0.062274 -0.361438
0.186746 -0.061888 -0.363517
0.187606 -0.059562 -0.365627
0.187606 -0.059177 -0.367707
0.188467 -0.056845 -0.369824
0.188467 -0.056459 -0.371907
0.182478 -0.069610 -0.373708
0.180783 -0.073057 -0.375690
0.179939 -0.074583 -0.377708
0.178256 -0.078008 -0.379675
0.175745 -0.083308 -0.381586
0.174080 -0.086695 -0.383534
0.172422 -0.090068 -0.385473
0.170771 -0.093426 -0.387405
0.169128 -0.096769 -0.389327
0.168309 -0.098248 -0.391300
0.166676 -0.101570 -0.393209
0.165050 -0.104878 -0.395109
0.163431 -0.108172 -0.397001
0.161819 -0.111452 -0.398885
0.160214 -0.114718 -0.400760
0.158616 -0.117970 -0.402628
0.157025 -0.121208 -0.404488
0.155440 -0.124432 -0.406340
0.154650 -0.125855 -0.408260
0.153075 -0.129059 -0.410098
0.150726 -0.134024 -0.411849
0.149946 -0.135427 -0.413751
0.148391 -0.138591 -0.415566
0.146843 -0.141742 -0.417373
0.146071 -0.143130 -0.419259
0.144533 -0.146261 -0.421053
0.143766 -0.147640 -0.422929
0.142237 -0.150752 -0.424710
0.140714 -0.153851 -0.426483
0.139955 -0.155215 -0.428344
0.138442 -0.158295 -0.430104
0.137688 -0.159650 -0.431955
0.136184 -0.162712 -0.433703
0.135434 -0.164058 -0.435544
0.133940 -0.167101 -0.437279
0.133195 -0.168439 -0.439111
0.132452 -0.169773 -0.440940
0.131710 -0.171105 -0.442764
0.130230 -0.174118 -0.444475
0.130230 -0.173761 -0.446403
0.129493 -0.175085 -0.448216
0.128757 -0.176406 -0.450026
