ply
format ascii 1.0
element vertex 1674
property float x
property float y
property float z
end_header
0.243600 -0.019885 -0.375508
0.246479 -0.019848 -0.377245
0.247755 -0.019829 -0.379014
0.250618 -0.019792 -0.380739
0.251887 -0.019774 -0.382500
0.253153 -0.019755 -0.384258
0.255995 -0.019719 -0.385966
0.257254 -0.019700 -0.387715
0.258510 -0.019682 -0.389462
0.261331 -0.019646 -0.391153
0.262579 -0.019628 -0.392891
0.265384 -0.019592 -0.394571
0.266626 -0.019574 -0.396301
0.267865 -0.019556 -0.398028
0.270649 -0.019520 -0.399692
0.271881 -0.019502 -0.401410
0.273110 -0.019484 -0.403125
0.277409 -0.019431 -0.404710
0.278629 -0.019413 -0.406416
0.279846 -0.019395 -0.408118
0.282585 -0.019360 -0.409750
0.283795 -0.019342 -0.411444
0.285002 -0.019325 -0.413135
0.287721 -0.019290 -0.414751
0.288922 -0.019272 -0.416435
0.290121 -0.019255 -0.418115
0.292820 -0.019220 -0.419716
0.294012 -0.019203 -0.421389
0.295201 -0.019185 -0.423058
0.297881 -0.019151 -0.424644
0.299064 -0.019134 -0.426306
0.300244 -0.019116 -0.427964
0.301422 -0.019099 -0.429620
0.304078 -0.019065 -0.431186
0.305249 -0.019048 -0.432835
0.306419 -0.019031 -0.434480
0.309056 -0.018997 -0.436031
0.310218 -0.018980 -0.437669
0.311379 -0.018963 -0.439304
0.313997 -0.018930 -0.440841
0.315151 -0.018913 -0.442468
0.316303 -0.018896 -0.444093
0.320350 -0.018846 -0.445516
0.321493 -0.018829 -0.447132
0.322633 -0.018813 -0.448745
0.323772 -0.018796 -0.450355
0.326344 -0.018763 -0.451858
0.328907 -0.018730 -0.453355
0.330035 -0.018714 -0.454954
0.331160 -0.018697 -0.456549
0.330860 -0.018697 -0.458251
0.331984 -0.018681 -0.459842
0.331684 -0.018681 -0.461543
0.332807 -0.018664 -0.463129
0.333927 -0.018648 -0.464713
0.333628 -0.018648 -0.466410
0.334746 -0.018632 -0.467990
0.335862 -0.018616 -0.469567
0.335564 -0.018616 -0.471261
0.336678 -0.018599 -0.472833
0.336380 -0.018599 -0.474526
0.337493 -0.018583 -0.476094
0.338604 -0.018567 -0.477659
0.338306 -0.018567 -0.479349
0.339415 -0.018551 -0.480910
0.337710 -0.018567 -0.482728
0.336002 -0.018583 -0.484550
0.334291 -0.018599 -0.486375
0.333992 -0.018599 -0.488068
0.370499 -0.021665 0.317102
0.384803 -0.021464 0.309091
0.388820 -0.021405 0.305468
0.391381 -0.021365 0.302469
0.395361 -0.021307 0.298881
0.397898 -0.021267 0.295909
0.397585 -0.021267 0.294135
0.398694 -0.021248 0.291769
0.398382 -0.021248 0.289997
0.399488 -0.021229 0.287637
0.399176 -0.021229 0.285866
0.400281 -0.021209 0.283512
0.401385 -0.021190 0.281162
0.401073 -0.021190 0.279395
0.400761 -0.021190 0.277627
0.401863 -0.021170 0.275285
0.401552 -0.021170 0.273520
0.402651 -0.021151 0.271184
0.402340 -0.021151 0.269420
0.403438 -0.021132 0.267090
0.403128 -0.021132 0.265327
0.404224 -0.021113 0.263004
0.405318 -0.021093 0.260684
0.405008 -0.021093 0.258925
0.406101 -0.021074 0.256611
0.405791 -0.021074 0.254854
0.406882 -0.021055 0.252546
0.407970 -0.021036 0.250243
0.409057 -0.021017 0.247944
0.408748 -0.021017 0.246191
0.408439 -0.021017 0.244439
0.409524 -0.020998 0.242147
0.409216 -0.020998 0.240396
0.408907 -0.020998 0.238645
0.409991 -0.020979 0.236361
0.409682 -0.020979 0.234612
0.409374 -0.020979 0.232863
0.410456 -0.020960 0.230586
0.410148 -0.020960 0.228838
0.409840 -0.020960 0.227091
0.410921 -0.020941 0.224822
0.410613 -0.020941 0.223075
0.410305 -0.020941 0.221329
0.411385 -0.020922 0.219068
0.411077 -0.020922 0.217323
0.410769 -0.020922 0.215579
0.410462 -0.020922 0.213834
0.411540 -0.020903 0.211582
0.411233 -0.020903 0.209839
0.410926 -0.020903 0.208096
0.410618 -0.020903 0.206353
0.411696 -0.020885 0.204110
0.411389 -0.020885 0.202368
0.411082 -0.020885 0.200627
0.410774 -0.020885 0.198886
0.410467 -0.020885 0.197145
0.410160 -0.020885 0.195403
0.411237 -0.020866 0.193172
0.410930 -0.020866 0.191432
0.410624 -0.020866 0.189693
0.410317 -0.020866 0.187953
0.410010 -0.020866 0.186213
0.411086 -0.020847 0.183992
0.410779 -0.020847 0.182254
0.410473 -0.020847 0.180516
0.410167 -0.020847 0.178778
0.409860 -0.020847 0.177040
0.410935 -0.020828 0.174830
0.410629 -0.020828 0.173093
0.410323 -0.020828 0.171357
0.410017 -0.020828 0.169621
0.409710 -0.020828 0.167884
0.409404 -0.020828 0.166148
0.409098 -0.020828 0.164411
0.408792 -0.020828 0.162675
0.408486 -0.020828 0.160938
0.409561 -0.020810 0.158745
0.409255 -0.020810 0.157010
0.408949 -0.020810 0.155275
0.408643 -0.020810 0.153540
0.406955 -0.020828 0.152256
0.406649 -0.020828 0.150520
0.406342 -0.020828 0.148783
0.406036 -0.020828 0.147047
0.405730 -0.020828 0.145310
0.405424 -0.020828 0.143574
0.405118 -0.020828 0.141838
0.404811 -0.020828 0.140101
0.407272 -0.020791 0.137490
0.408347 -0.020772 0.135322
0.409419 -0.020754 0.133158
0.410490 -0.020735 0.130998
0.411558 -0.020717 0.128842
0.412625 -0.020698 0.126690
0.413689 -0.020680 0.124542
0.414752 -0.020662 0.122397
0.414448 -0.020662 0.120675
0.415509 -0.020643 0.118537
0.417928 -0.020607 0.115988
0.418983 -0.020588 0.113860
0.418681 -0.020588 0.112144
0.419734 -0.020570 0.110021
0.420785 -0.020552 0.107901
0.421834 -0.020534 0.105786
0.422882 -0.020516 0.103674
0.422581 -0.020516 0.101965
0.423627 -0.020497 0.099858
0.423325 -0.020497 0.098150
0.424370 -0.020479 0.096049
0.424069 -0.020479 0.094343
0.423768 -0.020479 0.092636
0.423467 -0.020479 0.090930
0.424510 -0.020461 0.088837
0.424209 -0.020461 0.087132
0.423909 -0.020461 0.085427
0.423608 -0.020461 0.083722
0.423308 -0.020461 0.082017
0.423007 -0.020461 0.080312
0.422706 -0.020461 0.078607
0.423749 -0.020443 0.076528
0.423449 -0.020443 0.074824
0.423148 -0.020443 0.073121
0.422848 -0.020443 0.071417
0.422548 -0.020443 0.069714
0.422247 -0.020443 0.068010
0.421947 -0.020443 0.066307
0.421647 -0.020443 0.064603
0.421346 -0.020443 0.062900
0.421046 -0.020443 0.061197
0.420746 -0.020443 0.059493
0.420445 -0.020443 0.057790
0.420145 -0.020443 0.056086
0.419844 -0.020443 0.054383
0.419544 -0.020443 0.052679
0.419244 -0.020443 0.050976
0.420289 -0.020425 0.048923
0.419989 -0.020425 0.047221
0.419689 -0.020425 0.045519
0.419389 -0.020425 0.043817
0.419088 -0.020425 0.042115
0.418788 -0.020425 0.040414
0.419833 -0.020407 0.038372
0.418188 -0.020425 0.037010
0.417888 -0.020425 0.035308
0.417588 -0.020425 0.033606
0.417288 -0.020425 0.031904
0.416988 -0.020425 0.030202
0.416688 -0.020425 0.028500
0.416388 -0.020425 0.026798
0.416088 -0.020425 0.025096
0.414438 -0.020443 0.023720
0.414137 -0.020443 0.022017
0.413837 -0.020443 0.020313
0.413537 -0.020443 0.018610
0.413236 -0.020443 0.016906
0.411583 -0.020461 0.015522
0.411282 -0.020461 0.013817
0.410981 -0.020461 0.012112
0.410681 -0.020461 0.010407
0.410380 -0.020461 0.008702
0.410079 -0.020461 0.006997
0.409779 -0.020461 0.005292
0.409478 -0.020461 0.003587
0.409178 -0.020461 0.001882
0.408877 -0.020461 0.000177
0.407218 -0.020479 -0.001224
0.406917 -0.020479 -0.002931
0.406616 -0.020479 -0.004637
0.406315 -0.020479 -0.006344
0.406014 -0.020479 -0.008050
0.405713 -0.020479 -0.009757
0.404050 -0.020497 -0.011168
0.403748 -0.020497 -0.012876
0.403447 -0.020497 -0.014584
0.404509 -0.020479 -0.016583
0.405570 -0.020461 -0.018578
0.407985 -0.020425 -0.020856
0.409039 -0.020407 -0.022842
0.410092 -0.020390 -0.024824
0.411142 -0.020372 -0.026803
0.412191 -0.020354 -0.028778
0.411892 -0.020354 -0.030474
0.412939 -0.020336 -0.032444
0.413984 -0.020318 -0.034410
0.415027 -0.020300 -0.036373
0.414729 -0.020300 -0.038065
0.415771 -0.020283 -0.040023
0.416811 -0.020265 -0.041977
0.417849 -0.020247 -0.043928
0.418885 -0.020230 -0.045876
0.419919 -0.020212 -0.047820
0.419622 -0.020212 -0.049503
0.420655 -0.020195 -0.051442
0.421686 -0.020177 -0.053378
0.422715 -0.020160 -0.055310
0.423742 -0.020142 -0.057239
0.423446 -0.020142 -0.058916
0.424472 -0.020125 -0.060840
0.425495 -0.020107 -0.062760
0.425200 -0.020107 -0.064435
0.424905 -0.020107 -0.066110
0.425927 -0.020090 -0.068024
0.425632 -0.020090 -0.069697
0.426653 -0.020073 -0.071606
0.426358 -0.020073 -0.073278
0.426064 -0.020073 -0.074950
0.427083 -0.020055 -0.076852
0.428101 -0.020038 -0.078752
0.427807 -0.020038 -0.080420
0.427513 -0.020038 -0.082089
0.427218 -0.020038 -0.083758
0.428235 -0.020021 -0.085649
0.427941 -0.020021 -0.087317
0.427647 -0.020021 -0.088984
0.428663 -0.020004 -0.090869
0.428369 -0.020004 -0.092535
0.429383 -0.019986 -0.094416
0.429090 -0.019986 -0.096080
0.428796 -0.019986 -0.097744
0.429809 -0.019969 -0.099619
0.429516 -0.019969 -0.101281
0.429222 -0.019969 -0.102944
0.430234 -0.019952 -0.104812
0.429941 -0.019952 -0.106474
0.430951 -0.019935 -0.108337
0.430658 -0.019935 -0.109997
0.430365 -0.019935 -0.111657
0.431374 -0.019918 -0.113514
0.431082 -0.019918 -0.115172
0.430789 -0.019918 -0.116831
0.431797 -0.019901 -0.118682
0.431504 -0.019901 -0.120339
0.431212 -0.019901 -0.121996
0.432218 -0.019884 -0.123840
0.431927 -0.019884 -0.125496
0.431635 -0.019884 -0.127151
0.431343 -0.019884 -0.128807
0.431051 -0.019884 -0.130462
0.430759 -0.019884 -0.132118
0.431764 -0.019867 -0.133952
0.431473 -0.019867 -0.135606
0.431181 -0.019867 -0.137260
0.430889 -0.019867 -0.138915
0.429299 -0.019884 -0.140396
0.429007 -0.019884 -0.142051
0.428715 -0.019884 -0.143707
0.428423 -0.019884 -0.145363
0.428132 -0.019884 -0.147018
0.427840 -0.019884 -0.148674
0.427548 -0.019884 -0.150329
0.427256 -0.019884 -0.151985
0.426964 -0.019884 -0.153640
0.426672 -0.019884 -0.155296
0.426380 -0.019884 -0.156952
0.426088 -0.019884 -0.158607
0.425796 -0.019884 -0.160263
0.425504 -0.019884 -0.161918
0.425212 -0.019884 -0.163574
0.424920 -0.019884 -0.165229
0.424628 -0.019884 -0.166885
0.424337 -0.019884 -0.168541
0.424045 -0.019884 -0.170196
0.423753 -0.019884 -0.171852
0.422155 -0.019901 -0.173363
0.421863 -0.019901 -0.175020
0.421570 -0.019901 -0.176677
0.419969 -0.019918 -0.178194
0.419677 -0.019918 -0.179853
0.419384 -0.019918 -0.181511
0.417780 -0.019935 -0.183034
0.417487 -0.019935 -0.184694
0.417194 -0.019935 -0.186354
0.415586 -0.019952 -0.187882
0.415293 -0.019952 -0.189544
0.415000 -0.019952 -0.191205
0.413389 -0.019969 -0.192739
0.413096 -0.019969 -0.194402
0.412803 -0.019969 -0.196065
0.412509 -0.019969 -0.197728
0.410894 -0.019986 -0.199269
0.410601 -0.019986 -0.200933
0.410308 -0.019986 -0.202598
0.408689 -0.020004 -0.204145
0.408396 -0.020004 -0.205810
0.408102 -0.020004 -0.207476
0.406480 -0.020021 -0.209029
0.406186 -0.020021 -0.210696
0.405892 -0.020021 -0.212363
0.404267 -0.020038 -0.213921
0.403973 -0.020038 -0.215590
0.403679 -0.020038 -0.217259
0.402050 -0.020055 -0.218823
0.401756 -0.020055 -0.220493
0.401461 -0.020055 -0.222163
0.401167 -0.020055 -0.223834
0.399534 -0.020073 -0.225405
0.397899 -0.020090 -0.226979
0.396261 -0.020107 -0.228555
0.395966 -0.020107 -0.230230
0.394325 -0.020125 -0.231811
0.392681 -0.020142 -0.233395
0.391034 -0.020160 -0.234982
0.389384 -0.020177 -0.236571
0.389087 -0.020177 -0.238252
0.387434 -0.020195 -0.239846
0.385778 -0.020212 -0.241442
0.384119 -0.020230 -0.243042
0.382457 -0.020247 -0.244644
0.380792 -0.020265 -0.246250
0.379124 -0.020283 -0.247858
0.377453 -0.020300 -0.249469
0.375779 -0.020318 -0.251083
0.374102 -0.020336 -0.252699
0.372422 -0.020354 -0.254319
0.370739 -0.020372 -0.255942
0.369053 -0.020390 -0.257568
0.367364 -0.020407 -0.259196
0.365671 -0.020425 -0.260828
0.362579 -0.020461 -0.262394
0.360877 -0.020479 -0.264033
0.359173 -0.020497 -0.265675
0.357466 -0.020516 -0.267320
0.355755 -0.020534 -0.268967
0.354042 -0.020552 -0.270618
0.352325 -0.020570 -0.272272
0.350606 -0.020588 -0.273929
0.348883 -0.020607 -0.275588
0.345731 -0.020643 -0.277196
0.343999 -0.020662 -0.278864
0.342263 -0.020680 -0.280534
0.340525 -0.020698 -0.282208
0.338783 -0.020717 -0.283884
0.337039 -0.020735 -0.285564
0.335291 -0.020754 -0.287246
0.332091 -0.020791 -0.288888
0.330333 -0.020810 -0.290578
0.328573 -0.020828 -0.292271
0.326809 -0.020847 -0.293968
0.325042 -0.020866 -0.295668
0.323271 -0.020885 -0.297371
0.321497 -0.020903 -0.299077
0.319720 -0.020922 -0.300786
0.317940 -0.020941 -0.302498
0.316157 -0.020960 -0.304214
0.314370 -0.020979 -0.305932
0.312580 -0.020998 -0.307654
0.310786 -0.021017 -0.309379
0.308989 -0.021036 -0.311108
0.307189 -0.021055 -0.312839
0.305385 -0.021074 -0.314574
0.303578 -0.021093 -0.316312
0.301768 -0.021113 -0.318053
0.298448 -0.021151 -0.319782
0.296628 -0.021170 -0.321531
0.294804 -0.021190 -0.323284
0.292977 -0.021209 -0.325040
0.291147 -0.021229 -0.326799
0.289313 -0.021248 -0.328562
0.287476 -0.021267 -0.330328
0.285635 -0.021287 -0.332097
0.283790 -0.021307 -0.333869
0.281943 -0.021326 -0.335645
0.280091 -0.021346 -0.337425
0.278236 -0.021365 -0.339207
0.276378 -0.021385 -0.340993
0.274516 -0.021405 -0.342783
0.272651 -0.021425 -0.344576
0.270782 -0.021445 -0.346372
0.267349 -0.021484 -0.348182
0.265470 -0.021504 -0.349987
0.263587 -0.021524 -0.351795
0.261701 -0.021544 -0.353607
0.259811 -0.021564 -0.355422
0.257917 -0.021584 -0.357240
0.256020 -0.021604 -0.359062
0.254119 -0.021625 -0.360888
0.252214 -0.021645 -0.362717
0.250306 -0.021665 -0.364550
0.248394 -0.021685 -0.366386
0.246478 -0.021706 -0.368225
0.244559 -0.021726 -0.370069
0.242636 -0.021746 -0.371915
0.240709 -0.021767 -0.373766
0.241996 -0.021746 -0.375545
0.244881 -0.021706 -0.377283
0.246160 -0.021685 -0.379055
0.249029 -0.021645 -0.380781
0.250300 -0.021625 -0.382543
0.251569 -0.021604 -0.384303
0.254417 -0.021564 -0.386012
0.255678 -0.021544 -0.387764
0.258510 -0.021504 -0.389462
0.259763 -0.021484 -0.391204
0.261015 -0.021464 -0.392944
0.263826 -0.021425 -0.394626
0.265070 -0.021405 -0.396357
0.267865 -0.021365 -0.398028
0.269101 -0.021346 -0.399751
0.271881 -0.021307 -0.401410
0.273110 -0.021287 -0.403125
0.275875 -0.021248 -0.404774
0.277097 -0.021229 -0.406481
0.278317 -0.021209 -0.408185
0.281061 -0.021170 -0.409818
0.282274 -0.021151 -0.411514
0.283484 -0.021132 -0.413207
0.286208 -0.021093 -0.414824
0.287411 -0.021074 -0.416509
0.288613 -0.021055 -0.418191
0.291317 -0.021017 -0.419793
0.292511 -0.020998 -0.421467
0.293703 -0.020979 -0.423138
0.296388 -0.020941 -0.424725
0.297573 -0.020922 -0.426388
0.298756 -0.020903 -0.428048
0.299937 -0.020885 -0.429706
0.302598 -0.020847 -0.431273
0.303772 -0.020828 -0.432923
0.304944 -0.020810 -0.434569
0.307586 -0.020772 -0.436122
0.308751 -0.020754 -0.437761
0.309914 -0.020735 -0.439398
0.312537 -0.020698 -0.440936
0.313693 -0.020680 -0.442564
0.314847 -0.020662 -0.444190
0.318902 -0.020607 -0.445615
0.320047 -0.020588 -0.447232
0.321190 -0.020570 -0.448846
0.323772 -0.020534 -0.450355
0.324908 -0.020516 -0.451962
0.327476 -0.020479 -0.453460
0.328606 -0.020461 -0.455060
0.329734 -0.020443 -0.456657
0.330860 -0.020425 -0.458251
0.330560 -0.020425 -0.459953
0.331684 -0.020407 -0.461543
0.332807 -0.020390 -0.463129
0.332507 -0.020390 -0.464828
0.333628 -0.020372 -0.466410
0.334746 -0.020354 -0.467990
0.334447 -0.020354 -0.469686
0.335564 -0.020336 -0.471261
0.335265 -0.020336 -0.472955
0.336380 -0.020318 -0.474526
0.337493 -0.020300 -0.476094
0.337195 -0.020300 -0.477785
0.336896 -0.020300 -0.479476
0.336598 -0.020300 -0.481168
0.336300 -0.020300 -0.482859
0.334589 -0.020318 -0.484682
0.332875 -0.020336 -0.486509
0.332576 -0.020336 -0.488204
0.114265 -0.027330 0.428382
0.371974 -0.023479 0.316474
0.384803 -0.023283 0.309091
0.387379 -0.023240 0.306077
0.391381 -0.023175 0.302469
0.393933 -0.023133 0.299482
0.396474 -0.023090 0.296506
0.397585 -0.023069 0.294135
0.397272 -0.023069 0.292361
0.398382 -0.023048 0.289997
0.398069 -0.023048 0.288224
0.399176 -0.023027 0.285866
0.398864 -0.023027 0.284095
0.399969 -0.023005 0.281743
0.399658 -0.023005 0.279974
0.399346 -0.023005 0.278205
0.400450 -0.022984 0.275860
0.400138 -0.022984 0.274093
0.401240 -0.022963 0.271754
0.402340 -0.022942 0.269420
0.402029 -0.022942 0.267656
0.403128 -0.022921 0.265327
0.402817 -0.022921 0.263565
0.403914 -0.022901 0.261243
0.403603 -0.022901 0.259482
0.404698 -0.022880 0.257166
0.405791 -0.022859 0.254854
0.406882 -0.022838 0.252546
0.406572 -0.022838 0.250790
0.407661 -0.022817 0.248489
0.407352 -0.022817 0.246734
0.407042 -0.022817 0.244980
0.408130 -0.022797 0.242686
0.407821 -0.022797 0.240933
0.407512 -0.022797 0.239181
0.408598 -0.022776 0.236894
0.408289 -0.022776 0.235143
0.407981 -0.022776 0.233392
0.407672 -0.022776 0.231641
0.408757 -0.022755 0.229364
0.408448 -0.022755 0.227615
0.408140 -0.022755 0.225865
0.409224 -0.022735 0.223595
0.408915 -0.022735 0.221847
0.408607 -0.022735 0.220100
0.409689 -0.022714 0.217837
0.409381 -0.022714 0.216091
0.409074 -0.022714 0.214345
0.408766 -0.022714 0.212599
0.409847 -0.022694 0.210345
0.409539 -0.022694 0.208601
0.409231 -0.022694 0.206856
0.408924 -0.022694 0.205112
0.408616 -0.022694 0.203367
0.408309 -0.022694 0.201623
0.409389 -0.022673 0.199382
0.409082 -0.022673 0.197639
0.408774 -0.022673 0.195896
0.408467 -0.022673 0.194153
0.408160 -0.022673 0.192410
0.407852 -0.022673 0.190667
0.408932 -0.022653 0.188438
0.408625 -0.022653 0.186697
0.408318 -0.022653 0.184956
0.408011 -0.022653 0.183215
0.409090 -0.022632 0.180994
0.408783 -0.022632 0.179255
0.408476 -0.022632 0.177515
0.408170 -0.022632 0.175775
0.407863 -0.022632 0.174036
0.407556 -0.022632 0.172296
0.407249 -0.022632 0.170557
0.406943 -0.022632 0.168817
0.406636 -0.022632 0.167077
0.407715 -0.022612 0.164874
0.407408 -0.022612 0.163136
0.407102 -0.022612 0.161398
0.406795 -0.022612 0.159660
0.406489 -0.022612 0.157922
0.404795 -0.022632 0.156639
0.404489 -0.022632 0.154900
0.404182 -0.022632 0.153160
0.403875 -0.022632 0.151420
0.403568 -0.022632 0.149681
0.403262 -0.022632 0.147941
0.402955 -0.022632 0.146201
0.402648 -0.022632 0.144462
0.402341 -0.022632 0.142722
0.402035 -0.022632 0.140983
0.401728 -0.022632 0.139243
0.404199 -0.022592 0.136628
0.405278 -0.022571 0.134457
0.406356 -0.022551 0.132290
0.407431 -0.022531 0.130127
0.408504 -0.022511 0.127968
0.409575 -0.022490 0.125812
0.410645 -0.022470 0.123661
0.411712 -0.022450 0.121514
0.411408 -0.022450 0.119789
0.412474 -0.022430 0.117647
0.413537 -0.022410 0.115509
0.414599 -0.022390 0.113375
0.414296 -0.022390 0.111654
0.416717 -0.022350 0.109118
0.417773 -0.022331 0.106996
0.418827 -0.022311 0.104878
0.418525 -0.022311 0.103163
0.419577 -0.022291 0.101050
0.419275 -0.022291 0.099337
0.420326 -0.022271 0.097230
0.420024 -0.022271 0.095519
0.419722 -0.022271 0.093807
0.420772 -0.022252 0.091707
0.420470 -0.022252 0.089997
0.421518 -0.022232 0.087902
0.421217 -0.022232 0.086193
0.420916 -0.022232 0.084485
0.420615 -0.022232 0.082777
0.420314 -0.022232 0.081069
0.421361 -0.022212 0.078984
0.421060 -0.022212 0.077277
0.420759 -0.022212 0.075571
0.420458 -0.022212 0.073864
0.420157 -0.022212 0.072158
0.419856 -0.022212 0.070451
0.419555 -0.022212 0.068744
0.419254 -0.022212 0.067038
0.418953 -0.022212 0.065331
0.418652 -0.022212 0.063625
0.418351 -0.022212 0.061918
0.418050 -0.022212 0.060212
0.417750 -0.022212 0.058505
0.417449 -0.022212 0.056799
0.418497 -0.022193 0.054737
0.418197 -0.022193 0.053032
0.417896 -0.022193 0.051327
0.417595 -0.022193 0.049622
0.417295 -0.022193 0.047917
0.416994 -0.022193 0.046212
0.416693 -0.022193 0.044507
0.416393 -0.022193 0.042802
0.416092 -0.022193 0.041097
0.417141 -0.022173 0.039051
0.415491 -0.022193 0.037687
0.415190 -0.022193 0.035982
0.414890 -0.022193 0.034277
0.414589 -0.022193 0.032572
0.414288 -0.022193 0.030867
0.413988 -0.022193 0.029162
0.413687 -0.022193 0.027457
0.413386 -0.022193 0.025752
0.413086 -0.022193 0.024047
0.412785 -0.022193 0.022342
0.412485 -0.022193 0.020637
0.412184 -0.022193 0.018932
0.410528 -0.022212 0.017548
0.410227 -0.022212 0.015841
0.409926 -0.022212 0.014135
0.409625 -0.022212 0.012428
0.409324 -0.022212 0.010722
0.409023 -0.022212 0.009015
0.408722 -0.022212 0.007309
0.408421 -0.022212 0.005602
0.408120 -0.022212 0.003896
0.406459 -0.022232 0.002497
0.406158 -0.022232 0.000789
0.405857 -0.022232 -0.000920
0.405556 -0.022232 -0.002628
0.405254 -0.022232 -0.004336
0.404953 -0.022232 -0.006044
0.404652 -0.022232 -0.007752
0.402986 -0.022252 -0.009163
0.402684 -0.022252 -0.010872
0.402383 -0.022252 -0.012582
0.402082 -0.022252 -0.014292
0.401780 -0.022252 -0.016001
0.404209 -0.022212 -0.018290
0.405269 -0.022193 -0.020283
0.406328 -0.022173 -0.022273
0.407385 -0.022154 -0.024260
0.408440 -0.022134 -0.026242
0.409493 -0.022115 -0.028222
0.410544 -0.022095 -0.030197
0.411593 -0.022076 -0.032170
0.411294 -0.022076 -0.033865
0.412341 -0.022056 -0.035832
0.413387 -0.022037 -0.037796
0.414431 -0.022018 -0.039756
0.415473 -0.021999 -0.041712
0.415175 -0.021999 -0.043402
0.416215 -0.021979 -0.045354
0.417254 -0.021960 -0.047301
0.418290 -0.021941 -0.049246
0.419325 -0.021922 -0.051187
0.420358 -0.021903 -0.053124
0.420062 -0.021903 -0.054807
0.421093 -0.021884 -0.056739
0.422122 -0.021865 -0.058668
0.423150 -0.021846 -0.060594
0.424176 -0.021827 -0.062516
0.423880 -0.021827 -0.064193
0.423585 -0.021827 -0.065869
0.424610 -0.021808 -0.067785
0.424314 -0.021808 -0.069459
0.424019 -0.021808 -0.071134
0.425042 -0.021789 -0.073043
0.424747 -0.021789 -0.074717
0.425769 -0.021770 -0.076621
0.426789 -0.021751 -0.078523
0.426494 -0.021751 -0.080193
0.426200 -0.021751 -0.081863
0.427218 -0.021733 -0.083758
0.426924 -0.021733 -0.085427
0.427941 -0.021714 -0.087317
0.427647 -0.021714 -0.088984
0.427353 -0.021714 -0.090651
0.428369 -0.021695 -0.092535
0.428075 -0.021695 -0.094201
0.427782 -0.021695 -0.095867
0.428796 -0.021676 -0.097744
0.428503 -0.021676 -0.099409
0.428209 -0.021676 -0.101073
0.429222 -0.021658 -0.102944
0.428929 -0.021658 -0.104607
0.428636 -0.021658 -0.106270
0.429648 -0.021639 -0.108135
0.429355 -0.021639 -0.109796
0.430365 -0.021621 -0.111657
0.430073 -0.021621 -0.113317
0.429780 -0.021621 -0.114977
0.430789 -0.021602 -0.116831
0.430497 -0.021602 -0.118489
0.430204 -0.021602 -0.120148
0.431212 -0.021584 -0.121996
0.430920 -0.021584 -0.123653
0.430628 -0.021584 -0.125310
0.430336 -0.021584 -0.126967
0.430044 -0.021584 -0.128624
0.429751 -0.021584 -0.130281
0.430759 -0.021565 -0.132118
0.430467 -0.021565 -0.133774
0.430175 -0.021565 -0.135429
0.429883 -0.021565 -0.137085
0.429591 -0.021565 -0.138740
0.427998 -0.021584 -0.140223
0.427706 -0.021584 -0.141880
0.427414 -0.021584 -0.143537
0.427122 -0.021584 -0.145194
0.426830 -0.021584 -0.146851
0.426537 -0.021584 -0.148508
0.426245 -0.021584 -0.150165
0.425953 -0.021584 -0.151822
0.425661 -0.021584 -0.153479
0.425369 -0.021584 -0.155136
0.425077 -0.021584 -0.156793
0.424784 -0.021584 -0.158450
0.424492 -0.021584 -0.160107
0.424200 -0.021584 -0.161764
0.423908 -0.021584 -0.163421
0.423616 -0.021584 -0.165078
0.423323 -0.021584 -0.166735
0.423031 -0.021584 -0.168392
0.422739 -0.021584 -0.170049
0.422447 -0.021584 -0.171706
0.420846 -0.021602 -0.173219
0.420554 -0.021602 -0.174877
0.420262 -0.021602 -0.176536
0.418658 -0.021621 -0.178054
0.418365 -0.021621 -0.179714
0.418072 -0.021621 -0.181374
0.417780 -0.021621 -0.183034
0.416172 -0.021639 -0.184560
0.415879 -0.021639 -0.186221
0.414269 -0.021658 -0.187751
0.413975 -0.021658 -0.189414
0.413682 -0.021658 -0.191076
0.413389 -0.021658 -0.192739
0.411775 -0.021676 -0.194276
0.411481 -0.021676 -0.195940
0.411188 -0.021676 -0.197605
0.409570 -0.021695 -0.199147
0.409277 -0.021695 -0.200813
0.408983 -0.021695 -0.202479
0.407362 -0.021714 -0.204027
0.407068 -0.021714 -0.205694
0.406774 -0.021714 -0.207361
0.406480 -0.021714 -0.209029
0.404856 -0.021733 -0.210584
0.404561 -0.021733 -0.212253
0.402934 -0.021751 -0.213812
0.402639 -0.021751 -0.215482
0.402345 -0.021751 -0.217153
0.400713 -0.021770 -0.218718
0.400419 -0.021770 -0.220390
0.400124 -0.021770 -0.222061
0.399829 -0.021770 -0.223733
0.398194 -0.021789 -0.225305
0.396557 -0.021808 -0.226881
0.396261 -0.021808 -0.228555
0.394620 -0.021827 -0.230135
0.392977 -0.021846 -0.231717
0.391330 -0.021865 -0.233302
0.391034 -0.021865 -0.234982
0.388028 -0.021903 -0.236481
0.387731 -0.021903 -0.238163
0.386075 -0.021922 -0.239759
0.384416 -0.021941 -0.241357
0.382754 -0.021960 -0.242958
0.381090 -0.021979 -0.244561
0.379422 -0.021999 -0.246168
0.377751 -0.022018 -0.247777
0.376077 -0.022037 -0.249390
0.374401 -0.022056 -0.251005
0.372721 -0.022076 -0.252623
0.371038 -0.022095 -0.254245
0.369352 -0.022115 -0.255869
0.367663 -0.022134 -0.257496
0.365972 -0.022154 -0.259126
0.364277 -0.022173 -0.260758
0.361178 -0.022212 -0.262327
0.359474 -0.022232 -0.263967
0.357767 -0.022252 -0.265610
0.356057 -0.022271 -0.267256
0.354344 -0.022291 -0.268905
0.352628 -0.022311 -0.270558
0.350908 -0.022331 -0.272213
0.349185 -0.022350 -0.273871
0.346034 -0.022390 -0.275476
0.344302 -0.022410 -0.277142
0.342567 -0.022430 -0.278810
0.340829 -0.022450 -0.280482
0.339088 -0.022470 -0.282157
0.337343 -0.022490 -0.283835
0.335596 -0.022511 -0.285516
0.333845 -0.022531 -0.287200
0.330639 -0.022571 -0.288843
0.328879 -0.022592 -0.290535
0.327115 -0.022612 -0.292230
0.325348 -0.022632 -0.293928
0.323578 -0.022653 -0.295629
0.321805 -0.022673 -0.297334
0.320028 -0.022694 -0.299041
0.318248 -0.022714 -0.300752
0.316465 -0.022735 -0.302466
0.314678 -0.022755 -0.304183
0.312888 -0.022776 -0.305903
0.311095 -0.022797 -0.307627
0.309298 -0.022817 -0.309354
0.307499 -0.022838 -0.311083
0.305695 -0.022859 -0.312817
0.303888 -0.022880 -0.314553
0.302078 -0.022901 -0.316293
0.300265 -0.022921 -0.318036
0.298448 -0.022942 -0.319782
0.296628 -0.022963 -0.321531
0.294804 -0.022984 -0.323284
0.291459 -0.023027 -0.325028
0.289625 -0.023048 -0.326789
0.287788 -0.023069 -0.328553
0.285948 -0.023090 -0.330321
0.284104 -0.023111 -0.332092
0.282256 -0.023133 -0.333866
0.280405 -0.023154 -0.335644
0.278551 -0.023175 -0.337425
0.276693 -0.023197 -0.339209
0.274831 -0.023218 -0.340997
0.272966 -0.023240 -0.342788
0.271097 -0.023261 -0.344583
0.269225 -0.023283 -0.346380
0.267349 -0.023305 -0.348182
0.263904 -0.023348 -0.349999
0.262018 -0.023370 -0.351809
0.260128 -0.023391 -0.353622
0.258235 -0.023413 -0.355439
0.256338 -0.023435 -0.357259
0.254437 -0.023457 -0.359083
0.252533 -0.023479 -0.360911
0.250625 -0.023501 -0.362742
0.248713 -0.023523 -0.364576
0.246798 -0.023545 -0.366414
0.244879 -0.023567 -0.368255
0.242956 -0.023590 -0.370100
0.241030 -0.023612 -0.371949
0.239100 -0.023634 -0.373801
0.241996 -0.023590 -0.375545
0.243280 -0.023567 -0.377322
0.244562 -0.023545 -0.379095
0.247437 -0.023501 -0.380822
0.248711 -0.023479 -0.382587
0.249982 -0.023457 -0.384348
0.252835 -0.023413 -0.386059
0.255678 -0.023370 -0.387764
0.256937 -0.023348 -0.389511
0.258193 -0.023326 -0.391256
0.261015 -0.023283 -0.392944
0.262264 -0.023261 -0.394680
0.263511 -0.023240 -0.396413
0.266311 -0.023197 -0.398085
0.267551 -0.023175 -0.399810
0.270336 -0.023133 -0.401471
0.271568 -0.023111 -0.403188
0.272797 -0.023090 -0.404901
0.275562 -0.023048 -0.406546
0.276785 -0.023027 -0.408252
0.278005 -0.023005 -0.409954
0.280749 -0.022963 -0.411583
0.281962 -0.022942 -0.413278
0.284692 -0.022901 -0.414896
0.285898 -0.022880 -0.416583
0.287102 -0.022859 -0.418266
0.289811 -0.022817 -0.419869
0.291008 -0.022797 -0.421545
0.292203 -0.022776 -0.423218
0.294893 -0.022735 -0.424806
0.296080 -0.022714 -0.426471
0.297266 -0.022694 -0.428133
0.298449 -0.022673 -0.429791
0.299630 -0.022653 -0.431447
0.302292 -0.022612 -0.433011
0.303466 -0.022592 -0.434659
0.304638 -0.022571 -0.436304
0.307280 -0.022531 -0.437854
0.308446 -0.022511 -0.439491
0.309609 -0.022490 -0.441126
0.312233 -0.022450 -0.442661
0.313389 -0.022430 -0.444288
0.314544 -0.022410 -0.445912
0.318599 -0.022350 -0.447333
0.319745 -0.022331 -0.448948
0.320888 -0.022311 -0.450561
0.323470 -0.022271 -0.452066
0.326043 -0.022232 -0.453566
0.327175 -0.022212 -0.455167
0.328306 -0.022193 -0.456765
0.329434 -0.022173 -0.458361
0.329134 -0.022173 -0.460064
0.330260 -0.022154 -0.461655
0.331385 -0.022134 -0.463243
0.331085 -0.022134 -0.464943
0.332208 -0.022115 -0.466527
0.331908 -0.022115 -0.468226
0.333029 -0.022095 -0.469805
0.334148 -0.022076 -0.471382
0.333849 -0.022076 -0.473077
0.334966 -0.022056 -0.474649
0.336081 -0.022037 -0.476219
0.335783 -0.022037 -0.477911
0.335484 -0.022037 -0.479604
0.333771 -0.022056 -0.481427
0.333472 -0.022056 -0.483121
0.331756 -0.022076 -0.484948
0.331457 -0.022076 -0.486644
0.329737 -0.022095 -0.488476
0.092265 -0.029833 0.440066
0.120272 -0.029376 0.425819
0.371974 -0.025313 0.316474
0.383353 -0.025125 0.309706
0.387379 -0.025055 0.306077
0.389945 -0.025008 0.303075
0.393933 -0.024939 0.299482
0.395048 -0.024916 0.297104
0.396161 -0.024893 0.294730
0.395848 -0.024893 0.292955
0.396960 -0.024870 0.290587
0.396647 -0.024870 0.288813
0.397756 -0.024847 0.286452
0.397444 -0.024847 0.284680
0.397131 -0.024847 0.282907
0.398240 -0.024825 0.280554
0.399346 -0.024802 0.278205
0.399034 -0.024802 0.276436
0.400138 -0.024779 0.274093
0.399826 -0.024779 0.272325
0.400929 -0.024756 0.269988
0.400618 -0.024756 0.268223
0.401718 -0.024734 0.265892
0.401407 -0.024734 0.264127
0.402506 -0.024711 0.261803
0.403603 -0.024688 0.259482
0.403293 -0.024688 0.257721
0.404388 -0.024666 0.255407
0.405481 -0.024643 0.253096
0.405171 -0.024643 0.251339
0.406262 -0.024621 0.249034
0.405953 -0.024621 0.247279
0.405643 -0.024621 0.245523
0.405334 -0.024621 0.243767
0.406424 -0.024599 0.241472
0.406114 -0.024599 0.239718
0.405805 -0.024599 0.237963
0.406894 -0.024576 0.235676
0.406585 -0.024576 0.233923
0.406276 -0.024576 0.232171
0.407363 -0.024554 0.229890
0.407054 -0.024554 0.228139
0.406746 -0.024554 0.226388
0.407832 -0.024532 0.224116
0.407523 -0.024532 0.222367
0.407215 -0.024532 0.220617
0.406906 -0.024532 0.218868
0.406598 -0.024532 0.217119
0.407683 -0.024509 0.214857
0.407375 -0.024509 0.213109
0.407066 -0.024509 0.211361
0.406758 -0.024509 0.209613
0.406450 -0.024509 0.207866
0.407534 -0.024487 0.205615
0.407226 -0.024487 0.203868
0.406918 -0.024487 0.202122
0.406610 -0.024487 0.200376
0.406303 -0.024487 0.198630
0.405995 -0.024487 0.196884
0.407078 -0.024465 0.194645
0.406771 -0.024465 0.192901
0.406463 -0.024465 0.191156
0.406155 -0.024465 0.189412
0.405848 -0.024465 0.187667
0.406931 -0.024443 0.185439
0.406623 -0.024443 0.183696
0.404925 -0.024465 0.182434
0.406009 -0.024443 0.180210
0.405701 -0.024443 0.178467
0.405394 -0.024443 0.176724
0.405087 -0.024443 0.174982
0.404779 -0.024443 0.173239
0.405862 -0.024421 0.171026
0.405555 -0.024421 0.169285
0.405248 -0.024421 0.167543
0.404941 -0.024421 0.165802
0.404634 -0.024421 0.164061
0.402935 -0.024443 0.162782
0.402628 -0.024443 0.161039
0.402321 -0.024443 0.159296
0.402014 -0.024443 0.157553
0.401706 -0.024443 0.155810
0.401399 -0.024443 0.154067
0.401092 -0.024443 0.152324
0.400784 -0.024443 0.150582
0.400477 -0.024443 0.148839
0.400170 -0.024443 0.147096
0.399862 -0.024443 0.145353
0.399555 -0.024443 0.143610
0.399248 -0.024443 0.141867
0.398940 -0.024443 0.140124
0.400028 -0.024421 0.137942
0.401114 -0.024399 0.135764
0.403587 -0.024355 0.133155
0.403281 -0.024355 0.131419
0.404361 -0.024333 0.129253
0.405439 -0.024311 0.127090
0.406515 -0.024289 0.124932
0.407589 -0.024267 0.122777
0.407284 -0.024267 0.121047
0.408356 -0.024246 0.118899
0.409427 -0.024224 0.116754
0.410495 -0.024202 0.114613
0.410191 -0.024202 0.112887
0.411258 -0.024181 0.110752
0.412323 -0.024159 0.108620
0.413386 -0.024137 0.106492
0.415808 -0.024094 0.103966
0.415505 -0.024094 0.102249
0.416563 -0.024073 0.100133
0.416260 -0.024073 0.098417
0.415958 -0.024073 0.096701
0.417013 -0.024052 0.094592
0.416711 -0.024052 0.092877
0.416409 -0.024052 0.091163
0.417463 -0.024030 0.089061
0.417161 -0.024030 0.087348
0.418214 -0.024009 0.085251
0.417912 -0.024009 0.083540
0.417610 -0.024009 0.081829
0.417309 -0.024009 0.080118
0.417007 -0.024009 0.078407
0.418059 -0.023988 0.076320
0.417757 -0.023988 0.074610
0.417456 -0.023988 0.072901
0.417154 -0.023988 0.071191
0.416853 -0.023988 0.069481
0.416551 -0.023988 0.067772
0.416250 -0.023988 0.066062
0.415949 -0.023988 0.064352
0.415647 -0.023988 0.062643
0.415346 -0.023988 0.060933
0.416398 -0.023966 0.058864
0.416097 -0.023966 0.057156
0.415796 -0.023966 0.055448
0.415495 -0.023966 0.053740
0.415193 -0.023966 0.052032
0.414892 -0.023966 0.050323
0.414591 -0.023966 0.048615
0.414290 -0.023966 0.046907
0.413989 -0.023966 0.045199
0.413687 -0.023966 0.043491
0.413386 -0.023966 0.041783
0.413085 -0.023966 0.040075
0.412784 -0.023966 0.038367
0.412483 -0.023966 0.036659
0.412182 -0.023966 0.034951
0.411880 -0.023966 0.033242
0.411579 -0.023966 0.031534
0.411278 -0.023966 0.029826
0.412333 -0.023945 0.027787
0.412032 -0.023945 0.026081
0.411731 -0.023945 0.024374
0.411430 -0.023945 0.022668
0.411130 -0.023945 0.020961
0.410829 -0.023945 0.019254
0.410528 -0.023945 0.017548
0.408869 -0.023966 0.016161
0.408567 -0.023966 0.014453
0.408266 -0.023966 0.012745
0.407965 -0.023966 0.011037
0.407664 -0.023966 0.009329
0.407363 -0.023966 0.007621
0.405699 -0.023988 0.006224
0.405398 -0.023988 0.004515
0.405096 -0.023988 0.002805
0.404795 -0.023988 0.001095
0.404493 -0.023988 -0.000614
0.404192 -0.023988 -0.002324
0.403890 -0.023988 -0.004034
0.402222 -0.024009 -0.005442
0.401920 -0.024009 -0.007154
0.401619 -0.024009 -0.008865
0.401317 -0.024009 -0.010576
0.401015 -0.024009 -0.012287
0.400713 -0.024009 -0.013998
0.400412 -0.024009 -0.015710
0.401479 -0.023988 -0.017711
0.402544 -0.023966 -0.019709
0.404969 -0.023924 -0.021988
0.406028 -0.023903 -0.023977
0.407085 -0.023882 -0.025962
0.408140 -0.023861 -0.027943
0.409193 -0.023840 -0.029921
0.410244 -0.023819 -0.031895
0.409945 -0.023819 -0.033592
0.410995 -0.023798 -0.035561
0.412043 -0.023777 -0.037527
0.411744 -0.023777 -0.039221
0.412790 -0.023756 -0.041181
0.413835 -0.023735 -0.043138
0.414877 -0.023714 -0.045092
0.415918 -0.023694 -0.047042
0.416956 -0.023673 -0.048988
0.416659 -0.023673 -0.050675
0.417696 -0.023652 -0.052616
0.418732 -0.023632 -0.054554
0.419765 -0.023611 -0.056489
0.420797 -0.023590 -0.058420
0.421826 -0.023570 -0.060348
0.421530 -0.023570 -0.062027
0.422559 -0.023549 -0.063949
0.422263 -0.023549 -0.065627
0.423289 -0.023529 -0.067545
0.422994 -0.023529 -0.069221
0.422698 -0.023529 -0.070897
0.423724 -0.023508 -0.072809
0.423428 -0.023508 -0.074483
0.424452 -0.023488 -0.076390
0.424157 -0.023488 -0.078063
0.425179 -0.023468 -0.079965
0.424885 -0.023468 -0.081636
0.425905 -0.023447 -0.083533
0.425611 -0.023447 -0.085204
0.425316 -0.023447 -0.086874
0.426336 -0.023427 -0.088764
0.426041 -0.023427 -0.090433
0.427059 -0.023407 -0.092319
0.426765 -0.023407 -0.093986
0.427782 -0.023387 -0.095867
0.427488 -0.023387 -0.097533
0.427194 -0.023387 -0.099198
0.428209 -0.023366 -0.101073
0.427916 -0.023366 -0.102737
0.427622 -0.023366 -0.104402
0.427329 -0.023366 -0.106066
0.428343 -0.023346 -0.107933
0.428049 -0.023346 -0.109596
0.429062 -0.023326 -0.111458
0.428769 -0.023326 -0.113119
0.429780 -0.023306 -0.114977
0.429487 -0.023306 -0.116637
0.429195 -0.023306 -0.118296
0.430204 -0.023286 -0.120148
0.429912 -0.023286 -0.121806
0.429619 -0.023286 -0.123465
0.429327 -0.023286 -0.125123
0.429035 -0.023286 -0.126782
0.428742 -0.023286 -0.128440
0.428450 -0.023286 -0.130099
0.429459 -0.023266 -0.131938
0.429167 -0.023266 -0.133595
0.428875 -0.023266 -0.135252
0.428583 -0.023266 -0.136909
0.426988 -0.023286 -0.138391
0.426695 -0.023286 -0.140049
0.426403 -0.023286 -0.141708
0.426110 -0.023286 -0.143366
0.425818 -0.023286 -0.145025
0.425525 -0.023286 -0.146683
0.425233 -0.023286 -0.148342
0.424940 -0.023286 -0.150000
0.424648 -0.023286 -0.151659
0.424356 -0.023286 -0.153317
0.424063 -0.023286 -0.154976
0.423771 -0.023286 -0.156634
0.423478 -0.023286 -0.158293
0.423186 -0.023286 -0.159951
0.422893 -0.023286 -0.161610
0.422601 -0.023286 -0.163268
0.422309 -0.023286 -0.164927
0.422016 -0.023286 -0.166585
0.421724 -0.023286 -0.168244
0.421431 -0.023286 -0.169902
0.421139 -0.023286 -0.171561
0.419536 -0.023306 -0.173075
0.419243 -0.023306 -0.174734
0.418950 -0.023306 -0.176394
0.418658 -0.023306 -0.178054
0.417051 -0.023326 -0.179575
0.416758 -0.023326 -0.181237
0.416465 -0.023326 -0.182898
0.414855 -0.023346 -0.184425
0.414562 -0.023346 -0.186088
0.414269 -0.023346 -0.187751
0.412655 -0.023366 -0.189283
0.412362 -0.023366 -0.190947
0.412068 -0.023366 -0.192612
0.410452 -0.023387 -0.194150
0.410158 -0.023387 -0.195815
0.409864 -0.023387 -0.197481
0.408244 -0.023407 -0.199025
0.407950 -0.023407 -0.200692
0.407656 -0.023407 -0.202360
0.407362 -0.023407 -0.204027
0.405738 -0.023427 -0.205578
0.405444 -0.023427 -0.207246
0.405150 -0.023427 -0.208915
0.403523 -0.023447 -0.210472
0.403228 -0.023447 -0.212142
0.402934 -0.023447 -0.213812
0.401303 -0.023468 -0.215374
0.401008 -0.023468 -0.217046
0.399374 -0.023488 -0.218613
0.399079 -0.023488 -0.220286
0.398784 -0.023488 -0.221959
0.398489 -0.023488 -0.223632
0.396852 -0.023508 -0.225206
0.395211 -0.023529 -0.226783
0.394916 -0.023529 -0.228459
0.393272 -0.023549 -0.230040
0.391626 -0.023570 -0.231623
0.391330 -0.023570 -0.233302
0.389680 -0.023590 -0.234890
0.388028 -0.023611 -0.236481
0.386372 -0.023632 -0.238075
0.384713 -0.023652 -0.239671
0.383052 -0.023673 -0.241271
0.381387 -0.023694 -0.242873
0.379720 -0.023714 -0.244478
0.378049 -0.023735 -0.246086
0.376376 -0.023756 -0.247697
0.374699 -0.023777 -0.249311
0.373020 -0.023798 -0.250928
0.371337 -0.023819 -0.252547
0.369652 -0.023840 -0.254170
0.367963 -0.023861 -0.255795
0.366272 -0.023882 -0.257424
0.364577 -0.023903 -0.259055
0.361479 -0.023945 -0.260620
0.359776 -0.023966 -0.262259
0.358069 -0.023988 -0.263900
0.356359 -0.024009 -0.265545
0.354646 -0.024030 -0.267193
0.352930 -0.024052 -0.268843
0.351211 -0.024073 -0.270497
0.349488 -0.024094 -0.272153
0.346338 -0.024137 -0.273755
0.344606 -0.024159 -0.275419
0.342871 -0.024181 -0.277087
0.341133 -0.024202 -0.278757
0.339392 -0.024224 -0.280430
0.337648 -0.024246 -0.282107
0.335901 -0.024267 -0.283786
0.334150 -0.024289 -0.285469
0.330945 -0.024333 -0.287108
0.329185 -0.024355 -0.288799
0.327421 -0.024377 -0.290492
0.325655 -0.024399 -0.292188
0.323885 -0.024421 -0.293888
0.322112 -0.024443 -0.295591
0.320336 -0.024465 -0.297297
0.318556 -0.024487 -0.299006
0.316773 -0.024509 -0.300718
0.314987 -0.024532 -0.302434
0.313197 -0.024554 -0.304152
0.311404 -0.024576 -0.305874
0.309608 -0.024599 -0.307599
0.307808 -0.024621 -0.309328
0.306005 -0.024643 -0.311059
0.304199 -0.024666 -0.312794
0.300887 -0.024711 -0.314511
0.300576 -0.024711 -0.316273
0.298759 -0.024734 -0.318018
0.296939 -0.024756 -0.319765
0.295116 -0.024779 -0.321516
0.293289 -0.024802 -0.323271
0.291459 -0.024825 -0.325028
0.289625 -0.024847 -0.326789
0.287788 -0.024870 -0.328553
0.285948 -0.024893 -0.330321
0.284104 -0.024916 -0.332092
0.282256 -0.024939 -0.333866
0.280405 -0.024962 -0.335644
0.278551 -0.024985 -0.337425
0.276693 -0.025008 -0.339209
0.274831 -0.025032 -0.340997
0.271413 -0.025078 -0.342793
0.269541 -0.025101 -0.344590
0.267666 -0.025125 -0.346389
0.265787 -0.025148 -0.348192
0.263904 -0.025172 -0.349999
0.262018 -0.025195 -0.351809
0.260128 -0.025219 -0.353622
0.258235 -0.025242 -0.355439
0.256338 -0.025266 -0.357259
0.252851 -0.025313 -0.359104
0.250944 -0.025337 -0.360933
0.249032 -0.025361 -0.362766
0.247117 -0.025385 -0.364602
0.245199 -0.025409 -0.366442
0.243276 -0.025433 -0.368285
0.241350 -0.025457 -0.370132
0.239420 -0.025481 -0.371982
0.237487 -0.025505 -0.373836
0.240389 -0.025457 -0.375582
0.241676 -0.025433 -0.377360
0.244562 -0.025385 -0.379095
0.245841 -0.025361 -0.380864
0.247118 -0.025337 -0.382631
0.249982 -0.025290 -0.384348
0.251251 -0.025266 -0.386106
0.252518 -0.025242 -0.387860
0.255361 -0.025195 -0.389561
0.258193 -0.025148 -0.391256
0.259447 -0.025125 -0.392997
0.260699 -0.025101 -0.394735
0.263511 -0.025055 -0.396413
0.264755 -0.025032 -0.398143
0.265997 -0.025008 -0.399869
0.267236 -0.024985 -0.401592
0.270022 -0.024939 -0.403250
0.271254 -0.024916 -0.404965
0.272484 -0.024893 -0.406677
0.275250 -0.024847 -0.408318
0.276472 -0.024825 -0.410022
0.277693 -0.024802 -0.411723
0.280438 -0.024756 -0.413349
0.281651 -0.024734 -0.415042
0.282862 -0.024711 -0.416731
0.285588 -0.024666 -0.418342
0.286792 -0.024643 -0.420024
0.287993 -0.024621 -0.421702
0.290699 -0.024576 -0.423298
0.291894 -0.024554 -0.424969
0.293086 -0.024532 -0.426637
0.294277 -0.024509 -0.428301
0.296958 -0.024465 -0.429877
0.298142 -0.024443 -0.431534
0.299323 -0.024421 -0.433188
0.301985 -0.024377 -0.434749
0.303160 -0.024355 -0.436396
0.304332 -0.024333 -0.438039
0.306975 -0.024289 -0.439585
0.308141 -0.024267 -0.441221
0.309304 -0.024246 -0.442854
0.311929 -0.024202 -0.444386
0.313085 -0.024181 -0.446012
0.314240 -0.024159 -0.447635
0.318297 -0.024094 -0.449050
0.319442 -0.024073 -0.450664
0.320586 -0.024052 -0.452275
0.323168 -0.024009 -0.453777
0.325742 -0.023966 -0.455274
0.326874 -0.023945 -0.456873
0.326574 -0.023945 -0.458580
0.327704 -0.023924 -0.460175
0.328833 -0.023903 -0.461767
0.329960 -0.023882 -0.463357
0.329660 -0.023882 -0.465059
0.330785 -0.023861 -0.466644
0.330485 -0.023861 -0.468344
0.331608 -0.023840 -0.469925
0.332730 -0.023819 -0.471502
0.332430 -0.023819 -0.473200
0.333550 -0.023798 -0.474773
0.333251 -0.023798 -0.476469
0.334369 -0.023777 -0.478038
0.334070 -0.023777 -0.479732
0.332354 -0.023798 -0.481556
0.330635 -0.023819 -0.483384
0.330335 -0.023819 -0.485081
0.328613 -0.023840 -0.486913
0.328313 -0.023840 -0.488612
0.102503 -0.031825 0.435685
0.122265 -0.031476 0.424968
0.371974 -0.027148 0.316474
0.383353 -0.026945 0.309706
0.385934 -0.026895 0.306688
0.389945 -0.026820 0.303075
0.392501 -0.026770 0.300084
0.393619 -0.026746 0.297703
0.394735 -0.026721 0.295327
0.394421 -0.026721 0.293549
0.395535 -0.026696 0.291179
0.396647 -0.026672 0.288813
0.396334 -0.026672 0.287039
0.397444 -0.026647 0.284680
0.397131 -0.026647 0.282907
0.396819 -0.026647 0.281135
0.397927 -0.026623 0.278783
0.397615 -0.026623 0.277012
0.398722 -0.026598 0.274667
0.398410 -0.026598 0.272898
0.399515 -0.026574 0.270558
0.400618 -0.026549 0.268223
0.400306 -0.026549 0.266457
0.401407 -0.026525 0.264127
0.401096 -0.026525 0.262363
0.402195 -0.026501 0.260040
0.403293 -0.026476 0.257721
0.404388 -0.026452 0.255407
0.404078 -0.026452 0.253647
0.403767 -0.026452 0.251888
0.403457 -0.026452 0.250129
0.404551 -0.026428 0.247824
0.404241 -0.026428 0.246066
0.403931 -0.026428 0.244309
0.405024 -0.026404 0.242011
0.404714 -0.026404 0.240255
0.404405 -0.026404 0.238499
0.405496 -0.026380 0.236209
0.405186 -0.026380 0.234455
0.404877 -0.026380 0.232701
0.405967 -0.026356 0.230418
0.405658 -0.026356 0.228665
0.405349 -0.026356 0.226913
0.405040 -0.026356 0.225160
0.404731 -0.026356 0.223408
0.404422 -0.026356 0.221655
0.405511 -0.026332 0.219385
0.405202 -0.026332 0.217634
0.404893 -0.026332 0.215883
0.404584 -0.026332 0.214132
0.405672 -0.026308 0.211871
0.405364 -0.026308 0.210121
0.405055 -0.026308 0.208372
0.404747 -0.026308 0.206623
0.404439 -0.026308 0.204873
0.404130 -0.026308 0.203124
0.405217 -0.026284 0.200875
0.404909 -0.026284 0.199127
0.404601 -0.026284 0.197379
0.404293 -0.026284 0.195632
0.403985 -0.026284 0.193884
0.403677 -0.026284 0.192136
0.403368 -0.026284 0.190389
0.403060 -0.026284 0.188641
0.402752 -0.026284 0.186893
0.403840 -0.026260 0.184661
0.403532 -0.026260 0.182915
0.403224 -0.026260 0.181169
0.402916 -0.026260 0.179423
0.404002 -0.026236 0.177200
0.403695 -0.026236 0.175456
0.403387 -0.026236 0.173711
0.401684 -0.026260 0.172439
0.401376 -0.026260 0.170693
0.401069 -0.026260 0.168947
0.400761 -0.026260 0.167201
0.400453 -0.026260 0.165454
0.400145 -0.026260 0.163708
0.399837 -0.026260 0.161962
0.399529 -0.026260 0.160216
0.399221 -0.026260 0.158470
0.398913 -0.026260 0.156724
0.398605 -0.026260 0.154978
0.398298 -0.026260 0.153232
0.397990 -0.026260 0.151486
0.397682 -0.026260 0.149740
0.397374 -0.026260 0.147994
0.397066 -0.026260 0.146247
0.395356 -0.026284 0.144948
0.395048 -0.026284 0.143200
0.394740 -0.026284 0.141453
0.394431 -0.026284 0.139705
0.398326 -0.026213 0.136639
0.399414 -0.026189 0.134459
0.399107 -0.026189 0.132718
0.400194 -0.026165 0.130545
0.401279 -0.026142 0.128375
0.402362 -0.026118 0.126210
0.403443 -0.026094 0.124048
0.404522 -0.026071 0.121891
0.404216 -0.026071 0.120157
0.405293 -0.026048 0.118005
0.406369 -0.026024 0.115857
0.407442 -0.026001 0.113713
0.407137 -0.026001 0.111985
0.408209 -0.025977 0.109846
0.409278 -0.025954 0.107711
0.410346 -0.025931 0.105581
0.410042 -0.025931 0.103857
0.411108 -0.025908 0.101732
0.410804 -0.025908 0.100009
0.411869 -0.025885 0.097890
0.411565 -0.025885 0.096169
0.411262 -0.025885 0.094448
0.413688 -0.025838 0.091944
0.413386 -0.025838 0.090227
0.414445 -0.025815 0.088121
0.414142 -0.025815 0.086406
0.415200 -0.025792 0.084306
0.414897 -0.025792 0.082592
0.414595 -0.025792 0.080877
0.414293 -0.025792 0.079163
0.413990 -0.025792 0.077449
0.415047 -0.025769 0.075359
0.414745 -0.025769 0.073646
0.414443 -0.025769 0.071933
0.414141 -0.025769 0.070221
0.415196 -0.025746 0.068139
0.413537 -0.025769 0.066795
0.414593 -0.025746 0.064717
0.414291 -0.025746 0.063006
0.413989 -0.025746 0.061295
0.413688 -0.025746 0.059583
0.413386 -0.025746 0.057872
0.413084 -0.025746 0.056161
0.412783 -0.025746 0.054450
0.412481 -0.025746 0.052739
0.412179 -0.025746 0.051027
0.411877 -0.025746 0.049316
0.411576 -0.025746 0.047605
0.411274 -0.025746 0.045894
0.410972 -0.025746 0.044183
0.412030 -0.025724 0.042127
0.411728 -0.025724 0.040417
0.410067 -0.025746 0.039049
0.411125 -0.025724 0.036998
0.410824 -0.025724 0.035288
0.410522 -0.025724 0.033579
0.410221 -0.025724 0.031869
0.409919 -0.025724 0.030159
0.409618 -0.025724 0.028450
0.409316 -0.025724 0.026740
0.409015 -0.025724 0.025030
0.408714 -0.025724 0.023321
0.408412 -0.025724 0.021611
0.408111 -0.025724 0.019901
0.407809 -0.025724 0.018192
0.407508 -0.025724 0.016482
0.407206 -0.025724 0.014772
0.406905 -0.025724 0.013063
0.406603 -0.025724 0.011353
0.406302 -0.025724 0.009643
0.404636 -0.025746 0.008247
0.404334 -0.025746 0.006536
0.404032 -0.025746 0.004825
0.403731 -0.025746 0.003114
0.403429 -0.025746 0.001403
0.403127 -0.025746 -0.000309
0.401457 -0.025769 -0.001715
0.401155 -0.025769 -0.003428
0.400853 -0.025769 -0.005141
0.400551 -0.025769 -0.006853
0.400249 -0.025769 -0.008566
0.399947 -0.025769 -0.010279
0.399645 -0.025769 -0.011992
0.397970 -0.025792 -0.013410
0.397667 -0.025792 -0.015124
0.398739 -0.025769 -0.017130
0.401177 -0.025724 -0.019421
0.402243 -0.025701 -0.021417
0.403306 -0.025678 -0.023409
0.404367 -0.025655 -0.025398
0.405427 -0.025633 -0.027384
0.406484 -0.025610 -0.029365
0.407540 -0.025587 -0.031344
0.408594 -0.025565 -0.033318
0.408294 -0.025565 -0.035017
0.409347 -0.025542 -0.036987
0.410397 -0.025520 -0.038953
0.411445 -0.025497 -0.040915
0.412492 -0.025475 -0.042874
0.412193 -0.025475 -0.044567
0.413238 -0.025452 -0.046521
0.414281 -0.025430 -0.048471
0.415322 -0.025408 -0.050418
0.416362 -0.025386 -0.052362
0.417399 -0.025363 -0.054302
0.417102 -0.025363 -0.055987
0.418138 -0.025341 -0.057922
0.419172 -0.025319 -0.059853
0.420204 -0.025297 -0.061781
0.421234 -0.025275 -0.063706
0.420938 -0.025275 -0.065385
0.421967 -0.025253 -0.067305
0.421671 -0.025253 -0.068982
0.422698 -0.025231 -0.070897
0.422403 -0.025231 -0.072573
0.422107 -0.025231 -0.074250
0.423133 -0.025209 -0.076158
0.422838 -0.025209 -0.077833
0.423862 -0.025187 -0.079736
0.423567 -0.025187 -0.081410
0.424590 -0.025165 -0.083308
0.424295 -0.025165 -0.084980
0.424000 -0.025165 -0.086652
0.425022 -0.025143 -0.088544
0.424727 -0.025143 -0.090214
0.425747 -0.025122 -0.092102
0.425453 -0.025122 -0.093771
0.425159 -0.025122 -0.095439
0.426177 -0.025100 -0.097320
0.425883 -0.025100 -0.098988
0.426900 -0.025078 -0.100864
0.426607 -0.025078 -0.102530
0.426313 -0.025078 -0.104196
0.426019 -0.025078 -0.105862
0.427035 -0.025056 -0.107730
0.426742 -0.025056 -0.109395
0.427756 -0.025035 -0.111259
0.427463 -0.025035 -0.112921
0.427170 -0.025035 -0.114584
0.428183 -0.025013 -0.116442
0.427890 -0.025013 -0.118103
0.428902 -0.024992 -0.119956
0.428609 -0.024992 -0.121616
0.428317 -0.024992 -0.123276
0.428024 -0.024992 -0.124936
0.427731 -0.024992 -0.126596
0.427438 -0.024992 -0.128256
0.427146 -0.024992 -0.129916
0.428157 -0.024970 -0.131757
0.427865 -0.024970 -0.133415
0.427572 -0.024970 -0.135074
0.427280 -0.024970 -0.136732
0.425682 -0.024992 -0.138216
0.425390 -0.024992 -0.139876
