ply
format ascii 1.0
element vertex 1618
property float x
property float y
property float z
end_header
-0.216319 -0.155528 -0.387425
-0.217869 -0.155528 -0.386595
-0.219419 -0.155528 -0.385766
-0.220970 -0.155528 -0.384936
-0.222247 -0.154202 -0.383567
-0.223799 -0.154202 -0.382737
-0.225350 -0.154202 -0.381906
-0.226633 -0.152873 -0.380534
-0.228186 -0.152873 -0.379703
-0.229739 -0.152873 -0.378871
-0.231293 -0.152873 -0.378040
-0.232582 -0.151543 -0.376663
-0.234399 -0.152873 -0.376377
-0.235952 -0.152873 -0.375546
-0.237246 -0.151543 -0.374166
-0.239058 -0.152873 -0.373884
-0.240611 -0.152873 -0.373052
-0.242164 -0.152873 -0.372221
-0.243718 -0.152873 -0.371390
-0.245271 -0.152873 -0.370558
-0.246824 -0.152873 -0.369727
-0.248128 -0.151543 -0.368342
-0.249682 -0.151543 -0.367510
-0.250990 -0.150209 -0.366122
-0.252546 -0.150209 -0.365289
-0.254102 -0.150209 -0.364456
-0.255414 -0.148873 -0.363064
-0.256972 -0.148873 -0.362230
-0.258529 -0.148873 -0.361396
-0.259847 -0.147535 -0.360000
-0.261406 -0.147535 -0.359166
-0.262728 -0.146194 -0.357766
-0.264289 -0.146194 -0.356930
-0.265615 -0.144851 -0.355527
-0.266943 -0.143505 -0.354121
-0.268274 -0.142157 -0.352713
-0.269838 -0.142157 -0.351875
-0.271173 -0.140806 -0.350463
-0.272510 -0.139453 -0.349049
-0.274078 -0.139453 -0.348210
-0.275419 -0.138097 -0.346792
-0.276763 -0.136739 -0.345371
-0.278333 -0.136739 -0.344531
-0.279681 -0.135378 -0.343107
-0.281031 -0.134015 -0.341680
-0.282384 -0.132649 -0.340251
-0.283739 -0.131280 -0.338819
-0.285315 -0.131280 -0.337975
-0.286674 -0.129909 -0.336540
-0.288036 -0.128536 -0.335101
-0.289401 -0.127160 -0.333661
-0.290981 -0.127160 -0.332814
-0.292350 -0.125781 -0.331370
-0.293721 -0.124399 -0.329923
-0.295094 -0.123016 -0.328473
-0.296679 -0.123016 -0.327625
-0.298057 -0.121629 -0.326171
-0.299437 -0.120240 -0.324715
-0.301025 -0.120240 -0.323865
-0.302410 -0.118848 -0.322406
-0.303796 -0.117454 -0.320943
-0.305388 -0.117454 -0.320092
-0.306779 -0.116057 -0.318626
-0.308172 -0.114657 -0.317157
-0.309569 -0.113255 -0.315686
-0.311164 -0.113255 -0.314832
-0.312565 -0.111850 -0.313357
-0.313968 -0.110442 -0.311879
-0.315567 -0.110442 -0.311023
-0.316974 -0.109032 -0.309541
-0.318384 -0.107619 -0.308057
-0.319986 -0.107619 -0.307200
-0.321400 -0.106203 -0.305712
-0.322817 -0.104785 -0.304221
-0.324421 -0.104785 -0.303362
-0.325842 -0.103363 -0.301868
-0.327266 -0.101940 -0.300371
-0.328874 -0.101940 -0.299510
-0.330302 -0.100513 -0.298009
-0.331733 -0.099084 -0.296505
-0.333166 -0.097652 -0.294998
-0.334779 -0.097652 -0.294135
-0.336217 -0.096217 -0.292625
-0.337657 -0.094780 -0.291112
-0.339273 -0.094780 -0.290247
-0.340718 -0.093340 -0.288730
-0.342165 -0.091897 -0.287210
-0.343784 -0.091897 -0.286344
-0.345236 -0.090451 -0.284820
-0.346691 -0.089002 -0.283293
-0.348312 -0.089002 -0.282425
-0.349772 -0.087551 -0.280895
-0.351233 -0.086097 -0.279362
-0.352698 -0.084640 -0.277825
-0.354325 -0.084640 -0.276955
-0.355794 -0.083180 -0.275415
-0.357266 -0.081718 -0.273872
-0.358895 -0.081718 -0.272999
-0.360372 -0.080253 -0.271452
-0.361851 -0.078784 -0.269903
-0.363182 -0.075839 -0.267669
-0.364669 -0.074363 -0.266111
-0.366158 -0.072883 -0.264550
-0.367650 -0.071400 -0.262986
-0.368999 -0.068427 -0.260729
-0.370498 -0.066935 -0.259156
-0.372000 -0.065441 -0.257581
-0.373363 -0.062444 -0.255304
-0.374731 -0.059436 -0.253018
-0.376104 -0.056415 -0.250723
-0.377483 -0.053383 -0.248419
-0.378867 -0.050338 -0.246106
-0.379982 -0.044213 -0.242346
-0.380969 -0.036488 -0.237829
-0.381691 -0.025543 -0.231791
-0.383108 -0.022388 -0.229403
-0.384532 -0.019220 -0.227005
-0.385961 -0.016039 -0.224598
-0.387396 -0.012845 -0.222181
-0.388837 -0.009639 -0.219754
-0.390283 -0.006419 -0.217317
-0.391736 -0.003186 -0.214870
-0.393066 0.001687 -0.211641
-0.394532 0.004953 -0.209171
-0.396129 0.006591 -0.207470
-0.397481 0.011525 -0.204198
-0.398841 0.016489 -0.200907
-0.400210 0.021484 -0.197595
-0.401587 0.026510 -0.194263
-0.402852 0.033261 -0.190100
-0.404367 0.036657 -0.187535
-0.405652 0.043492 -0.183318
-0.406829 0.052116 -0.178234
-0.407902 0.062586 -0.172254
0.312190 0.192062 -0.488132
0.307434 0.185956 -0.488749
0.303643 0.181909 -0.488816
0.298944 0.175872 -0.489427
0.294276 0.169876 -0.490033
0.289639 0.163921 -0.490636
0.285935 0.159973 -0.490698
0.281352 0.154084 -0.491295
0.276800 0.148234 -0.491888
0.273158 0.144356 -0.491947
0.268658 0.138571 -0.492534
0.264188 0.132824 -0.493118
0.260605 0.129014 -0.493173
0.256187 0.123331 -0.493752
0.251797 0.117684 -0.494326
0.247436 0.112075 -0.494897
0.243103 0.106502 -0.495464
0.240444 0.104653 -0.494999
0.236971 0.100966 -0.495049
0.233513 0.097295 -0.495100
0.230070 0.093639 -0.495150
0.226642 0.090000 -0.495200
0.223228 0.086376 -0.495250
0.219829 0.082768 -0.495299
0.216445 0.079175 -0.495348
0.213075 0.075597 -0.495397
0.209720 0.072035 -0.495446
0.206378 0.068488 -0.495495
0.203818 0.066720 -0.495040
0.200500 0.063195 -0.495089
0.197195 0.059685 -0.495138
0.193905 0.056190 -0.495187
0.190629 0.052710 -0.495236
0.187366 0.049245 -0.495285
0.184855 0.047517 -0.494835
0.181615 0.044073 -0.494884
0.178388 0.040644 -0.494933
0.175175 0.037229 -0.494982
0.171975 0.033828 -0.495031
0.168789 0.030441 -0.495079
0.166326 0.028753 -0.494635
0.163161 0.025387 -0.494684
0.160009 0.022035 -0.494733
0.156870 0.018697 -0.494782
0.154437 0.017033 -0.494341
0.151319 0.013716 -0.494390
0.148214 0.010412 -0.494439
0.145802 0.008765 -0.494001
0.142718 0.005482 -0.494051
0.139646 0.002211 -0.494101
0.136587 -0.001045 -0.494150
0.133541 -0.004289 -0.494199
0.131166 -0.005906 -0.493765
0.128139 -0.009130 -0.493815
0.125125 -0.012341 -0.493865
0.122123 -0.015539 -0.493914
0.119133 -0.018724 -0.493963
0.116156 -0.021896 -0.494012
0.113824 -0.023477 -0.493584
0.110866 -0.026630 -0.493633
0.107920 -0.029771 -0.493683
0.104985 -0.032899 -0.493732
0.102062 -0.036015 -0.493781
0.099766 -0.037568 -0.493356
0.096251 -0.042209 -0.493878
0.093362 -0.045287 -0.493927
0.090486 -0.048354 -0.493975
0.087620 -0.051408 -0.494023
0.085361 -0.052931 -0.493602
0.082514 -0.055967 -0.493651
0.079678 -0.058991 -0.493699
0.076853 -0.062004 -0.493747
0.074620 -0.063506 -0.493330
0.071813 -0.066501 -0.493379
0.069591 -0.067994 -0.492963
0.066802 -0.070971 -0.493012
0.063459 -0.075416 -0.493524
0.061258 -0.076892 -0.493110
0.058501 -0.079835 -0.493159
0.055756 -0.082766 -0.493208
0.053021 -0.085686 -0.493256
0.050296 -0.088595 -0.493304
0.048127 -0.090046 -0.492894
0.045420 -0.092938 -0.492943
0.042723 -0.095819 -0.492992
0.040036 -0.098689 -0.493040
0.037360 -0.101549 -0.493089
0.035222 -0.102974 -0.492682
0.032562 -0.105817 -0.492731
0.029913 -0.108649 -0.492780
0.027273 -0.111470 -0.492828
0.024644 -0.114281 -0.492877
0.022025 -0.117081 -0.492925
0.019923 -0.118477 -0.492523
0.017320 -0.121261 -0.492571
0.014726 -0.124035 -0.492620
0.012143 -0.126799 -0.492668
0.009569 -0.129552 -0.492716
0.007497 -0.130924 -0.492318
0.005428 -0.132294 -0.491920
0.002876 -0.135027 -0.491969
0.000334 -0.137749 -0.492019
-0.002199 -0.140461 -0.492068
-0.004245 -0.141814 -0.491673
-0.006762 -0.144511 -0.491722
-0.008798 -0.145856 -0.491329
-0.011300 -0.148538 -0.491379
-0.013793 -0.151210 -0.491428
-0.015813 -0.152543 -0.491037
-0.017830 -0.153872 -0.490647
-0.019383 -0.153872 -0.489816
-0.021394 -0.155200 -0.489426
-0.022946 -0.155200 -0.488596
-0.024952 -0.156525 -0.488208
-0.026502 -0.156525 -0.487379
-0.028053 -0.156525 -0.486549
-0.029603 -0.156525 -0.485719
-0.031153 -0.156525 -0.484889
-0.032703 -0.156525 -0.484060
-0.034254 -0.156525 -0.483230
-0.035804 -0.156525 -0.482400
-0.037354 -0.156525 -0.481570
-0.039345 -0.157848 -0.481190
-0.040894 -0.157848 -0.480361
-0.042443 -0.157848 -0.479532
-0.043992 -0.157848 -0.478703
-0.045541 -0.157848 -0.477874
-0.047090 -0.157848 -0.477045
-0.048638 -0.157848 -0.476216
-0.050187 -0.157848 -0.475387
-0.051736 -0.157848 -0.474558
-0.053285 -0.157848 -0.473729
-0.055260 -0.159168 -0.473355
-0.056383 -0.157848 -0.472071
-0.057931 -0.157848 -0.471242
-0.059480 -0.157848 -0.470413
-0.061029 -0.157848 -0.469584
-0.062997 -0.159168 -0.469214
-0.064544 -0.159168 -0.468386
-0.066092 -0.159168 -0.467558
-0.067639 -0.159168 -0.466730
-0.069186 -0.159168 -0.465901
-0.070734 -0.159168 -0.465073
-0.072281 -0.159168 -0.464245
-0.073829 -0.159168 -0.463417
-0.075376 -0.159168 -0.462588
-0.076924 -0.159168 -0.461760
-0.078471 -0.159168 -0.460932
-0.080018 -0.159168 -0.460104
-0.081566 -0.159168 -0.459276
-0.083113 -0.159168 -0.458447
-0.084661 -0.159168 -0.457619
-0.086208 -0.159168 -0.456791
-0.088151 -0.160486 -0.456433
-0.089697 -0.160486 -0.455606
-0.091243 -0.160486 -0.454778
-0.092789 -0.160486 -0.453951
-0.094335 -0.160486 -0.453124
-0.095881 -0.160486 -0.452296
-0.097427 -0.160486 -0.451469
-0.098973 -0.160486 -0.450641
-0.100519 -0.160486 -0.449814
-0.102065 -0.160486 -0.448986
-0.103611 -0.160486 -0.448159
-0.105157 -0.160486 -0.447331
-0.106703 -0.160486 -0.446504
-0.108249 -0.160486 -0.445676
-0.109795 -0.160486 -0.444849
-0.111341 -0.160486 -0.444021
-0.113259 -0.161801 -0.443676
-0.114804 -0.161801 -0.442849
-0.116348 -0.161801 -0.442023
-0.117893 -0.161801 -0.441196
-0.119437 -0.161801 -0.440369
-0.120982 -0.161801 -0.439542
-0.122526 -0.161801 -0.438716
-0.124071 -0.161801 -0.437889
-0.125616 -0.161801 -0.437062
-0.127160 -0.161801 -0.436236
-0.128705 -0.161801 -0.435409
-0.130249 -0.161801 -0.434582
-0.131794 -0.161801 -0.433755
-0.133339 -0.161801 -0.432929
-0.134883 -0.161801 -0.432102
-0.136077 -0.160486 -0.430782
-0.137972 -0.161801 -0.430449
-0.139517 -0.161801 -0.429622
-0.141062 -0.161801 -0.428795
-0.142606 -0.161801 -0.427968
-0.144151 -0.161801 -0.427142
-0.145695 -0.161801 -0.426315
-0.147240 -0.161801 -0.425488
-0.148785 -0.161801 -0.424662
-0.150329 -0.161801 -0.423835
-0.151874 -0.161801 -0.423008
-0.153418 -0.161801 -0.422181
-0.154963 -0.161801 -0.421355
-0.156507 -0.161801 -0.420528
-0.158052 -0.161801 -0.419701
-0.159597 -0.161801 -0.418875
-0.160813 -0.160486 -0.417542
-0.162359 -0.160486 -0.416715
-0.163905 -0.160486 -0.415887
-0.165451 -0.160486 -0.415060
-0.166997 -0.160486 -0.414232
-0.168543 -0.160486 -0.413405
-0.170089 -0.160486 -0.412577
-0.171635 -0.160486 -0.411750
-0.173181 -0.160486 -0.410922
-0.174727 -0.160486 -0.410095
-0.176273 -0.160486 -0.409267
-0.177819 -0.160486 -0.408440
-0.179365 -0.160486 -0.407612
-0.180911 -0.160486 -0.406785
-0.182457 -0.160486 -0.405957
-0.184003 -0.160486 -0.405130
-0.185243 -0.159168 -0.403784
-0.187095 -0.160486 -0.403475
-0.188338 -0.159168 -0.402127
-0.189886 -0.159168 -0.401299
-0.191433 -0.159168 -0.400471
-0.192981 -0.159168 -0.399643
-0.194528 -0.159168 -0.398814
-0.196075 -0.159168 -0.397986
-0.197623 -0.159168 -0.397158
-0.199170 -0.159168 -0.396330
-0.200425 -0.157848 -0.394974
-0.201974 -0.157848 -0.394145
-0.203523 -0.157848 -0.393316
-0.205072 -0.157848 -0.392487
-0.206621 -0.157848 -0.391658
-0.208170 -0.157848 -0.390829
-0.209719 -0.157848 -0.390000
-0.211267 -0.157848 -0.389171
-0.212535 -0.156525 -0.387808
-0.214085 -0.156525 -0.386978
-0.215635 -0.156525 -0.386148
-0.217186 -0.156525 -0.385319
-0.218736 -0.156525 -0.384489
-0.220286 -0.156525 -0.383659
-0.221836 -0.156525 -0.382829
-0.223115 -0.155200 -0.381459
-0.224395 -0.153872 -0.380086
-0.225949 -0.153872 -0.379255
-0.227502 -0.153872 -0.378423
-0.229055 -0.153872 -0.377592
-0.230608 -0.153872 -0.376761
-0.231897 -0.152543 -0.375382
-0.233714 -0.153872 -0.375098
-0.235267 -0.153872 -0.374267
-0.236820 -0.153872 -0.373436
-0.238374 -0.153872 -0.372604
-0.239927 -0.153872 -0.371773
-0.241480 -0.153872 -0.370942
-0.243033 -0.153872 -0.370111
-0.244586 -0.153872 -0.369279
-0.246139 -0.153872 -0.368448
-0.247442 -0.152543 -0.367062
-0.248997 -0.152543 -0.366230
-0.250304 -0.151210 -0.364840
-0.251860 -0.151210 -0.364007
-0.253416 -0.151210 -0.363174
-0.254728 -0.149875 -0.361781
-0.256285 -0.149875 -0.360947
-0.257843 -0.149875 -0.360114
-0.259160 -0.148538 -0.358716
-0.260719 -0.148538 -0.357882
-0.262040 -0.147198 -0.356480
-0.263364 -0.145856 -0.355077
-0.264691 -0.144511 -0.353670
-0.266254 -0.144511 -0.352834
-0.267584 -0.143163 -0.351424
-0.269149 -0.143163 -0.350587
-0.270483 -0.141814 -0.349173
-0.271819 -0.140461 -0.347758
-0.273158 -0.139106 -0.346339
-0.274727 -0.139106 -0.345500
-0.276070 -0.137749 -0.344078
-0.277416 -0.136389 -0.342653
-0.278988 -0.136389 -0.341812
-0.280337 -0.135027 -0.340384
-0.281689 -0.133662 -0.338954
-0.283044 -0.132294 -0.337520
-0.284401 -0.130924 -0.336084
-0.285979 -0.130924 -0.335240
-0.287340 -0.129552 -0.333801
-0.288704 -0.128176 -0.332359
-0.290070 -0.126799 -0.330914
-0.291652 -0.126799 -0.330067
-0.293022 -0.125418 -0.328619
-0.294395 -0.124035 -0.327168
-0.295771 -0.122650 -0.325714
-0.297357 -0.122650 -0.324865
-0.298737 -0.121261 -0.323407
-0.300119 -0.119871 -0.321947
-0.301709 -0.119871 -0.321096
-0.303095 -0.118477 -0.319633
-0.304484 -0.117081 -0.318166
-0.306077 -0.117081 -0.317314
-0.307470 -0.115682 -0.315844
-0.308865 -0.114281 -0.314371
-0.310461 -0.114281 -0.313517
-0.311861 -0.112877 -0.312041
-0.313263 -0.111470 -0.310562
-0.314668 -0.110061 -0.309080
-0.316268 -0.110061 -0.308223
-0.317678 -0.108649 -0.306738
-0.319090 -0.107234 -0.305250
-0.320693 -0.107234 -0.304391
-0.322109 -0.105817 -0.302899
-0.323528 -0.104397 -0.301405
-0.325134 -0.104397 -0.300545
-0.326557 -0.102974 -0.299046
-0.327983 -0.101549 -0.297545
-0.329593 -0.101549 -0.296683
-0.331023 -0.100120 -0.295178
-0.332456 -0.098689 -0.293670
-0.334068 -0.098689 -0.292807
-0.335505 -0.097256 -0.291296
-0.336945 -0.095819 -0.289781
-0.338388 -0.094380 -0.288264
-0.340005 -0.094380 -0.287398
-0.341452 -0.092938 -0.285877
-0.342901 -0.091493 -0.284353
-0.344522 -0.091493 -0.283486
-0.345976 -0.090046 -0.281958
-0.347433 -0.088595 -0.280427
-0.349056 -0.088595 -0.279558
-0.350517 -0.087142 -0.278023
-0.351981 -0.085686 -0.276486
-0.353448 -0.084228 -0.274945
-0.355076 -0.084228 -0.274074
-0.356704 -0.084228 -0.273202
-0.358177 -0.082766 -0.271657
-0.359653 -0.081302 -0.270109
-0.360978 -0.078365 -0.267878
-0.362461 -0.076892 -0.266322
-0.363947 -0.075416 -0.264763
-0.365286 -0.072456 -0.262513
-0.366778 -0.070971 -0.260945
-0.368274 -0.069484 -0.259374
-0.369772 -0.067994 -0.257801
-0.371129 -0.065005 -0.255526
-0.372492 -0.062004 -0.253243
-0.373859 -0.058991 -0.250951
-0.375233 -0.055967 -0.248650
-0.376611 -0.052931 -0.246340
-0.377856 -0.048354 -0.243303
-0.378969 -0.042209 -0.239525
-0.379535 -0.029771 -0.232781
-0.380946 -0.026630 -0.230399
-0.382362 -0.023477 -0.228008
-0.383784 -0.020311 -0.225608
-0.385212 -0.017133 -0.223197
-0.386645 -0.013941 -0.220777
-0.388084 -0.010737 -0.218347
-0.389529 -0.007519 -0.215908
-0.390980 -0.004289 -0.213458
-0.392437 -0.001045 -0.210999
-0.393900 0.002211 -0.208529
-0.395495 0.003845 -0.206829
-0.396844 0.008765 -0.203559
-0.398200 0.013716 -0.200269
-0.399566 0.018697 -0.196959
-0.400817 0.025387 -0.192824
-0.402200 0.030441 -0.189467
-0.403712 0.033828 -0.186904
-0.404993 0.040644 -0.182688
-0.406284 0.047517 -0.178438
-0.407469 0.056190 -0.173312
0.314013 0.188785 -0.488127
0.309257 0.182697 -0.488743
0.305466 0.178662 -0.488810
0.300765 0.172643 -0.489420
0.296096 0.166665 -0.490026
0.291459 0.160727 -0.490628
0.287755 0.156790 -0.490690
0.283171 0.150919 -0.491286
0.278618 0.145086 -0.491878
0.274976 0.141219 -0.491937
0.270475 0.135451 -0.492524
0.266004 0.129721 -0.493107
0.262421 0.125922 -0.493163
0.258001 0.120255 -0.493740
0.253610 0.114625 -0.494314
0.249248 0.109032 -0.494884
0.245745 0.105323 -0.494935
0.242256 0.101631 -0.494986
0.238783 0.097954 -0.495037
0.235325 0.094293 -0.495087
0.231882 0.090649 -0.495137
0.228453 0.087019 -0.495187
0.225039 0.083406 -0.495237
0.221640 0.079808 -0.495286
0.219044 0.078014 -0.494828
0.214886 0.072657 -0.495384
0.211530 0.069105 -0.495433
0.208188 0.065568 -0.495482
0.205628 0.063805 -0.495027
0.202310 0.060290 -0.495077
0.199005 0.056790 -0.495126
0.195715 0.053305 -0.495175
0.192438 0.049835 -0.495223
0.189175 0.046379 -0.495272
0.186665 0.044656 -0.494823
0.183424 0.041222 -0.494872
0.180197 0.037802 -0.494921
0.176984 0.034396 -0.494970
0.173783 0.031005 -0.495018
0.171312 0.029315 -0.494574
0.168134 0.025944 -0.494623
0.164968 0.022588 -0.494672
0.161816 0.019245 -0.494721
0.159375 0.017579 -0.494280
0.156244 0.014257 -0.494330
0.153126 0.010948 -0.494379
0.150020 0.007654 -0.494428
0.146928 0.004372 -0.494477
0.144524 0.002737 -0.494040
0.141452 -0.000525 -0.494090
0.138393 -0.003772 -0.494139
0.135345 -0.007007 -0.494188
0.132971 -0.008620 -0.493755
0.129944 -0.011835 -0.493804
0.126929 -0.015037 -0.493854
0.123927 -0.018226 -0.493903
0.120936 -0.021403 -0.493953
0.117958 -0.024566 -0.494001
0.114991 -0.027717 -0.494050
0.112668 -0.029288 -0.493623
0.109721 -0.032420 -0.493672
0.106786 -0.035540 -0.493721
0.103862 -0.038647 -0.493770
0.100335 -0.043285 -0.494291
0.098050 -0.044825 -0.493868
0.095161 -0.047895 -0.493916
0.092283 -0.050953 -0.493964
0.089417 -0.054000 -0.494012
0.087158 -0.055518 -0.493592
0.084310 -0.058546 -0.493640
0.081473 -0.061563 -0.493689
0.078648 -0.064568 -0.493737
0.075833 -0.067560 -0.493785
0.073608 -0.069052 -0.493369
0.070811 -0.072028 -0.493417
0.068597 -0.073511 -0.493002
0.065818 -0.076469 -0.493052
0.063050 -0.079416 -0.493101
0.060293 -0.082351 -0.493149
0.057547 -0.085275 -0.493198
0.055364 -0.086733 -0.492787
0.052635 -0.089640 -0.492836
0.049917 -0.092535 -0.492885
0.047209 -0.095420 -0.492934
0.044511 -0.098294 -0.492983
0.041824 -0.101156 -0.493031
0.039146 -0.104008 -0.493079
0.037008 -0.105430 -0.492673
0.034348 -0.108266 -0.492722
0.031698 -0.111090 -0.492771
0.029057 -0.113904 -0.492819
0.026427 -0.116708 -0.492867
0.023807 -0.119501 -0.492915
0.021196 -0.122283 -0.492963
0.019101 -0.123670 -0.492563
0.016507 -0.126437 -0.492611
0.013923 -0.129193 -0.492659
0.011348 -0.131939 -0.492707
0.009276 -0.133308 -0.492309
0.007208 -0.134675 -0.491912
0.004655 -0.137400 -0.491961
0.002112 -0.140116 -0.492010
0.000060 -0.141470 -0.491615
-0.002468 -0.144170 -0.491665
-0.004510 -0.145516 -0.491271
-0.007022 -0.148202 -0.491321
-0.009525 -0.150877 -0.491371
-0.011551 -0.152211 -0.490980
-0.013573 -0.153542 -0.490589
-0.015592 -0.154872 -0.490199
-0.017607 -0.156198 -0.489809
-0.019158 -0.156198 -0.488979
-0.020710 -0.156198 -0.488148
-0.022718 -0.157522 -0.487761
-0.024269 -0.157522 -0.486932
-0.025819 -0.157522 -0.486102
-0.027369 -0.157522 -0.485272
-0.028919 -0.157522 -0.484442
-0.030470 -0.157522 -0.483612
-0.032020 -0.157522 -0.482783
-0.033570 -0.157522 -0.481953
-0.035120 -0.157522 -0.481123
-0.036671 -0.157522 -0.480293
-0.038221 -0.157522 -0.479464
-0.040211 -0.158844 -0.479085
-0.041760 -0.158844 -0.478256
-0.043309 -0.158844 -0.477427
-0.044858 -0.158844 -0.476598
-0.046407 -0.158844 -0.475769
-0.047956 -0.158844 -0.474940
-0.049504 -0.158844 -0.474111
-0.051053 -0.158844 -0.473282
-0.052602 -0.158844 -0.472453
-0.054151 -0.158844 -0.471624
-0.055700 -0.158844 -0.470795
-0.057249 -0.158844 -0.469966
-0.058798 -0.158844 -0.469137
-0.060346 -0.158844 -0.468308
-0.061895 -0.158844 -0.467479
-0.063444 -0.158844 -0.466650
-0.064993 -0.158844 -0.465821
-0.066957 -0.160163 -0.465455
-0.068504 -0.160163 -0.464627
-0.070052 -0.160163 -0.463799
-0.071599 -0.160163 -0.462970
-0.073147 -0.160163 -0.462142
-0.074694 -0.160163 -0.461314
-0.076241 -0.160163 -0.460486
-0.077789 -0.160163 -0.459657
-0.079336 -0.160163 -0.458829
-0.080884 -0.160163 -0.458001
-0.082431 -0.160163 -0.457173
-0.083979 -0.160163 -0.456345
-0.085526 -0.160163 -0.455516
-0.087073 -0.160163 -0.454688
-0.088621 -0.160163 -0.453860
-0.090168 -0.160163 -0.453032
-0.092107 -0.161480 -0.452678
-0.093653 -0.161480 -0.451850
-0.095199 -0.161480 -0.451023
-0.096745 -0.161480 -0.450195
-0.098291 -0.161480 -0.449368
-0.099837 -0.161480 -0.448540
-0.101383 -0.161480 -0.447713
-0.102929 -0.161480 -0.446885
-0.104475 -0.161480 -0.446058
-0.106021 -0.161480 -0.445230
-0.107567 -0.161480 -0.444403
-0.109113 -0.161480 -0.443575
-0.110659 -0.161480 -0.442748
-0.112205 -0.161480 -0.441920
-0.113751 -0.161480 -0.441093
-0.115297 -0.161480 -0.440266
-0.117212 -0.162795 -0.439924
-0.118756 -0.162795 -0.439097
-0.120301 -0.162795 -0.438270
-0.121846 -0.162795 -0.437444
-0.123390 -0.162795 -0.436617
-0.124935 -0.162795 -0.435790
-0.126479 -0.162795 -0.434963
-0.128024 -0.162795 -0.434137
-0.129569 -0.162795 -0.433310
-0.131113 -0.162795 -0.432483
-0.132658 -0.162795 -0.431657
-0.134202 -0.162795 -0.430830
-0.135396 -0.161480 -0.429508
-0.136942 -0.161480 -0.428681
-0.138836 -0.162795 -0.428350
-0.140381 -0.162795 -0.427523
-0.141925 -0.162795 -0.426696
-0.143470 -0.162795 -0.425869
-0.145014 -0.162795 -0.425043
-0.146559 -0.162795 -0.424216
-0.148104 -0.162795 -0.423389
-0.149648 -0.162795 -0.422563
-0.151193 -0.162795 -0.421736
-0.152737 -0.162795 -0.420909
-0.154282 -0.162795 -0.420082
-0.155827 -0.162795 -0.419256
-0.157040 -0.161480 -0.417924
-0.158586 -0.161480 -0.417096
-0.160132 -0.161480 -0.416269
-0.161678 -0.161480 -0.415441
-0.163224 -0.161480 -0.414614
-0.164770 -0.161480 -0.413786
-0.166316 -0.161480 -0.412959
-0.167540 -0.160163 -0.411620
-0.169087 -0.160163 -0.410792
-0.170634 -0.160163 -0.409963
-0.172182 -0.160163 -0.409135
-0.173729 -0.160163 -0.408307
-0.175277 -0.160163 -0.407479
-0.176824 -0.160163 -0.406650
-0.178372 -0.160163 -0.405822
-0.179919 -0.160163 -0.404994
-0.181776 -0.161480 -0.404684
-0.183322 -0.161480 -0.403857
-0.184561 -0.160163 -0.402509
-0.186109 -0.160163 -0.401681
-0.187656 -0.160163 -0.400853
-0.189204 -0.160163 -0.400025
-0.190751 -0.160163 -0.399196
-0.192298 -0.160163 -0.398368
-0.193846 -0.160163 -0.397540
-0.195393 -0.160163 -0.396712
-0.196941 -0.160163 -0.395883
-0.198194 -0.158844 -0.394527
-0.199743 -0.158844 -0.393698
-0.201292 -0.158844 -0.392870
-0.202840 -0.158844 -0.392040
-0.204389 -0.158844 -0.391212
-0.205938 -0.158844 -0.390383
-0.207487 -0.158844 -0.389554
-0.209036 -0.158844 -0.388725
-0.210301 -0.157522 -0.387361
-0.211851 -0.157522 -0.386531
-0.213402 -0.157522 -0.385701
-0.214952 -0.157522 -0.384871
-0.216502 -0.157522 -0.384042
-0.218052 -0.157522 -0.383212
-0.219603 -0.157522 -0.382382
-0.221153 -0.157522 -0.381552
-0.222431 -0.156198 -0.380181
-0.223711 -0.154872 -0.378807
-0.225264 -0.154872 -0.377975
-0.226817 -0.154872 -0.377144
-0.228370 -0.154872 -0.376313
-0.229657 -0.153542 -0.374934
-0.231211 -0.153542 -0.374102
-0.233029 -0.154872 -0.373819
-0.234583 -0.154872 -0.372988
-0.236136 -0.154872 -0.372156
-0.237689 -0.154872 -0.371325
-0.239242 -0.154872 -0.370494
-0.241051 -0.156198 -0.370215
-0.242348 -0.154872 -0.368831
-0.243901 -0.154872 -0.368000
-0.245454 -0.154872 -0.367169
-0.246757 -0.153542 -0.365781
-0.248311 -0.153542 -0.364949
-0.249866 -0.153542 -0.364117
-0.251174 -0.152211 -0.362726
-0.252730 -0.152211 -0.361893
-0.254041 -0.150877 -0.360498
-0.255599 -0.150877 -0.359665
-0.257156 -0.150877 -0.358831
-0.258473 -0.149541 -0.357432
-0.260032 -0.149541 -0.356598
-0.261353 -0.148202 -0.355195
-0.262676 -0.146860 -0.353790
-0.264238 -0.146860 -0.352955
-0.265565 -0.145516 -0.351546
-0.266894 -0.144170 -0.350135
-0.268226 -0.142821 -0.348722
-0.269792 -0.142821 -0.347884
-0.271128 -0.141470 -0.346467
-0.272467 -0.140116 -0.345047
-0.273808 -0.138759 -0.343625
-0.275378 -0.138759 -0.342784
-0.276723 -0.137400 -0.341359
-0.278070 -0.136039 -0.339930
-0.279420 -0.134675 -0.338499
-0.280995 -0.134675 -0.337656
-0.282349 -0.133308 -0.336222
-0.283706 -0.131939 -0.334785
-0.285065 -0.130567 -0.333345
-0.286644 -0.130567 -0.332500
-0.288007 -0.129193 -0.331057
-0.289372 -0.127816 -0.329611
-0.290741 -0.126437 -0.328162
-0.292324 -0.126437 -0.327314
-0.293696 -0.125055 -0.325862
-0.295071 -0.123670 -0.324407
-0.296449 -0.122283 -0.322949
-0.298037 -0.122283 -0.322099
-0.299418 -0.120893 -0.320638
-0.300802 -0.119501 -0.319174
-0.302394 -0.119501 -0.318322
-0.303782 -0.118106 -0.316855
-0.305173 -0.116708 -0.315384
-0.306767 -0.116708 -0.314531
-0.308162 -0.115307 -0.313057
-0.309559 -0.113904 -0.311580
-0.311157 -0.113904 -0.310725
-0.312558 -0.112499 -0.309245
-0.313963 -0.111090 -0.307762
-0.315370 -0.109679 -0.306276
-0.316972 -0.109679 -0.305419
-0.318383 -0.108266 -0.303929
-0.319797 -0.106849 -0.302437
-0.321402 -0.106849 -0.301578
-0.322820 -0.105430 -0.300081
-0.324241 -0.104008 -0.298582
-0.325849 -0.104008 -0.297722
-0.327274 -0.102584 -0.296219
-0.328702 -0.101156 -0.294714
-0.330313 -0.101156 -0.293851
-0.331745 -0.099726 -0.292342
-0.333180 -0.098294 -0.290830
-0.334794 -0.098294 -0.289966
-0.336233 -0.096858 -0.288450
-0.337675 -0.095420 -0.286932
-0.339119 -0.093979 -0.285410
-0.340738 -0.093979 -0.284544
-0.342187 -0.092535 -0.283018
-0.343639 -0.091089 -0.281490
-0.345261 -0.091089 -0.280622
-0.346717 -0.089640 -0.279090
-0.348340 -0.089640 -0.278221
-0.349638 -0.086733 -0.276017
-0.351264 -0.086733 -0.275146
-0.352730 -0.085275 -0.273604
-0.354199 -0.083814 -0.272059
-0.355829 -0.083814 -0.271187
-0.357302 -0.082351 -0.269638
-0.358779 -0.080885 -0.268087
-0.360258 -0.079416 -0.266532
-0.361587 -0.076469 -0.264290
-0.363073 -0.074992 -0.262727
-0.364562 -0.073511 -0.261161
-0.366054 -0.072028 -0.259592
-0.367401 -0.069052 -0.257326
-0.368901 -0.067560 -0.255749
-0.370257 -0.064568 -0.253468
-0.371619 -0.061563 -0.251179
-0.372986 -0.058546 -0.248880
-0.374359 -0.055518 -0.246573
-0.375596 -0.050953 -0.243540
-0.376840 -0.046361 -0.240489
-0.377388 -0.033982 -0.233766
-0.378792 -0.030856 -0.231391
-0.380340 -0.029288 -0.229749
-0.381753 -0.026144 -0.227359
-0.383172 -0.022986 -0.224959
-0.384597 -0.019816 -0.222550
-0.386028 -0.016633 -0.220131
-0.387465 -0.013438 -0.217702
-0.388907 -0.010229 -0.215264
-0.390355 -0.007007 -0.212816
-0.391809 -0.003772 -0.210357
-0.393270 -0.000525 -0.207889
-0.394736 0.002737 -0.205410
-0.396208 0.006011 -0.202922
-0.397561 0.010948 -0.199633
-0.398799 0.017579 -0.195527
-0.400170 0.022588 -0.192191
-0.401550 0.027628 -0.188835
-0.403059 0.031005 -0.186273
-0.404336 0.037802 -0.182060
-0.405623 0.044656 -0.177811
-0.406803 0.053305 -0.172687
-0.407642 0.067335 -0.164952
0.315832 0.185515 -0.488121
0.311075 0.179446 -0.488736
0.306350 0.173418 -0.489347
0.302583 0.169421 -0.489413
0.297913 0.163461 -0.490018
0.293275 0.157540 -0.490619
0.289571 0.153615 -0.490681
0.284986 0.147760 -0.491277
0.280432 0.141945 -0.491869
0.276790 0.138089 -0.491928
0.272288 0.132338 -0.492514
0.267816 0.126625 -0.493096
0.264233 0.122837 -0.493152
0.259812 0.117186 -0.493729
0.254575 0.109709 -0.494821
0.251057 0.105995 -0.494872
0.247553 0.102297 -0.494923
0.244065 0.098615 -0.494973
0.240591 0.094949 -0.495024
0.237133 0.091299 -0.495074
0.233689 0.087664 -0.495124
0.230261 0.084045 -0.495174
0.226847 0.080442 -0.495224
0.224242 0.078646 -0.494765
0.220852 0.075066 -0.494816
0.217476 0.071501 -0.494866
0.213336 0.066182 -0.495420
0.210768 0.064416 -0.494965
0.207435 0.060896 -0.495015
0.204116 0.057392 -0.495064
0.200812 0.053901 -0.495113
0.197521 0.050426 -0.495162
0.194244 0.046965 -0.495211
0.191725 0.045240 -0.494761
0.188471 0.041801 -0.494811
0.185230 0.038377 -0.494860
0.182002 0.034966 -0.494909
0.178788 0.031570 -0.494958
0.175587 0.028188 -0.495006
0.173117 0.026502 -0.494562
0.169938 0.023141 -0.494611
0.166772 0.019794 -0.494660
0.163620 0.016460 -0.494709
0.161179 0.014799 -0.494269
0.158048 0.011486 -0.494318
0.154929 0.008187 -0.494367
0.151823 0.004901 -0.494416
0.148730 0.001628 -0.494465
0.145649 -0.001630 -0.494514
0.143255 -0.003255 -0.494079
0.140194 -0.006494 -0.494128
0.137147 -0.009720 -0.494177
0.134111 -0.012933 -0.494226
0.131745 -0.014535 -0.493794
0.128730 -0.017728 -0.493843
0.125727 -0.020909 -0.493893
0.122736 -0.024077 -0.493942
0.119757 -0.027232 -0.493991
0.116789 -0.030374 -0.494039
0.114467 -0.031941 -0.493612
0.111519 -0.035065 -0.493662
0.108583 -0.038176 -0.493711
0.105038 -0.042819 -0.494232
0.102130 -0.045900 -0.494280
0.099845 -0.047436 -0.493857
0.096955 -0.050498 -0.493905
0.094077 -0.053548 -0.493954
0.091210 -0.056586 -0.494002
0.088354 -0.059612 -0.494049
0.086103 -0.061121 -0.493630
0.083265 -0.064129 -0.493679
0.080439 -0.067126 -0.493727
0.077624 -0.070111 -0.493775
0.074820 -0.073084 -0.493823
0.072601 -0.074567 -0.493407
0.070387 -0.076046 -0.492993
0.067608 -0.078996 -0.493042
0.064839 -0.081935 -0.493091
0.062082 -0.084863 -0.493140
0.059334 -0.087779 -0.493189
0.057152 -0.089233 -0.492778
0.054422 -0.092132 -0.492827
0.051703 -0.095020 -0.492876
0.048994 -0.097897 -0.492925
0.046296 -0.100764 -0.492973
0.044145 -0.102193 -0.492566
0.041463 -0.105042 -0.492616
0.038792 -0.107881 -0.492664
0.036130 -0.110710 -0.492713
0.033479 -0.113527 -0.492762
0.030838 -0.116334 -0.492810
0.028207 -0.119130 -0.492858
0.025586 -0.121916 -0.492906
0.022974 -0.124691 -0.492954
0.020880 -0.126075 -0.492554
0.018285 -0.128834 -0.492602
0.015699 -0.131583 -0.492650
0.013123 -0.134322 -0.492698
0.010557 -0.137051 -0.492746
0.008984 -0.137051 -0.491904
0.006430 -0.139769 -0.491953
0.003886 -0.142478 -0.492002
0.001834 -0.143828 -0.491608
-0.000694 -0.146522 -0.491657
-0.002736 -0.147865 -0.491264
-0.005249 -0.150543 -0.491314
-0.007753 -0.153212 -0.491364
-0.009779 -0.154542 -0.490973
-0.011801 -0.155871 -0.490582
-0.013354 -0.155871 -0.489751
-0.015371 -0.157196 -0.489362
-0.016923 -0.157196 -0.488531
-0.018474 -0.157196 -0.487701
-0.020485 -0.158519 -0.487314
-0.022035 -0.158519 -0.486484
-0.023585 -0.158519 -0.485655
-0.025135 -0.158519 -0.484825
-0.026686 -0.158519 -0.483995
-0.028236 -0.158519 -0.483165
-0.029786 -0.158519 -0.482336
-0.031337 -0.158519 -0.481506
-0.032887 -0.158519 -0.480676
-0.034437 -0.158519 -0.479846
-0.035987 -0.158519 -0.479017
-0.037538 -0.158519 -0.478187
-0.039529 -0.159840 -0.477809
-0.041077 -0.159840 -0.476980
-0.042626 -0.159840 -0.476151
-0.044175 -0.159840 -0.475322
-0.045724 -0.159840 -0.474493
-0.047273 -0.159840 -0.473664
-0.048822 -0.159840 -0.472835
-0.050371 -0.159840 -0.472006
-0.051919 -0.159840 -0.471177
-0.053468 -0.159840 -0.470348
-0.055017 -0.159840 -0.469519
-0.056566 -0.159840 -0.468690
-0.058115 -0.159840 -0.467861
-0.059664 -0.159840 -0.467032
-0.061212 -0.159840 -0.466203
-0.062761 -0.159840 -0.465374
-0.064310 -0.159840 -0.464545
-0.065859 -0.159840 -0.463716
-0.067408 -0.159840 -0.462887
-0.068957 -0.159840 -0.462058
-0.070917 -0.161159 -0.461696
-0.072464 -0.161159 -0.460868
-0.074012 -0.161159 -0.460039
-0.075559 -0.161159 -0.459211
-0.077107 -0.161159 -0.458383
-0.078654 -0.161159 -0.457555
-0.080202 -0.161159 -0.456726
-0.081749 -0.161159 -0.455898
-0.083296 -0.161159 -0.455070
-0.084844 -0.161159 -0.454242
-0.086391 -0.161159 -0.453414
-0.087939 -0.161159 -0.452585
-0.089486 -0.161159 -0.451757
-0.091034 -0.161159 -0.450929
-0.092581 -0.161159 -0.450101
-0.094128 -0.161159 -0.449272
-0.096064 -0.162475 -0.448922
-0.097610 -0.162475 -0.448094
-0.099156 -0.162475 -0.447267
-0.100702 -0.162475 -0.446439
-0.102248 -0.162475 -0.445612
-0.103794 -0.162475 -0.444785
-0.105340 -0.162475 -0.443957
-0.106886 -0.162475 -0.443130
-0.108432 -0.162475 -0.442302
-0.109978 -0.162475 -0.441475
-0.111524 -0.162475 -0.440647
-0.113070 -0.162475 -0.439820
-0.114616 -0.162475 -0.438992
-0.116162 -0.162475 -0.438165
-0.117708 -0.162475 -0.437337
-0.119254 -0.162475 -0.436510
-0.121165 -0.163788 -0.436171
-0.122709 -0.163788 -0.435345
-0.124254 -0.163788 -0.434518
-0.125798 -0.163788 -0.433691
-0.127343 -0.163788 -0.432864
-0.128888 -0.163788 -0.432038
-0.130432 -0.163788 -0.431211
-0.131977 -0.163788 -0.430384
-0.133521 -0.163788 -0.429558
-0.134714 -0.162475 -0.428235
-0.136260 -0.162475 -0.427408
-0.138155 -0.163788 -0.427077
-0.139700 -0.163788 -0.426251
-0.141244 -0.163788 -0.425424
-0.142789 -0.163788 -0.424597
-0.144334 -0.163788 -0.423771
-0.145878 -0.163788 -0.422944
-0.147423 -0.163788 -0.422117
-0.148967 -0.163788 -0.421290
-0.150512 -0.163788 -0.420464
-0.151720 -0.162475 -0.419133
-0.153266 -0.162475 -0.418305
-0.154812 -0.162475 -0.417478
-0.156358 -0.162475 -0.416650
-0.157904 -0.162475 -0.415823
-0.159450 -0.162475 -0.414995
-0.160996 -0.162475 -0.414168
-0.162542 -0.162475 -0.413340
-0.163763 -0.161159 -0.412002
-0.165310 -0.161159 -0.411174
-0.166857 -0.161159 -0.410345
-0.168405 -0.161159 -0.409517
-0.169952 -0.161159 -0.408689
-0.171500 -0.161159 -0.407861
-0.173047 -0.161159 -0.407032
-0.174595 -0.161159 -0.406204
-0.176142 -0.161159 -0.405376
-0.177689 -0.161159 -0.404548
-0.179237 -0.161159 -0.403719
-0.180784 -0.161159 -0.402891
-0.182640 -0.162475 -0.402583
-0.183879 -0.161159 -0.401235
-0.185427 -0.161159 -0.400407
-0.186974 -0.161159 -0.399578
-0.188521 -0.161159 -0.398750
-0.190069 -0.161159 -0.397922
-0.191616 -0.161159 -0.397094
-0.193164 -0.161159 -0.396265
-0.194711 -0.161159 -0.395437
-0.195962 -0.159840 -0.394081
-0.197511 -0.159840 -0.393252
-0.199060 -0.159840 -0.392423
-0.200609 -0.159840 -0.391594
-0.202158 -0.159840 -0.390765
-0.203706 -0.159840 -0.389936
-0.205255 -0.159840 -0.389107
-0.206804 -0.159840 -0.388278
-0.208353 -0.159840 -0.387449
-0.209618 -0.158519 -0.386084
-0.211168 -0.158519 -0.385254
-0.212718 -0.158519 -0.384424
-0.214268 -0.158519 -0.383595
-0.215819 -0.158519 -0.382765
-0.217369 -0.158519 -0.381935
-0.218919 -0.158519 -0.381105
-0.220195 -0.157196 -0.379733
-0.221747 -0.157196 -0.378903
-0.223026 -0.155871 -0.377528
-0.224579 -0.155871 -0.376696
-0.226132 -0.155871 -0.375865
-0.227685 -0.155871 -0.375034
-0.228971 -0.154542 -0.373654
-0.230792 -0.155871 -0.373371
-0.232345 -0.155871 -0.372540
-0.233898 -0.155871 -0.371709
-0.235451 -0.155871 -0.370877
-0.237264 -0.157196 -0.370598
-0.238815 -0.157196 -0.369767
-0.240367 -0.157196 -0.368937
-0.241919 -0.157196 -0.368106
-0.243470 -0.157196 -0.367276
-0.244770 -0.155871 -0.365890
-0.246072 -0.154542 -0.364501
-0.247626 -0.154542 -0.363669
-0.249181 -0.154542 -0.362837
-0.250488 -0.153212 -0.361444
-0.252044 -0.153212 -0.360611
-0.253355 -0.151879 -0.359215
-0.254912 -0.151879 -0.358382
-0.256470 -0.151879 -0.357548
-0.257786 -0.150543 -0.356148
-0.259104 -0.149205 -0.354745
-0.260665 -0.149205 -0.353910
-0.261987 -0.147865 -0.352504
-0.263312 -0.146522 -0.351095
-0.264876 -0.146522 -0.350259
-0.266204 -0.145176 -0.348847
-0.267536 -0.143828 -0.347432
-0.268870 -0.142478 -0.346015
-0.270437 -0.142478 -0.345176
-0.271775 -0.141125 -0.343755
-0.273115 -0.139769 -0.342331
-0.274458 -0.138411 -0.340905
-0.276030 -0.138411 -0.340064
-0.277377 -0.137051 -0.338634
-0.278726 -0.135688 -0.337202
-0.280078 -0.134322 -0.335767
-0.281432 -0.132954 -0.334330
-0.283010 -0.132954 -0.333485
-0.284368 -0.131583 -0.332044
-0.285729 -0.130210 -0.330601
-0.287310 -0.130210 -0.329755
-0.288675 -0.128834 -0.328307
-0.290042 -0.127456 -0.326857
-0.291412 -0.126075 -0.325405
-0.292998 -0.126075 -0.324556
-0.294372 -0.124691 -0.323100
-0.295748 -0.123305 -0.321641
-0.297128 -0.121916 -0.320179
-0.298717 -0.121916 -0.319329
-0.300101 -0.120524 -0.317863
-0.301487 -0.119130 -0.316395
-0.303080 -0.119130 -0.315543
-0.304470 -0.117733 -0.314071
-0.305863 -0.116334 -0.312597
-0.307458 -0.116334 -0.311743
-0.308855 -0.114932 -0.310265
-0.310255 -0.113527 -0.308784
-0.311853 -0.113527 -0.307928
-0.313257 -0.112120 -0.306444
-0.314664 -0.110710 -0.304957
-0.316265 -0.110710 -0.304099
-0.317676 -0.109297 -0.302608
-0.319089 -0.107881 -0.301115
-0.320505 -0.106463 -0.299618
-0.322112 -0.106463 -0.298758
-0.323532 -0.105042 -0.297258
-0.324955 -0.103619 -0.295755
-0.326564 -0.103619 -0.294894
-0.327991 -0.102193 -0.293387
-0.329421 -0.100764 -0.291877
-0.331034 -0.100764 -0.291014
-0.332468 -0.099332 -0.289501
-0.333905 -0.097897 -0.287984
-0.335521 -0.097897 -0.287120
-0.336962 -0.096460 -0.285600
-0.338406 -0.095020 -0.284077
-0.340025 -0.095020 -0.283210
-0.341473 -0.093578 -0.281684
-0.342924 -0.092132 -0.280154
-0.344378 -0.090684 -0.278621
-0.346001 -0.090684 -0.277753
-0.347625 -0.090684 -0.276884
-0.348921 -0.087779 -0.274677
-0.350547 -0.087779 -0.273806
-0.352013 -0.086322 -0.272263
-0.353641 -0.086322 -0.271392
-0.355111 -0.084863 -0.269845
-0.356583 -0.083400 -0.268295
-0.357903 -0.080467 -0.266061
-0.359383 -0.078996 -0.264503
-0.360865 -0.077523 -0.262941
-0.362351 -0.076046 -0.261377
-0.363688 -0.073084 -0.259119
-0.365181 -0.071599 -0.257546
-0.366676 -0.070111 -0.255971
-0.368027 -0.067126 -0.253693
-0.369383 -0.064129 -0.251406
-0.370745 -0.061121 -0.249110
-0.372112 -0.058101 -0.246806
-0.373484 -0.055069 -0.244492
-0.374577 -0.048968 -0.240729
-0.375393 -0.039727 -0.235479
-0.376646 -0.035065 -0.232380
-0.378189 -0.033504 -0.230741
-0.379595 -0.030374 -0.228358
-0.381007 -0.027232 -0.225965
-0.382425 -0.024077 -0.223563
-0.383849 -0.020909 -0.221151
-0.385278 -0.017728 -0.218729
-0.386713 -0.014535 -0.216298
-0.388286 -0.012933 -0.214621
-0.389732 -0.009720 -0.212174
-0.391183 -0.006494 -0.209717
-0.392640 -0.003255 -0.207250
-0.394104 -0.000003 -0.204773
-0.395573 0.003263 -0.202285
-0.396798 0.009835 -0.198207
-0.398157 0.014799 -0.194893
-0.399525 0.019794 -0.191559
-0.400901 0.024820 -0.188205
-0.402286 0.029877 -0.184829
-0.403680 0.034966 -0.181432
-0.404963 0.041801 -0.177185
-0.406138 0.050426 -0.172064
-0.407089 0.062654 -0.165185
0.318600 0.184280 -0.487567
0.312889 0.176202 -0.488730
0.308163 0.170191 -0.489341
0.304397 0.166207 -0.489406
0.299726 0.160264 -0.490011
0.295087 0.154360 -0.490611
0.291383 0.150447 -0.490673
0.286797 0.144609 -0.491268
0.282242 0.138811 -0.491859
0.278600 0.134967 -0.491918
0.274097 0.129232 -0.492504
0.269624 0.123535 -0.493085
0.266041 0.119758 -0.493141
0.261619 0.114123 -0.493717
0.256380 0.106668 -0.494808
0.252023 0.101119 -0.495375
0.249357 0.099277 -0.494910
0.245869 0.095606 -0.494961
0.242395 0.091950 -0.495011
0.238937 0.088310 -0.495062
0.235493 0.084686 -0.495112
0.232064 0.081078 -0.495161
0.228650 0.077484 -0.495211
0.226047 0.075694 -0.494753
0.222656 0.072123 -0.494803
0.219280 0.068569 -0.494853
0.215919 0.065029 -0.494903
0.212571 0.061504 -0.494953
0.209238 0.057994 -0.495002
0.205919 0.054499 -0.495052
0.202614 0.051019 -0.495101
0.199323 0.047553 -0.495150
0.196045 0.044102 -0.495198
0.193528 0.042382 -0.494749
0.190273 0.038952 -0.494799
0.187031 0.035537 -0.494848
0.183804 0.032136 -0.494897
0.180589 0.028749 -0.494946
0.177388 0.025377 -0.494994
0.174918 0.023696 -0.494550
0.171739 0.020344 -0.494600
0.168573 0.017006 -0.494649
0.165419 0.013681 -0.494697
0.162980 0.012024 -0.494257
0.159848 0.008721 -0.494307
0.156729 0.005430 -0.494356
0.153622 0.002154 -0.494405
0.150528 -0.001110 -0.494454
0.147447 -0.004360 -0.494503
0.145053 -0.005980 -0.494068
0.141992 -0.009210 -0.494117
0.138944 -0.012428 -0.494166
0.135908 -0.015632 -0.494215
0.132884 -0.018823 -0.494263
0.130527 -0.020414 -0.493833
0.127523 -0.023586 -0.493882
0.124531 -0.026745 -0.493931
0.121552 -0.029892 -0.493980
0.119222 -0.031460 -0.493553
0.115628 -0.036147 -0.494077
0.113313 -0.037703 -0.493651
0.110377 -0.040806 -0.493700
0.106830 -0.045438 -0.494222
0.103921 -0.048510 -0.494269
0.101023 -0.051570 -0.494317
0.098746 -0.053095 -0.493895
0.095867 -0.056137 -0.493943
0.092999 -0.059167 -0.493991
0.090143 -0.062186 -0.494039
0.087892 -0.063690 -0.493620
0.085054 -0.066691 -0.493668
0.082227 -0.069679 -0.493717
0.079411 -0.072656 -0.493765
0.076606 -0.075622 -0.493812
0.074388 -0.077100 -0.493398
0.071601 -0.080049 -0.493446
0.069394 -0.081518 -0.493033
0.066625 -0.084450 -0.493082
0.063866 -0.087369 -0.493130
0.061118 -0.090278 -0.493179
0.058381 -0.093175 -0.493227
0.056206 -0.094620 -0.492818
0.053486 -0.097501 -0.492867
0.050776 -0.100370 -0.492915
0.048077 -0.103229 -0.492964
0.045926 -0.104654 -0.492558
0.043244 -0.107497 -0.492607
0.040572 -0.110328 -0.492656
0.037909 -0.113149 -0.492704
0.035257 -0.115959 -0.492753
0.033137 -0.117360 -0.492350
0.029983 -0.121548 -0.492849
0.027876 -0.122938 -0.492448
0.025261 -0.125712 -0.492497
0.022655 -0.128474 -0.492545
0.020059 -0.131227 -0.492593
0.017472 -0.133969 -0.492642
0.014896 -0.136701 -0.492690
0.012329 -0.139423 -0.492737
0.010263 -0.140780 -0.492341
0.008202 -0.142134 -0.491945
0.005657 -0.144836 -0.491994
0.003605 -0.146183 -0.491600
0.001076 -0.148869 -0.491649
-0.000966 -0.150209 -0.491257
-0.003480 -0.152881 -0.491307
-0.005511 -0.154213 -0.490915
-0.007539 -0.155542 -0.490524
-0.009563 -0.156870 -0.490134
-0.011116 -0.156870 -0.489303
-0.013135 -0.158194 -0.488914
-0.014687 -0.158194 -0.488084
-0.016239 -0.158194 -0.487253
-0.017790 -0.158194 -0.486423
-0.019342 -0.158194 -0.485592
-0.020894 -0.158194 -0.484762
-0.022445 -0.158194 -0.483931
-0.024452 -0.159517 -0.483548
-0.026002 -0.159517 -0.482718
-0.027553 -0.159517 -0.481889
-0.029103 -0.159517 -0.481059
-0.030653 -0.159517 -0.480229
-0.032203 -0.159517 -0.479399
-0.033754 -0.159517 -0.478570
-0.035304 -0.159517 -0.477740
-0.036854 -0.159517 -0.476910
-0.038404 -0.159517 -0.476080
-0.040395 -0.160837 -0.475705
-0.041943 -0.160837 -0.474876
-0.043492 -0.160837 -0.474047
-0.044606 -0.159517 -0.472761
-0.046156 -0.159517 -0.471931
-0.047706 -0.159517 -0.471102
-0.049256 -0.159517 -0.470272
-0.051237 -0.160837 -0.469902
-0.052785 -0.160837 -0.469073
-0.054334 -0.160837 -0.468244
-0.055883 -0.160837 -0.467415
-0.057432 -0.160837 -0.466586
-0.058981 -0.160837 -0.465757
-0.060530 -0.160837 -0.464928
-0.062078 -0.160837 -0.464099
-0.063627 -0.160837 -0.463270
-0.065176 -0.160837 -0.462441
-0.066725 -0.160837 -0.461612
-0.068274 -0.160837 -0.460783
-0.069823 -0.160837 -0.459954
-0.071372 -0.160837 -0.459125
-0.072920 -0.160837 -0.458296
-0.074469 -0.160837 -0.457467
-0.076425 -0.162154 -0.457108
-0.077972 -0.162154 -0.456280
-0.079519 -0.162154 -0.455452
-0.081067 -0.162154 -0.454624
-0.082614 -0.162154 -0.453795
-0.084162 -0.162154 -0.452967
-0.085709 -0.162154 -0.452139
-0.087257 -0.162154 -0.451311
-0.088804 -0.162154 -0.450483
-0.090351 -0.162154 -0.449654
-0.091899 -0.162154 -0.448826
-0.093446 -0.162154 -0.447998
-0.094994 -0.162154 -0.447170
-0.096541 -0.162154 -0.446341
-0.098089 -0.162154 -0.445513
-0.099636 -0.162154 -0.444685
-0.101566 -0.163469 -0.444339
-0.103112 -0.163469 -0.443511
-0.104658 -0.163469 -0.442684
-0.106204 -0.163469 -0.441856
-0.107750 -0.163469 -0.441029
-0.109296 -0.163469 -0.440201
-0.110842 -0.163469 -0.439374
-0.112388 -0.163469 -0.438546
-0.113934 -0.163469 -0.437719
-0.115480 -0.163469 -0.436891
-0.117026 -0.163469 -0.436064
-0.118572 -0.163469 -0.435236
-0.120118 -0.163469 -0.434409
-0.121664 -0.163469 -0.433581
-0.123210 -0.163469 -0.432754
-0.124756 -0.163469 -0.431927
-0.126662 -0.164782 -0.431592
-0.128207 -0.164782 -0.430766
-0.129751 -0.164782 -0.429939
-0.131296 -0.164782 -0.429112
-0.132840 -0.164782 -0.428285
-0.134033 -0.163469 -0.426962
-0.135578 -0.163469 -0.426134
-0.137474 -0.164782 -0.425805
-0.139019 -0.164782 -0.424979
-0.140563 -0.164782 -0.424152
-0.142108 -0.164782 -0.423325
-0.143653 -0.164782 -0.422498
-0.145197 -0.164782 -0.421672
-0.146401 -0.163469 -0.420342
-0.147947 -0.163469 -0.419514
-0.149493 -0.163469 -0.418687
-0.151039 -0.163469 -0.417859
-0.152585 -0.163469 -0.417032
-0.154131 -0.163469 -0.416205
-0.155677 -0.163469 -0.415377
-0.157223 -0.163469 -0.414550
-0.158769 -0.163469 -0.413722
-0.160315 -0.163469 -0.412895
-0.161861 -0.163469 -0.412067
-0.163407 -0.163469 -0.411240
-0.164628 -0.162154 -0.409899
-0.166175 -0.162154 -0.409071
-0.167723 -0.162154 -0.408243
-0.169270 -0.162154 -0.407414
-0.170818 -0.162154 -0.406586
-0.172365 -0.162154 -0.405758
-0.173912 -0.162154 -0.404930
-0.175460 -0.162154 -0.404101
-0.177007 -0.162154 -0.403273
-0.178555 -0.162154 -0.402445
-0.180102 -0.162154 -0.401617
-0.181650 -0.162154 -0.400789
-0.183197 -0.162154 -0.399960
-0.184744 -0.162154 -0.399132
-0.186292 -0.162154 -0.398304
-0.187839 -0.162154 -0.397476
-0.189387 -0.162154 -0.396647
-0.190934 -0.162154 -0.395819
-0.192482 -0.162154 -0.394991
-0.194029 -0.162154 -0.394163
-0.195279 -0.160837 -0.392805
-0.196828 -0.160837 -0.391976
-0.198377 -0.160837 -0.391147
-0.199926 -0.160837 -0.390318
-0.201475 -0.160837 -0.389489
-0.203024 -0.160837 -0.388660
-0.204572 -0.160837 -0.387831
-0.205834 -0.159517 -0.386467
-0.207384 -0.159517 -0.385637
-0.208934 -0.159517 -0.384807
-0.210485 -0.159517 -0.383977
-0.212035 -0.159517 -0.383148
-0.213585 -0.159517 -0.382318
-0.215135 -0.159517 -0.381488
-0.216686 -0.159517 -0.380658
-0.218236 -0.159517 -0.379828
-0.219511 -0.158194 -0.378455
-0.221063 -0.158194 -0.377625
-0.222341 -0.156870 -0.376248
-0.223894 -0.156870 -0.375417
-0.225448 -0.156870 -0.374586
-0.227001 -0.156870 -0.373754
-0.228554 -0.156870 -0.372923
-0.230107 -0.156870 -0.372092
-0.231924 -0.158194 -0.371811
-0.233476 -0.158194 -0.370981
-0.235028 -0.158194 -0.370150
-0.236580 -0.158194 -0.369320
-0.238131 -0.158194 -0.368489
-0.239683 -0.158194 -0.367659
-0.241235 -0.158194 -0.366828
-0.242786 -0.158194 -0.365998
-0.244085 -0.156870 -0.364610
-0.245638 -0.156870 -0.363779
-0.246941 -0.155542 -0.362389
-0.248495 -0.155542 -0.361556
-0.249802 -0.154213 -0.360163
-0.251358 -0.154213 -0.359330
-0.252668 -0.152881 -0.357933
-0.254226 -0.152881 -0.357099
-0.255783 -0.152881 -0.356265
-0.257099 -0.151546 -0.354864
-0.258417 -0.150209 -0.353460
-0.259737 -0.148869 -0.352054
-0.261299 -0.148869 -0.351218
-0.262623 -0.147527 -0.349808
-0.263950 -0.146183 -0.348395
-0.265515 -0.146183 -0.347558
-0.266845 -0.144836 -0.346142
-0.268179 -0.143486 -0.344723
-0.269514 -0.142134 -0.343302
-0.271083 -0.142134 -0.342462
-0.272423 -0.140780 -0.341038
-0.273765 -0.139423 -0.339611
-0.275110 -0.138063 -0.338181
-0.276683 -0.138063 -0.337339
-0.278032 -0.136701 -0.335905
-0.279383 -0.135336 -0.334469
-0.280737 -0.133969 -0.333030
-0.282093 -0.132599 -0.331589
-0.283672 -0.132599 -0.330744
-0.285032 -0.131227 -0.329299
-0.286395 -0.129852 -0.327851
-0.287977 -0.129852 -0.327004
-0.289344 -0.128474 -0.325553
-0.290714 -0.127094 -0.324099
-0.292086 -0.125712 -0.322642
-0.293672 -0.125712 -0.321793
-0.295048 -0.124326 -0.320333
-0.296427 -0.122938 -0.318870
-0.298017 -0.122938 -0.318019
-0.299399 -0.121548 -0.316553
-0.300785 -0.120155 -0.315083
-0.302377 -0.120155 -0.314231
-0.303767 -0.118759 -0.312758
-0.305159 -0.117360 -0.311283
-0.306554 -0.115959 -0.309804
-0.308151 -0.115959 -0.308949
-0.309550 -0.114555 -0.307467
-0.310952 -0.113149 -0.305982
-0.312552 -0.113149 -0.305126
-0.313958 -0.111740 -0.303637
-0.315366 -0.110328 -0.302146
-0.316969 -0.110328 -0.301288
-0.318382 -0.108914 -0.299793
-0.319797 -0.107497 -0.298295
-0.321404 -0.107497 -0.297435
-0.322823 -0.106077 -0.295934
-0.324245 -0.104654 -0.294429
-0.325855 -0.104654 -0.293568
-0.327281 -0.103229 -0.292060
-0.328710 -0.101801 -0.290549
-0.330142 -0.100370 -0.289035
-0.331756 -0.100370 -0.288171
-0.333193 -0.098937 -0.286654
-0.334632 -0.097501 -0.285133
-0.336249 -0.097501 -0.284268
-0.337692 -0.096062 -0.282744
-0.339138 -0.094620 -0.281216
-0.340759 -0.094620 -0.280349
-0.342209 -0.093175 -0.278818
-0.343662 -0.091728 -0.277284
-0.345286 -0.091728 -0.276416
-0.346743 -0.090278 -0.274878
-0.348204 -0.088825 -0.273337
-0.349667 -0.087369 -0.271794
-0.351295 -0.087369 -0.270922
-0.352762 -0.085911 -0.269375
-0.354233 -0.084450 -0.267824
-0.355706 -0.082985 -0.266271
-0.357182 -0.081518 -0.264715
-0.358661 -0.080049 -0.263155
-0.359989 -0.077100 -0.260905
-0.361475 -0.075622 -0.259337
-0.362964 -0.074141 -0.257766
-0.364456 -0.072656 -0.256192
-0.365801 -0.069679 -0.253917
-0.367152 -0.066691 -0.251633
-0.368508 -0.063690 -0.249340
-0.369869 -0.060678 -0.247038
-0.371235 -0.057654 -0.244727
-0.372318 -0.051570 -0.240969
-0.373409 -0.045438 -0.237181
-0.374365 -0.037703 -0.232630
-0.375904 -0.036147 -0.230993
-0.377446 -0.034588 -0.229353
-0.378851 -0.031460 -0.226967
-0.380262 -0.028320 -0.224572
-0.381678 -0.025167 -0.222167
-0.383237 -0.023586 -0.220506
-0.384663 -0.020414 -0.218086
-0.386095 -0.017229 -0.215656
-0.387534 -0.014031 -0.213215
-0.388978 -0.010821 -0.210765
-0.390427 -0.007597 -0.208305
-0.391883 -0.004360 -0.205835
-0.393473 -0.002736 -0.204136
-0.394939 0.000520 -0.201650
-0.396160 0.007074 -0.197573
-0.397516 0.012024 -0.194261
-0.398881 0.017006 -0.190929
-0.400254 0.022018 -0.187576
