ply
format ascii 1.0
element vertex 1739
property float x
property float y
property float z
end_header
0.461433 0.067162 0.233488
0.463456 0.069690 0.230480
0.465488 0.072228 0.227459
0.467528 0.074777 0.224426
0.469663 0.078619 0.220098
0.471810 0.082484 0.215743
0.474062 0.087675 0.210058
0.476239 0.091596 0.205641
0.478623 0.098186 0.198549
0.481432 0.110219 0.185997
0.484928 0.130785 0.164884
0.490009 0.170974 0.124078
0.042412 -0.076223 0.480614
0.043761 -0.075232 0.479288
0.045416 -0.075232 0.478859
0.046769 -0.074239 0.477530
0.048124 -0.073244 0.476199
0.049782 -0.073244 0.475769
0.051142 -0.072247 0.474435
0.052801 -0.072247 0.474005
0.054164 -0.071249 0.472668
0.055530 -0.070249 0.471329
0.056898 -0.069247 0.469988
0.058562 -0.069247 0.469557
0.059934 -0.068243 0.468212
0.061599 -0.068243 0.467781
0.062975 -0.067238 0.466434
0.064354 -0.066230 0.465084
0.066022 -0.066230 0.464652
0.067405 -0.065221 0.463299
0.068790 -0.064210 0.461945
0.070461 -0.064210 0.461511
0.071850 -0.063197 0.460154
0.073523 -0.063197 0.459720
0.074916 -0.062182 0.458360
0.076311 -0.061166 0.456997
0.077987 -0.061166 0.456562
0.079387 -0.060148 0.455197
0.080789 -0.059127 0.453829
0.082468 -0.059127 0.453393
0.083601 -0.057081 0.451085
0.085011 -0.056056 0.449709
0.086694 -0.056056 0.449273
0.088108 -0.055028 0.447894
0.090061 -0.056056 0.448400
0.091478 -0.055028 0.447020
0.092898 -0.053999 0.445638
0.094320 -0.052967 0.444254
0.096008 -0.052967 0.443816
0.097172 -0.050899 0.441478
0.098863 -0.050899 0.441039
0.100295 -0.049862 0.439647
0.101988 -0.049862 0.439208
0.103423 -0.048823 0.437813
0.104862 -0.047782 0.436415
0.106557 -0.047782 0.435975
0.108000 -0.046739 0.434574
0.109697 -0.046739 0.434134
0.111144 -0.045695 0.432730
0.112843 -0.045695 0.432290
0.114294 -0.044648 0.430883
0.115994 -0.044648 0.430442
0.117449 -0.043600 0.429032
0.118907 -0.042549 0.427620
0.120611 -0.042549 0.427178
0.122073 -0.041497 0.425763
0.123778 -0.041497 0.425321
0.125244 -0.040443 0.423902
0.126951 -0.040443 0.423460
0.128422 -0.039386 0.422038
0.129895 -0.038328 0.420614
0.131605 -0.038328 0.420171
0.133083 -0.037268 0.418744
0.134794 -0.037268 0.418300
0.136276 -0.036206 0.416870
0.137761 -0.035142 0.415437
0.139248 -0.034076 0.414001
0.140965 -0.034076 0.413556
0.142456 -0.033008 0.412118
0.143951 -0.031938 0.410677
0.145670 -0.031938 0.410231
0.147169 -0.030866 0.408787
0.148671 -0.029792 0.407340
0.150394 -0.029792 0.406893
0.151900 -0.028716 0.405443
0.153409 -0.027638 0.403990
0.155135 -0.027638 0.403543
0.156648 -0.026558 0.402087
0.158164 -0.025476 0.400628
0.159893 -0.025476 0.400180
0.161414 -0.024391 0.398718
0.163145 -0.024391 0.398269
0.164464 -0.022217 0.395786
0.166198 -0.022217 0.395337
0.167728 -0.021127 0.393866
0.169262 -0.020035 0.392393
0.170799 -0.018941 0.390917
0.172538 -0.018941 0.390466
0.174079 -0.017844 0.388987
0.175623 -0.016746 0.387505
0.177365 -0.016746 0.387053
0.178913 -0.015646 0.385568
0.180465 -0.014543 0.384080
0.182210 -0.014543 0.383628
0.183956 -0.014543 0.383175
0.185513 -0.013438 0.381683
0.187074 -0.012332 0.380189
0.188637 -0.011223 0.378692
0.190204 -0.010112 0.377192
0.191956 -0.010112 0.376737
0.193527 -0.008999 0.375234
0.195101 -0.007884 0.373728
0.196857 -0.007884 0.373273
0.198259 -0.005648 0.370707
0.199842 -0.004526 0.369192
0.201428 -0.003402 0.367674
0.203190 -0.003402 0.367217
0.204781 -0.002277 0.365696
0.206374 -0.001149 0.364172
0.207971 -0.000019 0.362646
0.209571 0.001113 0.361116
0.211174 0.002248 0.359583
0.212780 0.003384 0.358048
0.214553 0.003384 0.357588
0.216163 0.004523 0.356049
0.217777 0.005664 0.354507
0.219394 0.006807 0.352962
0.221015 0.007952 0.351414
0.222638 0.009100 0.349864
0.224264 0.010249 0.348310
0.225894 0.011401 0.346753
0.227526 0.012555 0.345193
0.229162 0.013712 0.343630
0.230801 0.014870 0.342065
0.232443 0.016031 0.340496
0.234089 0.017194 0.338924
0.235881 0.017194 0.338459
0.237532 0.018359 0.336884
0.239185 0.019527 0.335305
0.240842 0.020697 0.333723
0.242502 0.021869 0.332139
0.244165 0.023043 0.330551
0.245831 0.024220 0.328960
0.247501 0.025399 0.327367
0.249174 0.026580 0.325770
0.250850 0.027764 0.324169
0.252529 0.028950 0.322566
0.254212 0.030138 0.320960
0.255898 0.031329 0.319350
0.257587 0.032521 0.317738
0.259280 0.033717 0.316122
0.260976 0.034914 0.314503
0.262675 0.036114 0.312881
0.264378 0.037316 0.311255
0.266084 0.038521 0.309627
0.267793 0.039728 0.307995
0.269506 0.040938 0.306360
0.271334 0.040938 0.305886
0.273052 0.042149 0.304247
0.274773 0.043364 0.302605
0.276498 0.044580 0.300960
0.278226 0.045799 0.299311
0.279957 0.047021 0.297660
0.281692 0.048245 0.296004
0.283632 0.047021 0.296707
0.285567 0.045799 0.297408
0.287499 0.044580 0.298107
0.289521 0.042149 0.299977
0.291443 0.040938 0.300672
0.293361 0.039728 0.301365
0.295276 0.038521 0.302057
0.297272 0.036114 0.303910
0.299177 0.034914 0.304597
0.301078 0.033717 0.305284
0.303056 0.031329 0.307122
0.304948 0.030138 0.307804
0.306836 0.028950 0.308485
0.308720 0.027764 0.309164
0.310601 0.026580 0.309842
0.312549 0.024220 0.311661
0.314420 0.023043 0.312334
0.316288 0.021869 0.313006
0.318152 0.020697 0.313677
0.319950 0.020697 0.313211
0.321809 0.019527 0.313881
0.323665 0.018359 0.314550
0.325516 0.017194 0.315217
0.327309 0.017194 0.314752
0.329155 0.016031 0.315419
0.330998 0.014870 0.316084
0.332788 0.014870 0.315620
0.334625 0.013712 0.316284
0.336459 0.012555 0.316947
0.338245 0.012555 0.316484
0.340074 0.011401 0.317147
0.341858 0.011401 0.316684
0.343681 0.010249 0.317345
0.345464 0.010249 0.316883
0.347282 0.009100 0.317544
0.349097 0.007952 0.318203
0.350876 0.007952 0.317742
0.352685 0.006807 0.318401
0.354463 0.006807 0.317940
0.356240 0.006807 0.317479
0.358017 0.006807 0.317018
0.359794 0.006807 0.316557
0.361594 0.005664 0.317216
0.363369 0.005664 0.316756
0.365145 0.005664 0.316296
0.366920 0.005664 0.315835
0.368711 0.004523 0.316494
0.370485 0.004523 0.316034
0.372259 0.004523 0.315574
0.374032 0.004523 0.315114
0.375806 0.004523 0.314654
0.377573 0.005664 0.313073
0.379349 0.005664 0.312612
0.381121 0.006807 0.311027
0.382898 0.006807 0.310567
0.384675 0.006807 0.310106
0.386452 0.006807 0.309645
0.388233 0.007952 0.308055
0.390017 0.009100 0.306463
0.391798 0.009100 0.306001
0.393578 0.009100 0.305539
0.395369 0.010249 0.303943
0.397152 0.010249 0.303481
0.398934 0.010249 0.303019
0.400732 0.011401 0.301418
0.402533 0.012555 0.299815
0.404338 0.013712 0.298208
0.406125 0.013712 0.297745
0.407935 0.014870 0.296134
0.409749 0.016031 0.294521
0.411566 0.017194 0.292905
0.413386 0.018359 0.291285
0.415210 0.019527 0.289662
0.417038 0.020697 0.288037
0.418869 0.021869 0.286408
0.420704 0.023043 0.284775
0.422505 0.023043 0.284308
0.424345 0.024220 0.282672
0.426189 0.025399 0.281033
0.428036 0.026580 0.279391
0.429931 0.028950 0.276567
0.431833 0.031329 0.273731
0.433743 0.033717 0.270884
0.435611 0.034914 0.269221
0.437586 0.038521 0.265157
0.439464 0.039728 0.263481
0.441402 0.042149 0.260594
0.443348 0.044580 0.257696
0.445302 0.047021 0.254786
0.447201 0.048245 0.253089
0.449232 0.051931 0.248932
0.451209 0.054400 0.245988
0.453194 0.056880 0.243031
0.455187 0.059370 0.240063
0.457188 0.061869 0.237083
0.459197 0.064379 0.234091
0.461137 0.065637 0.232348
0.463160 0.068162 0.229337
0.465191 0.070697 0.226314
0.467314 0.074519 0.222000
0.469450 0.078364 0.217660
0.471600 0.082233 0.213293
0.473762 0.086126 0.208900
0.475938 0.090042 0.204479
0.478223 0.095302 0.198707
0.480926 0.105952 0.187519
0.484301 0.125023 0.167864
0.489233 0.163440 0.128756
0.492650 0.181246 0.110335
0.037809 -0.079549 0.482677
0.039460 -0.079549 0.482249
0.040804 -0.078563 0.480927
0.042150 -0.077575 0.479603
0.043803 -0.077575 0.479174
0.045154 -0.076585 0.477847
0.046809 -0.076585 0.477418
0.048163 -0.075593 0.476088
0.049519 -0.074599 0.474756
0.051177 -0.074599 0.474326
0.052538 -0.073604 0.472991
0.053901 -0.072607 0.471653
0.055562 -0.072607 0.471222
0.056929 -0.071608 0.469882
0.058298 -0.070607 0.468540
0.059962 -0.070607 0.468108
0.061335 -0.069605 0.466763
0.063001 -0.069605 0.466331
0.064378 -0.068600 0.464983
0.065758 -0.067594 0.463632
0.067426 -0.067594 0.463199
0.068810 -0.066586 0.461846
0.070480 -0.066586 0.461413
0.071867 -0.065576 0.460056
0.073258 -0.064565 0.458697
0.074931 -0.064565 0.458264
0.076325 -0.063551 0.456902
0.077722 -0.062536 0.455538
0.079398 -0.062536 0.455103
0.080798 -0.061519 0.453736
0.082202 -0.060500 0.452367
0.083608 -0.059479 0.450995
0.085016 -0.058457 0.449620
0.086698 -0.058457 0.449184
0.088111 -0.057432 0.447807
0.089795 -0.057432 0.447370
0.091211 -0.056406 0.445990
0.092896 -0.056406 0.445553
0.094317 -0.055377 0.444170
0.096004 -0.055377 0.443733
0.097429 -0.054347 0.442347
0.098595 -0.052281 0.440005
0.100286 -0.052281 0.439567
0.101719 -0.051246 0.438173
0.103412 -0.051246 0.437734
0.104849 -0.050208 0.436338
0.106543 -0.050208 0.435898
0.107984 -0.049169 0.434499
0.109428 -0.048127 0.433096
0.111126 -0.048127 0.432656
0.112823 -0.048127 0.432216
0.114273 -0.047084 0.430811
0.115971 -0.047084 0.430370
0.117425 -0.046038 0.428961
0.118882 -0.044991 0.427550
0.120584 -0.044991 0.427109
0.122044 -0.043942 0.425695
0.123748 -0.043942 0.425253
0.125213 -0.042891 0.423836
0.126681 -0.041838 0.422416
0.128387 -0.041838 0.421974
0.129859 -0.040783 0.420551
0.131568 -0.040783 0.420108
0.133044 -0.039726 0.418682
0.134523 -0.038667 0.417254
0.136234 -0.038667 0.416810
0.137718 -0.037606 0.415378
0.139204 -0.036544 0.413944
0.140693 -0.035479 0.412507
0.142184 -0.034412 0.411068
0.143902 -0.034412 0.410622
0.145398 -0.033343 0.409180
0.146897 -0.032273 0.407734
0.148618 -0.032273 0.407288
0.150121 -0.031200 0.405840
0.151843 -0.031200 0.405393
0.153351 -0.030125 0.403942
0.154861 -0.029049 0.402487
0.156587 -0.029049 0.402040
0.158102 -0.027970 0.400583
0.159619 -0.026889 0.399123
0.161348 -0.026889 0.398674
0.163077 -0.026889 0.398226
0.164601 -0.025806 0.396762
0.166127 -0.024722 0.395296
0.167657 -0.023635 0.393827
0.169189 -0.022546 0.392355
0.170724 -0.021455 0.390880
0.172262 -0.020362 0.389403
0.174001 -0.020362 0.388952
0.175543 -0.019267 0.387472
0.177089 -0.018170 0.385988
0.178831 -0.018170 0.385537
0.180381 -0.017071 0.384050
0.181934 -0.015970 0.382561
0.183679 -0.015970 0.382108
0.185424 -0.015970 0.381655
0.186983 -0.014867 0.380162
0.188545 -0.013761 0.378667
0.190294 -0.013761 0.378213
0.191678 -0.011544 0.375666
0.193249 -0.010433 0.374162
0.195003 -0.010433 0.373707
0.196578 -0.009319 0.372200
0.198157 -0.008203 0.370689
0.199738 -0.007085 0.369176
0.201497 -0.007085 0.368720
0.203083 -0.005965 0.367203
0.204672 -0.004843 0.365683
0.206265 -0.003719 0.364161
0.207860 -0.002592 0.362635
0.209458 -0.001464 0.361107
0.211060 -0.000333 0.359576
0.212664 0.000800 0.358042
0.214272 0.001935 0.356505
0.215882 0.003073 0.354965
0.217656 0.003073 0.354505
0.219271 0.004212 0.352961
0.220890 0.005354 0.351415
0.222512 0.006498 0.349866
0.224136 0.007644 0.348313
0.225764 0.008792 0.346758
0.227395 0.009943 0.345200
0.229029 0.011095 0.343639
0.230666 0.012250 0.342074
0.232307 0.013407 0.340507
0.233951 0.014567 0.338936
0.235597 0.015728 0.337363
0.237247 0.016892 0.335787
0.238900 0.018058 0.334207
0.240557 0.019227 0.332624
0.242216 0.020398 0.331039
0.244016 0.020398 0.330572
0.245681 0.021571 0.328983
0.247349 0.022746 0.327391
0.249020 0.023923 0.325795
0.250694 0.025103 0.324197
0.252242 0.027470 0.321460
0.254053 0.027470 0.320990
0.255737 0.028657 0.319382
0.257424 0.029846 0.317771
0.259115 0.031037 0.316157
0.260809 0.032231 0.314540
0.262507 0.033427 0.312919
0.264207 0.034625 0.311295
0.265911 0.035826 0.309668
0.267619 0.037029 0.308038
0.269330 0.038235 0.306405
0.271044 0.039443 0.304768
0.272762 0.040653 0.303128
0.274483 0.041866 0.301485
0.276207 0.043081 0.299839
0.277935 0.044299 0.298189
0.279666 0.045519 0.296536
0.281503 0.045519 0.296060
0.283441 0.044299 0.296762
0.285375 0.043081 0.297462
0.287305 0.041866 0.298161
0.289231 0.040653 0.298858
0.291245 0.038235 0.300722
0.293162 0.037029 0.301415
0.295075 0.035826 0.302106
0.296984 0.034625 0.302796
0.298973 0.032231 0.304644
0.300873 0.031037 0.305329
0.302768 0.029846 0.306014
0.304739 0.027470 0.307847
0.306625 0.026285 0.308527
0.308508 0.025103 0.309206
0.310387 0.023923 0.309883
0.312263 0.022746 0.310559
0.314203 0.020398 0.312373
0.316069 0.019227 0.313044
0.317932 0.018058 0.313714
0.319791 0.016892 0.314383
0.321586 0.016892 0.313918
0.323439 0.015728 0.314586
0.325290 0.014567 0.315253
0.327081 0.014567 0.314788
0.328925 0.013407 0.315454
0.330767 0.012250 0.316119
0.332605 0.011095 0.316782
0.334390 0.011095 0.316319
0.336223 0.009943 0.316981
0.338052 0.008792 0.317642
0.339834 0.008792 0.317180
0.341616 0.008792 0.316718
0.343439 0.007644 0.317379
0.345257 0.006498 0.318038
0.347036 0.006498 0.317577
0.348849 0.005354 0.318236
0.350626 0.005354 0.317775
0.352435 0.004212 0.318433
0.354210 0.004212 0.317972
0.355986 0.004212 0.317512
0.357787 0.003073 0.318169
0.359561 0.003073 0.317710
0.361335 0.003073 0.317250
0.363108 0.003073 0.316790
0.364882 0.003073 0.316330
0.366673 0.001935 0.316988
0.368445 0.001935 0.316528
0.370217 0.001935 0.316069
0.371990 0.001935 0.315609
0.373762 0.001935 0.315150
0.375534 0.001935 0.314690
0.377299 0.003073 0.313110
0.379073 0.003073 0.312650
0.380846 0.003073 0.312190
0.382618 0.004212 0.310606
0.384394 0.004212 0.310146
0.386169 0.004212 0.309686
0.387948 0.005354 0.308098
0.389725 0.005354 0.307637
0.391509 0.006498 0.306045
0.393288 0.006498 0.305584
0.395077 0.007644 0.303989
0.396857 0.007644 0.303528
0.398651 0.008792 0.301929
0.400449 0.009943 0.300328
0.402233 0.009943 0.299865
0.404036 0.011095 0.298260
0.405842 0.012250 0.296652
0.407652 0.013407 0.295041
0.409441 0.013407 0.294577
0.411256 0.014567 0.292962
0.413074 0.015728 0.291344
0.414896 0.016892 0.289723
0.416722 0.018058 0.288099
0.418551 0.019227 0.286471
0.420383 0.020398 0.284841
0.422220 0.021571 0.283207
0.424059 0.022746 0.281570
0.425903 0.023923 0.279930
0.427792 0.026285 0.277109
0.429644 0.027470 0.275460
0.431546 0.029846 0.272622
0.433455 0.032231 0.269773
0.435372 0.034625 0.266913
0.437296 0.037029 0.264041
0.439228 0.039443 0.261159
0.441112 0.040653 0.259476
0.443058 0.043081 0.256575
0.445011 0.045519 0.253663
0.447033 0.049193 0.249513
0.449004 0.051655 0.246572
0.450916 0.052889 0.244858
0.452901 0.055366 0.241899
0.454893 0.057853 0.238928
0.456893 0.060349 0.235946
0.458902 0.062856 0.232952
0.460918 0.065372 0.229945
0.462943 0.067899 0.226926
0.464894 0.069167 0.225170
0.467017 0.072984 0.220852
0.469152 0.076824 0.216508
0.471300 0.080688 0.212138
0.473462 0.084576 0.207741
0.475636 0.088488 0.203317
0.477921 0.093741 0.197540
0.480422 0.101702 0.189034
0.483782 0.120670 0.169444
0.488463 0.155970 0.133393
0.491272 0.166198 0.122570
0.035181 -0.083844 0.485195
0.036518 -0.082864 0.483879
0.037857 -0.081882 0.482561
0.039506 -0.081882 0.482133
0.040848 -0.080899 0.480812
0.042194 -0.079913 0.479489
0.043846 -0.079913 0.479061
0.045195 -0.078926 0.477735
0.046848 -0.078926 0.477306
0.048201 -0.077938 0.475977
0.049557 -0.076947 0.474646
0.051213 -0.076947 0.474216
0.052572 -0.075955 0.472882
0.053934 -0.074960 0.471546
0.055594 -0.074960 0.471116
0.056959 -0.073965 0.469776
0.058327 -0.072967 0.468435
0.059990 -0.072967 0.468004
0.061362 -0.071967 0.466660
0.063026 -0.071967 0.466228
0.064402 -0.070966 0.464881
0.065780 -0.069963 0.463531
0.067447 -0.069963 0.463099
0.068830 -0.068958 0.461747
0.070498 -0.068958 0.461314
0.071885 -0.067951 0.459959
0.073274 -0.066943 0.458601
0.074945 -0.066943 0.458168
0.076338 -0.065932 0.456807
0.077734 -0.064920 0.455444
0.079408 -0.064920 0.455010
0.080808 -0.063906 0.453644
0.082210 -0.062890 0.452276
0.083342 -0.060853 0.449968
0.085022 -0.060853 0.449532
0.086432 -0.059832 0.448156
0.087844 -0.058808 0.446778
0.089528 -0.058808 0.446341
0.090944 -0.057783 0.444960
0.092629 -0.057783 0.444523
0.094050 -0.056756 0.443139
0.095736 -0.056756 0.442702
0.097161 -0.055727 0.441315
0.098327 -0.053664 0.438971
0.100018 -0.053664 0.438533
0.101451 -0.052630 0.437138
0.103144 -0.052630 0.436699
0.104580 -0.051593 0.435302
0.106275 -0.051593 0.434862
0.107716 -0.050555 0.433462
0.109159 -0.049515 0.432059
0.110856 -0.049515 0.431619
0.112304 -0.048473 0.430212
0.114003 -0.048473 0.429772
0.115455 -0.047429 0.428363
0.117156 -0.047429 0.427922
0.118612 -0.046383 0.426510
0.120314 -0.046383 0.426068
0.121774 -0.045335 0.424653
0.123238 -0.044285 0.423236
0.124943 -0.044285 0.422794
0.126410 -0.043233 0.421373
0.128117 -0.043233 0.420930
0.129589 -0.042180 0.419506
0.131297 -0.042180 0.419063
0.133005 -0.042180 0.418620
0.134483 -0.041124 0.417193
0.135963 -0.040066 0.415763
0.137446 -0.039007 0.414331
0.138932 -0.037945 0.412896
0.140647 -0.037945 0.412451
0.142137 -0.036882 0.411013
0.143630 -0.035817 0.409572
0.145347 -0.035817 0.409127
0.146845 -0.034749 0.407683
0.148345 -0.033680 0.406236
0.150066 -0.033680 0.405790
0.151570 -0.032608 0.404340
0.153077 -0.031535 0.402888
0.154802 -0.031535 0.402440
0.156313 -0.030460 0.400985
0.158039 -0.030460 0.400537
0.159555 -0.029382 0.399079
0.161074 -0.028303 0.397617
0.162803 -0.028303 0.397169
0.164327 -0.027221 0.395704
0.166057 -0.027221 0.395256
0.167585 -0.026138 0.393788
0.169116 -0.025052 0.392317
0.170850 -0.025052 0.391868
0.172385 -0.023965 0.390394
0.173923 -0.022875 0.388918
0.175464 -0.021784 0.387438
0.177008 -0.020690 0.385956
0.178555 -0.019595 0.384472
0.180104 -0.018497 0.382984
0.181848 -0.018497 0.382532
0.183592 -0.018497 0.382080
0.185148 -0.017397 0.380588
0.186893 -0.017397 0.380136
0.188268 -0.015191 0.377598
0.189833 -0.014085 0.376098
0.191401 -0.012977 0.374595
0.193153 -0.012977 0.374141
0.194725 -0.011867 0.372635
0.196300 -0.010754 0.371126
0.197878 -0.009640 0.369615
0.199460 -0.008523 0.368101
0.201044 -0.007404 0.366583
0.202804 -0.007404 0.366127
0.204393 -0.006283 0.364606
0.205985 -0.005161 0.363083
0.207580 -0.004035 0.361556
0.209178 -0.002908 0.360027
0.210779 -0.001779 0.358495
0.212548 -0.001779 0.358036
0.214154 -0.000647 0.356501
0.215763 0.000487 0.354962
0.217375 0.001623 0.353420
0.218990 0.002761 0.351876
0.220608 0.003901 0.350329
0.222230 0.005043 0.348778
0.224008 0.005043 0.348317
0.225635 0.006188 0.346763
0.227264 0.007335 0.345206
0.228896 0.008484 0.343647
0.230532 0.009635 0.342084
0.232171 0.010789 0.340518
0.233813 0.011945 0.338949
0.235458 0.013103 0.337377
0.237106 0.014263 0.335802
0.238757 0.015425 0.334224
0.240412 0.016590 0.332643
0.242070 0.017757 0.331059
0.243731 0.018926 0.329472
0.245395 0.020098 0.327882
0.247063 0.021272 0.326288
0.248734 0.022448 0.324692
0.250538 0.022448 0.324224
0.252214 0.023626 0.322624
0.253893 0.024807 0.321020
0.255576 0.025990 0.319414
0.257137 0.028363 0.316662
0.258827 0.029553 0.315047
0.260643 0.029553 0.314576
0.262338 0.030745 0.312957
0.264037 0.031940 0.311335
0.265740 0.033137 0.309710
0.267445 0.034336 0.308081
0.269154 0.035538 0.306450
0.270867 0.036742 0.304815
0.272582 0.037948 0.303177
0.274302 0.039157 0.301535
0.276024 0.040369 0.299891
0.277750 0.041582 0.298243
0.279479 0.042798 0.296591
0.281212 0.044017 0.294937
0.283150 0.042798 0.295640
0.285183 0.040369 0.297516
0.287111 0.039157 0.298214
0.289035 0.037948 0.298910
0.291048 0.035538 0.300773
0.292963 0.034336 0.301465
0.294874 0.033137 0.302155
0.296781 0.031940 0.302845
0.298769 0.029553 0.304690
0.300667 0.028363 0.305375
0.302561 0.027175 0.306059
0.304530 0.024807 0.307891
0.306415 0.023626 0.308570
0.308296 0.022448 0.309247
0.310174 0.021272 0.309924
0.312048 0.020098 0.310599
0.313918 0.018926 0.311273
0.315851 0.016590 0.313082
0.317712 0.015425 0.313752
0.319570 0.014263 0.314420
0.321424 0.013103 0.315086
0.323274 0.011945 0.315752
0.325063 0.011945 0.315288
0.326908 0.010789 0.315953
0.328696 0.010789 0.315489
0.330536 0.009635 0.316153
0.332372 0.008484 0.316816
0.334156 0.008484 0.316353
0.335987 0.007335 0.317015
0.337814 0.006188 0.317675
0.339595 0.006188 0.317214
0.341417 0.005043 0.317873
0.343196 0.005043 0.317412
0.345013 0.003901 0.318071
0.346790 0.003901 0.317610
0.348602 0.002761 0.318268
0.350411 0.001623 0.318925
0.352184 0.001623 0.318465
0.353988 0.000487 0.319121
0.355760 0.000487 0.318661
0.357532 0.000487 0.318202
0.359304 0.000487 0.317742
0.361076 0.000487 0.317283
0.362848 0.000487 0.316823
0.364639 -0.000647 0.317480
0.366427 -0.001779 0.318136
0.368196 -0.001779 0.317677
0.369951 -0.000647 0.316103
0.371721 -0.000647 0.315644
0.373491 -0.000647 0.315185
0.375262 -0.000647 0.314726
0.377025 0.000487 0.313147
0.378797 0.000487 0.312688
0.380569 0.000487 0.312228
0.382339 0.001623 0.310646
0.384113 0.001623 0.310186
0.385888 0.002761 0.308600
0.387663 0.002761 0.308140
0.389439 0.002761 0.307679
0.391221 0.003901 0.306090
0.392998 0.003901 0.305629
0.394775 0.003901 0.305168
0.396564 0.005043 0.303574
0.398356 0.006188 0.301977
0.400151 0.007335 0.300377
0.401934 0.007335 0.299915
0.403734 0.008484 0.298312
0.405539 0.009635 0.296705
0.407346 0.010789 0.295096
0.409157 0.011945 0.293483
0.410972 0.013103 0.291867
0.412790 0.014263 0.290248
0.414612 0.015425 0.288626
0.416406 0.015425 0.288161
0.418233 0.016590 0.286535
0.420064 0.017757 0.284906
0.421898 0.018926 0.283274
0.423735 0.020098 0.281639
0.425616 0.022448 0.278827
0.427505 0.024807 0.276004
0.429357 0.025990 0.274353
0.431304 0.029553 0.270324
0.433167 0.030745 0.268662
0.435083 0.033137 0.265800
0.437007 0.035538 0.262926
0.438885 0.036742 0.261248
0.440822 0.039157 0.258357
0.442767 0.041582 0.255454
0.444719 0.044017 0.252540
0.446741 0.047687 0.248386
0.448711 0.050146 0.245443
0.450689 0.052614 0.242489
0.452675 0.055093 0.239522
0.454599 0.056336 0.237794
0.456599 0.058829 0.234809
0.458606 0.061333 0.231813
0.460622 0.063846 0.228804
0.462646 0.066370 0.225783
0.464678 0.068904 0.222750
0.466719 0.071448 0.219704
0.468853 0.075284 0.215357
0.471000 0.079143 0.210983
0.473161 0.083026 0.206582
0.475335 0.086933 0.202154
0.477618 0.092180 0.196373
0.480117 0.100132 0.187860
0.483266 0.116336 0.171016
0.487811 0.150002 0.136540
0.490376 0.157236 0.128720
0.494404 0.182429 0.102757
0.029982 -0.085190 0.485469
0.031941 -0.086167 0.485930
0.033586 -0.086167 0.485503
0.034920 -0.085190 0.484189
0.036566 -0.085190 0.483762
0.037904 -0.084211 0.482445
0.039551 -0.084211 0.482018
0.040893 -0.083230 0.480698
0.042237 -0.082248 0.479375
0.043888 -0.082248 0.478947
0.045236 -0.081264 0.477622
0.046888 -0.081264 0.477194
0.048240 -0.080278 0.475866
0.049594 -0.079291 0.474536
0.051249 -0.079291 0.474107
0.052607 -0.078301 0.472774
0.053968 -0.077310 0.471439
0.055625 -0.077310 0.471009
0.056990 -0.076317 0.469671
0.058357 -0.075322 0.468331
0.060018 -0.075322 0.467900
0.061389 -0.074326 0.466557
0.063051 -0.074326 0.466126
0.064426 -0.073328 0.464779
0.066090 -0.073328 0.464348
0.067469 -0.072328 0.462999
0.068850 -0.071326 0.461648
0.070234 -0.070322 0.460294
0.071902 -0.070322 0.459862
0.073290 -0.069316 0.458505
0.074680 -0.068309 0.457146
0.076073 -0.067300 0.455785
0.077746 -0.067300 0.455351
0.079143 -0.066289 0.453987
0.080542 -0.065276 0.452620
0.081944 -0.064262 0.451250
0.083349 -0.063245 0.449879
0.084756 -0.062227 0.448505
0.086436 -0.062227 0.448069
0.087847 -0.061207 0.446692
0.089529 -0.061207 0.446255
0.090944 -0.060185 0.444875
0.092362 -0.059161 0.443493
0.093782 -0.058135 0.442108
0.095469 -0.058135 0.441671
0.096894 -0.057108 0.440283
0.098582 -0.057108 0.439845
0.099750 -0.055047 0.437499
0.101441 -0.055047 0.437061
0.102875 -0.054014 0.435665
0.104568 -0.054014 0.435226
0.106006 -0.052978 0.433827
0.107447 -0.051941 0.432425
0.109143 -0.051941 0.431985
0.110587 -0.050902 0.430581
0.112285 -0.050902 0.430141
0.113734 -0.049862 0.428733
0.115433 -0.049862 0.428293
0.116886 -0.048819 0.426882
0.118342 -0.047774 0.425469
0.120044 -0.047774 0.425028
0.121504 -0.046728 0.423612
0.123208 -0.046728 0.423170
0.124672 -0.045679 0.421751
0.126378 -0.045679 0.421309
0.127846 -0.044629 0.419887
0.129553 -0.044629 0.419444
0.131026 -0.043576 0.418019
0.132734 -0.043576 0.417576
0.134212 -0.042522 0.416148
0.135692 -0.041466 0.414717
0.137403 -0.041466 0.414273
0.138888 -0.040407 0.412840
0.140375 -0.039347 0.411403
0.142090 -0.039347 0.410958
0.143581 -0.038285 0.409519
0.145075 -0.037221 0.408077
0.146793 -0.037221 0.407631
0.148292 -0.036155 0.406186
0.149793 -0.035087 0.404738
0.151514 -0.035087 0.404291
0.153020 -0.034017 0.402840
0.154528 -0.032945 0.401386
0.156253 -0.032945 0.400939
0.157766 -0.031871 0.399482
0.159492 -0.031871 0.399035
0.161009 -0.030794 0.397575
0.162736 -0.030794 0.397127
0.164258 -0.029716 0.395663
0.165783 -0.028636 0.394197
0.167514 -0.028636 0.393749
0.169043 -0.027554 0.392280
0.170775 -0.027554 0.391830
0.172309 -0.026470 0.390358
0.173845 -0.025384 0.388883
0.175385 -0.024296 0.387405
0.176927 -0.023205 0.385924
0.178472 -0.022113 0.384441
0.180213 -0.022113 0.383990
0.181572 -0.019922 0.381466
0.183315 -0.019922 0.381014
0.185059 -0.019922 0.380562
0.186616 -0.018824 0.379069
0.187991 -0.016621 0.376528
0.189555 -0.015516 0.375028
0.191306 -0.015516 0.374574
0.192875 -0.014409 0.373070
0.194447 -0.013300 0.371563
0.196022 -0.012189 0.370053
0.197600 -0.011076 0.368541
0.199181 -0.009961 0.367025
0.200940 -0.009961 0.366569
0.202525 -0.008843 0.365051
0.204114 -0.007724 0.363529
0.205706 -0.006602 0.362005
0.207300 -0.005479 0.360477
0.208898 -0.004353 0.358947
0.210665 -0.004353 0.358489
0.212268 -0.003225 0.356955
0.213873 -0.002095 0.355418
0.215482 -0.000962 0.353879
0.217254 -0.000962 0.353419
0.218868 0.000172 0.351876
0.220484 0.001309 0.350330
0.222104 0.002448 0.348781
0.223726 0.003589 0.347229
0.225352 0.004732 0.345675
0.226981 0.005878 0.344117
0.228614 0.007025 0.342556
0.230398 0.007025 0.342093
0.232035 0.008175 0.340529
0.233675 0.009327 0.338962
0.235318 0.010482 0.337391
0.236965 0.011638 0.335818
0.238614 0.012797 0.334241
0.240267 0.013958 0.332662
0.241923 0.015122 0.331079
0.243583 0.016287 0.329494
0.245245 0.017455 0.327905
0.246911 0.018625 0.326313
0.248580 0.019797 0.324718
0.250252 0.020972 0.323120
0.251928 0.022149 0.321519
0.253607 0.023328 0.319915
0.255289 0.024510 0.318307
0.257099 0.024510 0.317838
0.258786 0.025694 0.316227
0.260355 0.028069 0.313466
0.262050 0.029259 0.311846
0.263749 0.030453 0.310223
0.265451 0.031648 0.308597
0.267272 0.031648 0.308125
0.268979 0.032846 0.306495
0.270690 0.034046 0.304861
0.272403 0.035249 0.303225
0.274121 0.036454 0.301585
0.275841 0.037661 0.299942
0.277565 0.038871 0.298296
0.279293 0.040083 0.296646
0.281024 0.041298 0.294994
0.282960 0.040083 0.295695
0.284892 0.038871 0.296396
0.286917 0.036454 0.298267
0.288840 0.035249 0.298963
0.290759 0.034046 0.299657
0.292764 0.031648 0.301514
0.294674 0.030453 0.302204
0.296580 0.029259 0.302893
0.298481 0.028069 0.303580
0.300462 0.025694 0.305421
0.302355 0.024510 0.306104
0.304243 0.023328 0.306785
0.306205 0.020972 0.308612
0.308085 0.019797 0.309289
0.309961 0.018625 0.309965
0.311833 0.017455 0.310639
0.313702 0.016287 0.311312
0.315634 0.013958 0.313120
0.317493 0.012797 0.313789
0.319349 0.011638 0.314456
0.321201 0.010482 0.315122
0.323050 0.009327 0.315787
0.324895 0.008175 0.316451
0.326681 0.008175 0.315988
0.328521 0.007025 0.316650
0.330305 0.007025 0.316188
0.332140 0.005878 0.316850
0.333971 0.004732 0.317510
0.335751 0.004732 0.317049
0.337577 0.003589 0.317708
0.339400 0.002448 0.318367
0.341177 0.002448 0.317906
0.342994 0.001309 0.318564
0.344770 0.001309 0.318103
0.346582 0.000172 0.318760
0.348356 0.000172 0.318300
0.350162 -0.000962 0.318956
0.351966 -0.002095 0.319611
0.353736 -0.002095 0.319152
0.355507 -0.002095 0.318693
0.357277 -0.002095 0.318234
0.359047 -0.002095 0.317775
0.360841 -0.003225 0.318430
0.362609 -0.003225 0.317972
0.364378 -0.003225 0.317513
0.366165 -0.004353 0.318168
0.367932 -0.004353 0.317710
0.369699 -0.004353 0.317252
0.371466 -0.004353 0.316794
0.373222 -0.003225 0.315220
0.374990 -0.003225 0.314761
0.376759 -0.003225 0.314303
0.378522 -0.002095 0.312725
0.380292 -0.002095 0.312266
0.382063 -0.002095 0.311807
0.383833 -0.000962 0.310226
0.385605 -0.000962 0.309766
0.387379 0.000172 0.308182
0.389153 0.000172 0.307722
0.390933 0.001309 0.306134
0.392708 0.001309 0.305673
0.394484 0.001309 0.305213
0.396271 0.002448 0.303621
0.398061 0.003589 0.302025
0.399854 0.004732 0.300427
0.401651 0.005878 0.298826
0.403433 0.005878 0.298363
0.405236 0.007025 0.296758
0.407041 0.008175 0.295150
0.408850 0.009327 0.293539
0.410663 0.010482 0.291925
0.412479 0.011638 0.290308
0.414299 0.012797 0.288687
0.416122 0.013958 0.287064
0.417948 0.015122 0.285437
0.419779 0.016287 0.283807
0.421613 0.017455 0.282174
0.423450 0.018625 0.280537
0.425330 0.020972 0.277723
0.427218 0.023328 0.274898
0.429114 0.025694 0.272062
0.431016 0.028069 0.269215
0.432926 0.030453 0.266356
0.434844 0.032846 0.263486
0.436718 0.034046 0.261811
0.438649 0.036454 0.258923
0.440532 0.037661 0.257238
0.442534 0.041298 0.253115
0.444428 0.042515 0.251417
0.446449 0.046180 0.247260
0.448419 0.048636 0.244315
0.450396 0.051102 0.241358
0.452381 0.053577 0.238389
0.454375 0.056063 0.235409
0.456376 0.058558 0.232416
0.458311 0.059810 0.230674
0.460326 0.062320 0.227663
0.462350 0.064841 0.224639
0.464381 0.067372 0.221604
0.466421 0.069913 0.218556
0.468555 0.073744 0.214205
0.470701 0.077598 0.209828
0.472861 0.081477 0.205423
0.475034 0.085379 0.200992
0.477411 0.091936 0.193876
0.479813 0.098561 0.186686
0.482854 0.113382 0.171206
0.486616 0.136971 0.146848
0.489717 0.151251 0.131888
0.492767 0.164370 0.118093
0.027064 -0.088486 0.487089
0.029023 -0.089458 0.487547
0.030978 -0.090429 0.488005
0.032306 -0.089458 0.486696
0.033637 -0.088486 0.485385
0.034970 -0.087512 0.484071
0.036614 -0.087512 0.483645
0.037951 -0.086536 0.482329
0.039597 -0.086536 0.481902
0.040938 -0.085558 0.480583
0.042281 -0.084579 0.479262
0.043930 -0.084579 0.478834
0.045277 -0.083597 0.477510
0.046927 -0.083597 0.477083
0.048278 -0.082615 0.475756
0.049631 -0.081630 0.474427
0.051284 -0.081630 0.473998
0.052641 -0.080644 0.472666
0.054001 -0.079655 0.471332
0.055657 -0.079655 0.470903
0.057020 -0.078665 0.469566
0.058386 -0.077674 0.468226
0.059754 -0.076680 0.466885
0.061415 -0.076680 0.466454
0.062788 -0.075685 0.465109
0.064450 -0.075685 0.464678
0.065826 -0.074688 0.463331
0.067205 -0.073689 0.461981
0.068586 -0.072688 0.460629
0.070253 -0.072688 0.460197
0.071638 -0.071686 0.458842
0.073025 -0.070682 0.457484
0.074415 -0.069676 0.456124
0.075808 -0.068668 0.454762
0.077481 -0.068668 0.454328
0.078601 -0.066646 0.452030
0.080277 -0.066646 0.451595
0.081678 -0.065633 0.450225
0.083082 -0.064618 0.448852
0.084761 -0.064618 0.448417
0.086170 -0.063601 0.447041
0.087850 -0.063601 0.446606
0.089263 -0.062582 0.445227
0.090944 -0.062582 0.444791
0.092361 -0.061561 0.443410
0.093780 -0.060539 0.442026
0.095465 -0.060539 0.441589
0.096888 -0.059514 0.440202
0.098314 -0.058488 0.438813
0.100002 -0.058488 0.438375
0.101173 -0.056429 0.436027
0.102607 -0.055397 0.434630
0.104300 -0.055397 0.434191
0.105738 -0.054364 0.432791
0.107432 -0.054364 0.432352
0.108874 -0.053328 0.430949
0.110570 -0.053328 0.430509
0.112016 -0.052290 0.429103
0.113465 -0.051251 0.427695
0.115164 -0.051251 0.427254
0.116617 -0.050209 0.425843
0.118317 -0.050209 0.425402
0.119774 -0.049166 0.423987
0.121476 -0.049166 0.423546
0.122938 -0.048120 0.422129
0.124642 -0.048120 0.421687
0.126107 -0.047073 0.420266
0.127576 -0.046024 0.418843
0.129283 -0.046024 0.418401
0.130989 -0.046024 0.417958
0.132464 -0.044973 0.416532
0.133941 -0.043920 0.415103
0.135651 -0.043920 0.414659
0.137132 -0.042865 0.413227
0.138616 -0.041808 0.411792
0.140329 -0.041808 0.411348
0.141818 -0.040749 0.409910
0.143532 -0.040749 0.409466
0.145025 -0.039688 0.408025
0.146521 -0.038625 0.406581
0.148239 -0.038625 0.406135
0.149739 -0.037561 0.404689
0.151241 -0.036494 0.403239
0.152962 -0.036494 0.402793
0.154469 -0.035425 0.401340
0.155979 -0.034354 0.399885
0.157704 -0.034354 0.399438
0.159218 -0.033282 0.397980
0.160735 -0.032207 0.396519
0.162463 -0.032207 0.396071
0.164190 -0.032207 0.395623
0.165713 -0.031130 0.394158
0.167239 -0.030051 0.392691
0.168970 -0.030051 0.392242
0.170501 -0.028970 0.390771
0.172233 -0.028970 0.390322
0.173768 -0.027888 0.388848
0.175306 -0.026803 0.387372
0.176847 -0.025716 0.385893
0.178584 -0.025716 0.385442
0.180129 -0.024627 0.383960
0.181677 -0.023536 0.382474
0.183229 -0.022443 0.380986
0.184783 -0.021348 0.379496
0.186340 -0.020251 0.378002
0.187900 -0.019152 0.376505
0.189462 -0.018050 0.375006
0.191028 -0.016947 0.373504
0.192597 -0.015841 0.371999
0.194169 -0.014734 0.370491
0.195744 -0.013624 0.368980
0.197321 -0.012513 0.367467
0.199078 -0.012513 0.367011
0.200661 -0.011399 0.365494
0.202246 -0.010283 0.363975
0.203835 -0.009165 0.362452
0.205426 -0.008044 0.360926
0.207020 -0.006922 0.359398
0.208786 -0.006922 0.358940
0.210385 -0.005797 0.357408
0.211987 -0.004671 0.355874
0.213593 -0.003542 0.354336
0.215363 -0.003542 0.353877
0.216973 -0.002411 0.352336
0.218586 -0.001278 0.350792
0.220203 -0.000143 0.349245
0.221822 0.000995 0.347695
0.223444 0.002135 0.346142
0.225223 0.002135 0.345681
0.226851 0.003277 0.344124
0.228481 0.004421 0.342565
0.230115 0.005567 0.341003
0.231752 0.006715 0.339437
0.233391 0.007866 0.337869
0.235179 0.007866 0.337405
0.236824 0.009019 0.335834
0.238472 0.010174 0.334259
0.240123 0.011332 0.332681
0.241777 0.012491 0.331100
0.243435 0.013653 0.329516
0.245096 0.014817 0.327928
0.246760 0.015984 0.326338
0.248427 0.017152 0.324745
0.250097 0.018323 0.323148
0.251771 0.019497 0.321549
0.253448 0.020672 0.319946
0.255129 0.021850 0.318340
0.256812 0.023030 0.316731
0.258499 0.024212 0.315119
0.260189 0.025397 0.313504
0.262003 0.025397 0.313034
0.263698 0.026584 0.311415
0.265280 0.028965 0.308639
0.266983 0.030159 0.307011
0.268804 0.030159 0.306539
0.270513 0.031356 0.304908
0.272225 0.032555 0.303273
0.273940 0.033756 0.301635
0.275659 0.034959 0.299993
0.277381 0.036165 0.298349
0.279107 0.037373 0.296701
0.280836 0.038584 0.295050
0.282669 0.038584 0.294575
0.284701 0.036165 0.296451
0.286628 0.034959 0.297149
0.288645 0.032555 0.299015
0.290562 0.031356 0.299709
0.292476 0.030159 0.300401
0.294474 0.027774 0.302253
0.296378 0.026584 0.302941
0.298278 0.025397 0.303628
0.300175 0.024212 0.304313
0.302148 0.021850 0.306148
0.304036 0.020672 0.306829
0.305919 0.019497 0.307509
0.307874 0.017152 0.309331
0.309748 0.015984 0.310006
0.311619 0.014817 0.310679
0.313486 0.013653 0.311352
0.315349 0.012491 0.312023
0.317274 0.010174 0.313826
0.319128 0.009019 0.314492
0.320979 0.007866 0.315158
0.322826 0.006715 0.315822
0.324670 0.005567 0.316485
0.326510 0.004421 0.317146
0.328292 0.004421 0.316684
0.330127 0.003277 0.317345
0.331908 0.003277 0.316883
0.333738 0.002135 0.317543
0.335564 0.000995 0.318202
0.337341 0.000995 0.317741
0.339162 -0.000143 0.318399
0.340937 -0.000143 0.317939
0.342753 -0.001278 0.318596
0.344527 -0.001278 0.318136
0.346337 -0.002411 0.318792
0.348144 -0.003542 0.319447
0.349915 -0.003542 0.318988
0.351717 -0.004671 0.319642
0.353485 -0.004671 0.319184
0.355282 -0.005797 0.319837
0.357049 -0.005797 0.319379
0.358816 -0.005797 0.318921
0.360583 -0.005797 0.318463
0.362350 -0.005797 0.318004
0.364117 -0.005797 0.317546
0.365902 -0.006922 0.318200
0.367668 -0.006922 0.317743
0.369433 -0.006922 0.317285
0.371198 -0.006922 0.316827
0.372953 -0.005797 0.315255
0.374720 -0.005797 0.314797
0.376487 -0.005797 0.314339
0.378248 -0.004671 0.312763
0.380016 -0.004671 0.312304
0.381785 -0.004671 0.311846
0.383553 -0.003542 0.310266
0.385323 -0.003542 0.309807
0.387096 -0.002411 0.308224
0.388868 -0.002411 0.307764
0.390646 -0.001278 0.306177
0.392420 -0.001278 0.305717
0.394203 -0.000143 0.304127
0.395989 0.000995 0.302534
0.397766 0.000995 0.302073
0.399558 0.002135 0.300476
0.401353 0.003277 0.298877
0.403151 0.004421 0.297274
0.404953 0.005567 0.295668
0.406737 0.005567 0.295205
0.408544 0.006715 0.293596
0.410354 0.007866 0.291983
0.412169 0.009019 0.290367
0.413986 0.010174 0.288748
0.415807 0.011332 0.287126
0.417632 0.012491 0.285501
0.419460 0.013653 0.283873
0.421327 0.015984 0.281074
0.423202 0.018323 0.278263
0.425044 0.019497 0.276620
0.426973 0.023030 0.272609
0.428826 0.024212 0.270954
0.430728 0.026584 0.268105
0.432638 0.028965 0.265244
0.434506 0.030159 0.263573
0.436429 0.032555 0.260695
0.438359 0.034959 0.257806
0.440297 0.037373 0.254905
0.442243 0.039797 0.251993
0.444196 0.042231 0.249069
0.446218 0.045899 0.244900
0.448126 0.047127 0.243186
0.450103 0.049589 0.240227
0.452087 0.052062 0.237256
0.454080 0.054544 0.234273
0.456081 0.057036 0.231278
0.458090 0.059539 0.228271
0.460106 0.062051 0.225252
0.462053 0.063311 0.223496
0.464084 0.065839 0.220458
0.466123 0.068377 0.217408
0.468256 0.072204 0.213053
0.470401 0.076054 0.208673
0.472560 0.079927 0.204265
0.474732 0.083824 0.199830
0.477108 0.090374 0.192707
0.479410 0.095662 0.186857
0.482341 0.109076 0.172770
0.485978 0.131134 0.149915
0.488949 0.143874 0.136487
0.491747 0.153956 0.125746
0.021874 -0.089829 0.487363
0.023838 -0.090800 0.487821
0.025798 -0.091770 0.488278
0.028069 -0.093704 0.489614
0.029393 -0.092738 0.488309
0.030718 -0.091770 0.487002
0.032359 -0.091770 0.486577
0.033688 -0.090800 0.485267
0.035020 -0.089829 0.483954
0.036663 -0.089829 0.483528
0.037998 -0.088856 0.482213
0.039643 -0.088856 0.481787
0.040982 -0.087881 0.480469
0.042324 -0.086905 0.479149
0.043972 -0.086905 0.478722
0.045317 -0.085927 0.477399
0.046665 -0.084947 0.476074
0.048316 -0.084947 0.475646
0.049668 -0.083965 0.474318
0.051022 -0.082982 0.472987
0.052379 -0.081997 0.471655
0.054034 -0.081997 0.471225
0.055395 -0.081010 0.469890
0.056758 -0.080021 0.468552
0.058123 -0.079030 0.467212
0.059783 -0.079030 0.466782
0.061152 -0.078038 0.465439
0.062524 -0.077044 0.464093
0.064186 -0.077044 0.463662
0.065562 -0.076048 0.462314
0.066941 -0.075051 0.460963
0.068322 -0.074051 0.459610
0.069705 -0.073050 0.458254
0.071091 -0.072047 0.456896
0.072761 -0.072047 0.456463
0.074150 -0.071042 0.455103
0.075543 -0.070035 0.453739
0.076938 -0.069027 0.452374
0.078612 -0.069027 0.451939
0.080011 -0.068017 0.450571
0.081412 -0.067004 0.449200
0.082816 -0.065991 0.447826
0.084495 -0.065991 0.447391
0.085903 -0.064975 0.446014
0.087584 -0.064975 0.445578
0.089264 -0.064975 0.445143
0.090678 -0.063957 0.443763
0.092094 -0.062937 0.442381
0.093778 -0.062937 0.441944
0.095198 -0.061916 0.440559
0.096883 -0.061916 0.440122
0.098307 -0.060893 0.438734
0.099994 -0.060893 0.438297
0.100905 -0.057812 0.434993
0.102597 -0.057812 0.434554
0.104031 -0.056781 0.433156
0.105724 -0.056781 0.432717
0.107163 -0.055749 0.431316
0.108858 -0.055749 0.430876
0.110301 -0.054714 0.429472
0.111747 -0.053678 0.428065
0.113444 -0.053678 0.427625
0.114894 -0.052640 0.426216
0.116593 -0.052640 0.425775
0.118048 -0.051599 0.424362
0.119748 -0.051599 0.423921
0.121207 -0.050557 0.422505
0.122668 -0.049513 0.421087
0.124372 -0.049513 0.420645
0.125837 -0.048467 0.419224
0.127542 -0.048467 0.418782
0.129247 -0.048467 0.418340
0.130719 -0.047419 0.416915
0.132193 -0.046370 0.415487
0.133901 -0.046370 0.415044
0.135380 -0.045318 0.413614
0.136861 -0.044264 0.412181
0.138572 -0.044264 0.411737
0.140058 -0.043208 0.410301
0.141771 -0.043208 0.409857
0.143261 -0.042151 0.408417
0.144753 -0.041091 0.406975
0.146469 -0.041091 0.406530
0.147966 -0.040030 0.405085
0.149466 -0.038966 0.403638
0.151185 -0.038966 0.403192
0.152689 -0.037901 0.401741
0.154411 -0.037901 0.401295
0.155919 -0.036833 0.399841
0.157430 -0.035764 0.398384
0.159155 -0.035764 0.397937
0.160670 -0.034693 0.396477
0.162189 -0.033619 0.395015
0.163916 -0.033619 0.394567
0.165644 -0.033619 0.394119
0.167168 -0.032544 0.392653
0.168696 -0.031466 0.391184
0.170426 -0.031466 0.390735
0.171958 -0.030387 0.389263
0.173691 -0.030387 0.388814
0.175227 -0.029305 0.387339
0.176766 -0.028222 0.385861
0.178502 -0.028222 0.385411
0.179854 -0.026049 0.382897
0.181402 -0.024959 0.381410
0.182952 -0.023867 0.379921
0.184506 -0.022774 0.378430
0.186063 -0.021678 0.376935
0.187623 -0.020580 0.375437
0.189185 -0.019480 0.373937
0.190751 -0.018378 0.372434
0.192501 -0.018378 0.371980
0.194071 -0.017274 0.370474
0.195645 -0.016168 0.368964
0.197221 -0.015059 0.367452
0.198800 -0.013949 0.365937
0.200382 -0.012836 0.364419
0.201967 -0.011722 0.362898
0.203727 -0.011722 0.362442
0.205317 -0.010605 0.360918
0.206910 -0.009486 0.359391
0.208506 -0.008365 0.357861
0.210105 -0.007242 0.356328
0.211707 -0.006117 0.354792
0.213476 -0.006117 0.354334
0.215082 -0.004989 0.352795
0.216692 -0.003860 0.351252
0.218305 -0.002728 0.349707
0.219921 -0.001594 0.348159
0.221540 -0.000458 0.346608
0.223318 -0.000458 0.346148
0.224941 0.000680 0.344593
0.226568 0.001821 0.343036
0.228199 0.002963 0.341475
0.229832 0.004108 0.339912
0.231468 0.005255 0.338346
0.233254 0.005255 0.337883
0.234896 0.006405 0.336313
0.236540 0.007556 0.334740
0.238188 0.008710 0.333164
0.239839 0.009866 0.331585
0.241493 0.011024 0.330003
0.243150 0.012185 0.328418
0.244946 0.012185 0.327952
0.246609 0.013347 0.326363
0.248274 0.014512 0.324771
0.249943 0.015680 0.323177
0.251615 0.016849 0.321579
0.253290 0.018021 0.319977
0.254969 0.019195 0.318373
0.256650 0.020371 0.316766
0.258335 0.021550 0.315155
0.260024 0.022731 0.313542
0.261715 0.023914 0.311925
0.263410 0.025100 0.310305
0.265109 0.026288 0.308682
0.266810 0.027478 0.307056
0.268515 0.028671 0.305426
0.270224 0.029866 0.303793
0.271936 0.031063 0.302157
0.273651 0.032263 0.300518
0.275477 0.032263 0.300045
0.277197 0.033465 0.298402
0.278921 0.034669 0.296756
0.280648 0.035876 0.295106
0.282379 0.037085 0.293454
0.284411 0.034669 0.295332
0.286435 0.032263 0.297203
0.288356 0.031063 0.297900
0.290366 0.028671 0.299760
0.292278 0.027478 0.300452
0.294186 0.026288 0.301142
0.296177 0.023914 0.302989
0.298076 0.022731 0.303675
0.299971 0.021550 0.304360
0.301862 0.020371 0.305043
0.303828 0.018021 0.306873
0.305710 0.016849 0.307552
0.307663 0.014512 0.309372
0.309536 0.013347 0.310046
0.311405 0.012185 0.310719
0.313270 0.011024 0.311391
0.315132 0.009866 0.312062
0.316990 0.008710 0.312731
0.318908 0.006405 0.314528
0.320758 0.005255 0.315193
0.322603 0.004108 0.315857
0.324445 0.002963 0.316519
0.326284 0.001821 0.317180
0.328119 0.000680 0.317840
0.329898 0.000680 0.317378
0.331728 -0.000458 0.318037
0.333505 -0.000458 0.317577
0.335329 -0.001594 0.318235
0.337150 -0.002728 0.318891
0.338924 -0.002728 0.318431
0.340740 -0.003860 0.319087
0.342512 -0.003860 0.318628
0.344323 -0.004989 0.319283
0.346093 -0.004989 0.318824
0.347899 -0.006117 0.319478
0.349668 -0.006117 0.319020
0.351468 -0.007242 0.319673
0.353265 -0.008365 0.320325
0.355030 -0.008365 0.319868
0.356796 -0.008365 0.319410
0.358561 -0.008365 0.318952
0.360326 -0.008365 0.318494
0.362113 -0.009486 0.319147
0.363877 -0.009486 0.318690
0.365641 -0.009486 0.318233
0.367404 -0.009486 0.317775
0.369168 -0.009486 0.317318
0.370932 -0.009486 0.316861
0.372695 -0.009486 0.316403
0.374449 -0.008365 0.314833
0.376215 -0.008365 0.314375
0.377980 -0.008365 0.313917
0.379745 -0.008365 0.313459
0.381508 -0.007242 0.311884
0.383273 -0.006117 0.310306
0.385042 -0.006117 0.309847
0.386813 -0.004989 0.308266
0.388583 -0.004989 0.307806
0.390354 -0.004989 0.307347
0.392131 -0.003860 0.305762
0.393912 -0.002728 0.304173
0.395697 -0.001594 0.302582
0.397472 -0.001594 0.302121
0.399262 -0.000458 0.300526
0.401055 0.000680 0.298928
0.402851 0.001821 0.297326
0.404651 0.002963 0.295722
0.406454 0.004108 0.294115
0.408261 0.005255 0.292504
0.410047 0.005255 0.292041
0.411885 0.007556 0.289274
0.413674 0.007556 0.288810
0.415493 0.008710 0.287189
0.417347 0.011024 0.284404
0.419175 0.012185 0.282775
0.421042 0.014512 0.279973
0.422916 0.016849 0.277161
0.424797 0.019195 0.274337
0.426686 0.021550 0.271503
0.428582 0.023914 0.268657
0.430441 0.025100 0.266995
0.432350 0.027478 0.264132
0.434217 0.028671 0.262460
0.436140 0.031063 0.259580
0.438069 0.033465 0.256688
0.440007 0.035876 0.253785
0.441952 0.038297 0.250871
0.443904 0.040727 0.247944
0.445926 0.044391 0.243773
0.447896 0.046846 0.240818
0.449875 0.049310 0.237851
0.451794 0.050546 0.236123
0.453786 0.053026 0.233138
0.455786 0.055515 0.230141
0.457794 0.058014 0.227131
0.459810 0.060524 0.224110
0.461835 0.063043 0.221077
0.463867 0.065573 0.218031
0.465826 0.066842 0.216260
0.467957 0.070664 0.211902
0.470102 0.074509 0.207517
0.472260 0.078377 0.203106
0.474523 0.083573 0.197346
0.476710 0.087498 0.192872
0.479106 0.094093 0.185684
0.481830 0.104789 0.174328
0.485344 0.125334 0.152962
0.488411 0.139397 0.138164
0.490968 0.146543 0.130386
0.494626 0.166967 0.109102
0.018976 -0.093111 0.488976
0.020939 -0.094078 0.489432
0.022898 -0.095043 0.489887
0.024853 -0.096006 0.490341
0.026489 -0.096006 0.489917
0.028125 -0.096006 0.489493
0.029447 -0.095043 0.488189
0.030772 -0.094078 0.486882
0.032411 -0.094078 0.486458
0.033739 -0.093111 0.485149
0.035069 -0.092143 0.483837
0.036711 -0.092143 0.483412
0.038046 -0.091173 0.482098
0.039689 -0.091173 0.481672
0.041027 -0.090201 0.480355
0.042368 -0.089227 0.479036
0.043711 -0.088252 0.477714
0.045358 -0.088252 0.477287
0.046705 -0.087275 0.475963
0.048054 -0.086296 0.474637
0.049406 -0.085316 0.473308
0.050760 -0.084334 0.471977
0.052414 -0.084334 0.471548
0.053772 -0.083349 0.470214
0.055132 -0.082364 0.468877
0.056495 -0.081376 0.467539
0.057860 -0.080387 0.466197
0.059520 -0.080387 0.465767
0.060889 -0.079396 0.464423
0.062261 -0.078403 0.463077
0.063923 -0.078403 0.462646
0.065299 -0.077408 0.461297
0.066677 -0.076412 0.459945
0.068057 -0.075414 0.458591
0.069724 -0.075414 0.458159
0.071109 -0.074414 0.456802
0.072496 -0.073412 0.455443
0.073885 -0.072408 0.454081
0.075557 -0.072408 0.453647
0.076950 -0.071403 0.452283
0.078347 -0.070396 0.450916
0.079745 -0.069387 0.449546
0.081146 -0.068376 0.448174
0.082824 -0.068376 0.447739
0.084229 -0.067363 0.446364
0.085637 -0.066348 0.444987
0.087587 -0.067363 0.445494
0.088998 -0.066348 0.444115
0.090678 -0.066348 0.443680
0.092093 -0.065332 0.442299
0.093775 -0.065332 0.441862
0.095194 -0.064314 0.440478
0.096616 -0.063294 0.439092
0.098301 -0.063294 0.438655
0.099727 -0.062272 0.437265
0.101155 -0.061248 0.435873
0.102843 -0.061248 0.435436
0.104020 -0.059195 0.433082
0.105711 -0.059195 0.432643
0.106895 -0.057134 0.430280
0.108589 -0.057134 0.429841
0.110032 -0.056101 0.428436
0.111728 -0.056101 0.427996
0.113175 -0.055066 0.426588
0.114872 -0.055066 0.426148
0.116324 -0.054029 0.424736
0.117778 -0.052990 0.423323
0.119478 -0.052990 0.422882
0.120937 -0.051949 0.421465
0.122639 -0.051949 0.421024
0.124101 -0.050906 0.419604
0.125805 -0.050906 0.419162
0.127272 -0.049861 0.417739
0.128977 -0.049861 0.417297
0.130448 -0.048815 0.415872
0.132155 -0.048815 0.415429
0.133630 -0.047766 0.414000
0.135339 -0.047766 0.413557
0.136819 -0.046716 0.412125
0.138301 -0.045663 0.410691
0.139786 -0.044609 0.409254
0.141499 -0.044609 0.408809
0.142989 -0.043553 0.407369
0.144703 -0.043553 0.406924
0.146197 -0.042494 0.405481
0.147694 -0.041434 0.404035
0.149412 -0.041434 0.403590
0.150913 -0.040372 0.402141
0.152632 -0.040372 0.401695
0.154138 -0.039308 0.400243
0.155646 -0.038242 0.398788
0.157369 -0.038242 0.398341
0.158881 -0.037174 0.396883
0.160605 -0.037174 0.396436
0.162123 -0.036103 0.394975
0.163642 -0.035031 0.393511
0.165165 -0.033957 0.392044
0.166894 -0.033957 0.391596
0.168421 -0.032881 0.390126
0.170152 -0.032881 0.389677
0.171684 -0.031803 0.388204
0.173218 -0.030723 0.386728
0.174952 -0.030723 0.386279
0.176491 -0.029641 0.384800
0.178227 -0.029641 0.384350
0.179770 -0.028556 0.382868
0.181317 -0.027470 0.381383
0.182866 -0.026382 0.379895
0.184418 -0.025292 0.378405
0.185974 -0.024199 0.376911
0.187532 -0.023105 0.375415
0.189093 -0.022008 0.373916
0.190657 -0.020910 0.372415
0.192224 -0.019809 0.370910
0.193794 -0.018706 0.369403
0.195367 -0.017601 0.367892
0.196942 -0.016494 0.366379
