ply
format ascii 1.0
element vertex 1711
property float x
property float y
property float z
end_header
0.208822 0.045388 0.356625
0.211020 0.044832 0.355437
0.212826 0.044832 0.355640
0.215030 0.044276 0.354451
0.217641 0.043161 0.351862
0.219857 0.042601 0.350665
0.222484 0.041480 0.348062
0.225122 0.040353 0.345448
0.227355 0.039789 0.344240
0.230010 0.038656 0.341611
0.232675 0.037519 0.338972
0.235350 0.036378 0.336323
0.238035 0.035232 0.333664
0.240731 0.034082 0.330995
0.243003 0.033505 0.329760
0.245716 0.032348 0.327075
0.248440 0.031186 0.324380
0.251175 0.030021 0.321674
0.253920 0.028850 0.318958
0.256676 0.027675 0.316231
0.259443 0.026495 0.313493
0.262220 0.025311 0.310745
0.265471 0.023526 0.306497
0.271566 0.018106 0.293177
0.281672 0.007601 0.267163
0.282607 0.008855 0.270511
0.283047 0.010728 0.275399
0.283974 0.011970 0.278714
0.284408 0.013824 0.283553
0.284839 0.015666 0.288364
0.286245 0.016278 0.290103
0.287647 0.016889 0.291839
0.288557 0.018106 0.295088
0.289953 0.018713 0.296813
0.291346 0.019319 0.298535
0.293230 0.019319 0.298747
0.294619 0.019924 0.300466
0.296005 0.020527 0.302181
0.297886 0.020527 0.302393
0.299267 0.021129 0.304104
0.301146 0.021129 0.304316
0.303024 0.021129 0.304527
0.304399 0.021730 0.306234
0.306276 0.021730 0.306446
0.307647 0.022330 0.308150
0.309014 0.022928 0.309851
0.310887 0.022928 0.310061
0.312251 0.023526 0.311759
0.314122 0.023526 0.311969
0.315993 0.023526 0.312179
0.317864 0.023526 0.312390
0.319219 0.024122 0.314083
0.321089 0.024122 0.314293
0.322958 0.024122 0.314504
0.324827 0.024122 0.314714
0.326697 0.024122 0.314924
0.329091 0.023526 0.313653
0.330962 0.023526 0.313863
0.332833 0.023526 0.314074
0.334705 0.023526 0.314284
0.336576 0.023526 0.314494
0.338447 0.023526 0.314705
0.340318 0.023526 0.314915
0.342729 0.022928 0.313643
0.344602 0.022928 0.313853
0.346475 0.022928 0.314064
0.348348 0.022928 0.314275
0.350221 0.022928 0.314485
0.352094 0.022928 0.314696
0.354518 0.022330 0.313422
0.356393 0.022330 0.313632
0.358268 0.022330 0.313843
0.360143 0.022330 0.314054
0.362018 0.022330 0.314265
0.363892 0.022330 0.314476
0.366331 0.021730 0.313200
0.368208 0.021730 0.313411
0.370084 0.021730 0.313622
0.373103 0.020527 0.310853
0.374983 0.020527 0.311064
0.377440 0.019924 0.309781
0.379322 0.019924 0.309993
0.381786 0.019319 0.308707
0.384254 0.018713 0.307420
0.386140 0.018713 0.307632
0.388615 0.018106 0.306342
0.391688 0.016889 0.303541
0.393580 0.016889 0.303754
0.396070 0.016278 0.302456
0.397963 0.016278 0.302669
0.400460 0.015666 0.301368
0.403569 0.014439 0.298546
0.406691 0.013207 0.295713
0.411061 0.010728 0.289798
0.414217 0.009481 0.286930
-0.293032 -0.092773 -0.050679
-0.290113 -0.086904 -0.035234
-0.287621 -0.084418 -0.028550
-0.285238 -0.082771 -0.024038
-0.282866 -0.081130 -0.019546
-0.280418 -0.078684 -0.012970
-0.277987 -0.076255 -0.006439
-0.275654 -0.074644 -0.002028
-0.273330 -0.073041 0.002362
-0.270943 -0.070650 0.008789
-0.268644 -0.069065 0.013130
-0.266355 -0.067488 0.017452
-0.264076 -0.065917 0.021754
-0.261808 -0.064353 0.026037
-0.259549 -0.062797 0.030300
-0.257359 -0.062021 0.032545
-0.255175 -0.061247 0.034784
-0.252995 -0.060475 0.037018
-0.250819 -0.059704 0.039247
-0.248649 -0.058935 0.041472
-0.246484 -0.058168 0.043691
-0.244279 -0.056639 0.047878
-0.242126 -0.055877 0.050083
-0.239977 -0.055117 0.052283
-0.237833 -0.054358 0.054478
-0.235728 -0.054358 0.054714
-0.233560 -0.052846 0.058853
-0.231459 -0.052846 0.059090
-0.229332 -0.052093 0.061270
-0.227209 -0.051341 0.063446
-0.225113 -0.051341 0.063681
-0.222997 -0.050591 0.065852
-0.220886 -0.049842 0.068018
-0.218795 -0.049842 0.068253
-0.216691 -0.049095 0.070414
-0.214591 -0.048350 0.072569
-0.212496 -0.047606 0.074721
-0.210412 -0.047606 0.074955
-0.208324 -0.046864 0.077101
-0.206242 -0.046864 0.077336
-0.204159 -0.046864 0.077570
-0.202080 -0.046123 0.079711
-0.200000 -0.046123 0.079945
-0.197928 -0.045385 0.082081
-0.195871 -0.043912 0.086106
-0.193798 -0.043912 0.086339
-0.191725 -0.043912 0.086572
-0.189668 -0.043178 0.088694
-0.187597 -0.043178 0.088927
-0.185526 -0.043178 0.089160
-0.183479 -0.042445 0.091277
-0.181411 -0.042445 0.091510
-0.179342 -0.042445 0.091742
-0.177303 -0.041715 0.093854
-0.175237 -0.041715 0.094086
-0.173171 -0.041715 0.094319
-0.171104 -0.041715 0.094551
-0.169038 -0.041715 0.094784
-0.166971 -0.041715 0.095016
-0.164949 -0.040985 0.097122
-0.162884 -0.040985 0.097354
-0.160820 -0.040985 0.097586
-0.158806 -0.040258 0.099687
-0.156744 -0.040258 0.099919
-0.154683 -0.040258 0.100151
-0.152621 -0.040258 0.100383
-0.150559 -0.040258 0.100614
-0.148435 -0.040985 0.098979
-0.146371 -0.040985 0.099211
-0.144307 -0.040985 0.099443
-0.142243 -0.040985 0.099676
-0.140178 -0.040985 0.099908
-0.138114 -0.040985 0.100140
-0.136050 -0.040985 0.100372
-0.133909 -0.041715 0.098735
-0.131842 -0.041715 0.098967
-0.129776 -0.041715 0.099200
-0.127709 -0.041715 0.099432
-0.125643 -0.041715 0.099664
-0.123576 -0.041715 0.099897
-0.121510 -0.041715 0.100129
-0.119444 -0.041715 0.100362
-0.117377 -0.041715 0.100594
-0.115213 -0.042445 0.098955
-0.113144 -0.042445 0.099188
-0.111076 -0.042445 0.099420
-0.109007 -0.042445 0.099653
-0.106938 -0.042445 0.099886
-0.104870 -0.042445 0.100118
-0.102801 -0.042445 0.100351
-0.100619 -0.043178 0.098710
-0.098548 -0.043178 0.098943
-0.096477 -0.043178 0.099176
-0.094406 -0.043178 0.099409
-0.092335 -0.043178 0.099642
-0.090264 -0.043178 0.099874
-0.088193 -0.043178 0.100107
-0.086122 -0.043178 0.100340
-0.084051 -0.043178 0.100573
-0.081846 -0.043912 0.098931
-0.079773 -0.043912 0.099164
-0.077699 -0.043912 0.099397
-0.075626 -0.043912 0.099630
-0.073553 -0.043912 0.099863
-0.071480 -0.043912 0.100097
-0.069110 -0.045385 0.096569
-0.067032 -0.045385 0.096803
-0.064955 -0.045385 0.097037
-0.062721 -0.046123 0.095385
-0.060641 -0.046123 0.095619
-0.058561 -0.046123 0.095853
-0.056318 -0.046864 0.094198
-0.054236 -0.046864 0.094432
-0.052154 -0.046864 0.094666
-0.049901 -0.047606 0.093008
-0.047817 -0.047606 0.093243
-0.045732 -0.047606 0.093477
-0.043471 -0.048350 0.091816
-0.041384 -0.048350 0.092051
-0.039115 -0.049095 0.090386
-0.037025 -0.049095 0.090621
-0.034936 -0.049095 0.090856
-0.032658 -0.049842 0.089188
-0.030566 -0.049842 0.089423
-0.028475 -0.049842 0.089659
-0.026186 -0.050591 0.087988
-0.024093 -0.050591 0.088223
-0.021999 -0.050591 0.088459
-0.019905 -0.050591 0.088694
-0.017605 -0.051341 0.087020
-0.015509 -0.051341 0.087256
-0.013413 -0.051341 0.087492
-0.011103 -0.052093 0.085815
-0.009004 -0.052093 0.086051
-0.006906 -0.052093 0.086287
-0.004586 -0.052846 0.084607
-0.002486 -0.052846 0.084843
-0.000159 -0.053602 0.083159
0.001944 -0.053602 0.083396
0.004047 -0.053602 0.083632
0.006384 -0.054358 0.081946
0.008490 -0.054358 0.082182
0.010595 -0.054358 0.082419
0.012942 -0.055117 0.080729
0.015050 -0.055117 0.080966
0.017404 -0.055877 0.079273
0.019514 -0.055877 0.079510
0.021624 -0.055877 0.079747
0.023988 -0.056639 0.078051
0.026101 -0.056639 0.078288
0.028213 -0.056639 0.078526
0.030587 -0.057403 0.076826
0.032702 -0.057403 0.077063
0.035084 -0.058168 0.075360
0.037201 -0.058168 0.075598
0.039318 -0.058168 0.075836
0.041710 -0.058935 0.074129
0.043830 -0.058935 0.074368
0.045949 -0.058935 0.074606
0.048351 -0.059704 0.072896
0.050473 -0.059704 0.073135
0.052882 -0.060475 0.071421
0.055007 -0.060475 0.071660
0.057131 -0.060475 0.071899
0.059551 -0.061247 0.070182
0.061677 -0.061247 0.070421
0.063804 -0.061247 0.070660
0.066234 -0.062021 0.068940
0.068363 -0.062021 0.069180
0.070801 -0.062797 0.067456
0.072932 -0.062797 0.067695
0.075063 -0.062797 0.067935
0.077511 -0.063574 0.066208
0.079645 -0.063574 0.066448
0.081779 -0.063574 0.066688
0.084237 -0.064353 0.064957
0.086373 -0.064353 0.065198
0.088840 -0.065134 0.063463
0.090978 -0.065134 0.063704
0.093117 -0.065134 0.063945
0.095594 -0.065917 0.062207
0.098076 -0.066701 0.060466
0.100219 -0.066701 0.060707
0.102363 -0.066701 0.060948
0.104506 -0.066701 0.061189
0.107001 -0.067488 0.059444
0.109147 -0.067488 0.059686
0.111650 -0.068276 0.057937
0.113798 -0.068276 0.058179
0.116310 -0.069065 0.056427
0.118460 -0.069065 0.056669
0.120611 -0.069065 0.056911
0.123133 -0.069857 0.055156
0.125286 -0.069857 0.055398
0.127816 -0.070650 0.053639
0.129592 -0.069857 0.055882
0.131364 -0.069065 0.058120
0.133514 -0.069065 0.058362
0.135280 -0.068276 0.060595
0.137041 -0.067488 0.062823
0.138799 -0.066701 0.065046
0.140163 -0.065134 0.069236
0.142302 -0.065134 0.069477
0.144048 -0.064353 0.071684
0.146184 -0.064353 0.071925
0.102966 0.024723 0.296507
0.103920 0.026496 0.301181
0.105170 0.027673 0.304352
0.106113 0.029428 0.308980
0.107960 0.029428 0.309188
0.109502 0.030011 0.310863
0.111348 0.030011 0.311071
0.112885 0.030593 0.312742
0.114729 0.030593 0.312950
0.116261 0.031174 0.314618
0.118103 0.031174 0.314825
0.119630 0.031754 0.316490
0.121471 0.031754 0.316697
0.122994 0.032332 0.318358
0.124513 0.032909 0.320016
0.126350 0.032909 0.320223
0.127865 0.033486 0.321878
0.129700 0.033486 0.322084
0.131211 0.034061 0.323735
0.132718 0.034635 0.325383
0.134550 0.034635 0.325589
0.136052 0.035208 0.327234
0.137882 0.035208 0.327440
0.139380 0.035780 0.329081
0.140875 0.036350 0.330720
0.142368 0.036920 0.332355
0.144192 0.036920 0.332560
0.145680 0.037488 0.334192
0.147503 0.037488 0.334397
0.148986 0.038056 0.336025
0.150466 0.038622 0.337650
0.152286 0.038622 0.337855
0.153761 0.039188 0.339477
0.155579 0.039188 0.339681
0.157050 0.039752 0.341300
0.158519 0.040315 0.342916
0.159984 0.040877 0.344528
0.161796 0.040877 0.344732
0.163258 0.041438 0.346341
0.164716 0.041998 0.347948
0.166879 0.041438 0.346749
0.168689 0.041438 0.346952
0.170500 0.041438 0.347156
0.171951 0.041998 0.348761
0.173760 0.041998 0.348965
0.175569 0.041998 0.349168
0.177378 0.041998 0.349372
0.179187 0.041998 0.349575
0.180996 0.041998 0.349779
0.182436 0.042557 0.351380
0.183873 0.043114 0.352979
0.185308 0.043671 0.354574
0.186740 0.044227 0.356166
0.188169 0.044781 0.357756
0.189969 0.044781 0.357958
0.191394 0.045335 0.359544
0.193570 0.044781 0.358363
0.195370 0.044781 0.358566
0.197170 0.044781 0.358768
0.198970 0.044781 0.358971
0.200387 0.045335 0.360556
0.201800 0.045887 0.362138
0.204371 0.044781 0.359578
0.206172 0.044781 0.359780
0.208756 0.043671 0.357211
0.210954 0.043114 0.356025
0.212760 0.043114 0.356228
0.215364 0.041998 0.353644
0.217575 0.041438 0.352451
0.220196 0.040315 0.349853
0.222827 0.039188 0.347245
0.225055 0.038622 0.346040
0.227703 0.037488 0.343417
0.230361 0.036350 0.340784
0.233029 0.035208 0.338141
0.235283 0.034635 0.336919
0.237968 0.033486 0.334261
0.240664 0.032332 0.331593
0.243370 0.031174 0.328914
0.246087 0.030011 0.326225
0.248373 0.029428 0.324981
0.251107 0.028259 0.322276
0.253852 0.027085 0.319561
0.256608 0.025907 0.316835
0.259830 0.024130 0.312622
0.262611 0.022940 0.309869
0.268198 0.018132 0.298114
0.276761 0.009533 0.276928
0.282094 0.005142 0.266218
0.283029 0.006403 0.269570
0.283468 0.008285 0.274467
0.284396 0.009533 0.277786
0.284829 0.011396 0.282634
0.285259 0.013248 0.287452
0.286665 0.013863 0.289194
0.287578 0.015089 0.292454
0.288488 0.016310 0.295702
0.289884 0.016919 0.297427
0.291770 0.016919 0.297639
0.293161 0.017526 0.299360
0.295046 0.017526 0.299572
0.296433 0.018132 0.301290
0.297817 0.018738 0.303004
0.299697 0.018738 0.303216
0.301578 0.018738 0.303427
0.302956 0.019341 0.305138
0.304834 0.019341 0.305349
0.306207 0.019944 0.307056
0.308084 0.019944 0.307267
0.309453 0.020546 0.308970
0.310819 0.021146 0.310671
0.312692 0.021146 0.310881
0.314053 0.021745 0.312578
0.315924 0.021745 0.312788
0.317796 0.021745 0.312999
0.319667 0.021745 0.313209
0.321538 0.021745 0.313420
0.323409 0.021745 0.313630
0.325280 0.021745 0.313840
0.327152 0.021745 0.314051
0.329023 0.021745 0.314261
0.330894 0.021745 0.314472
0.332765 0.021745 0.314682
0.334636 0.021745 0.314893
0.336507 0.021745 0.315103
0.338379 0.021745 0.315314
0.340787 0.021146 0.314041
0.342660 0.021146 0.314252
0.344533 0.021146 0.314462
0.346406 0.021146 0.314673
0.348279 0.021146 0.314884
0.350700 0.020546 0.313610
0.352575 0.020546 0.313821
0.354450 0.020546 0.314031
0.356324 0.020546 0.314242
0.358199 0.020546 0.314453
0.360074 0.020546 0.314664
0.361949 0.020546 0.314875
0.364386 0.019944 0.313599
0.366262 0.019944 0.313811
0.368139 0.019944 0.314022
0.370584 0.019341 0.312744
0.373034 0.018738 0.311464
0.375489 0.018132 0.310182
0.377371 0.018132 0.310393
0.379833 0.017526 0.309108
0.381717 0.017526 0.309320
0.384185 0.016919 0.308033
0.386658 0.016310 0.306743
0.388546 0.016310 0.306956
0.391619 0.015089 0.304156
0.394107 0.014476 0.302859
0.396001 0.014476 0.303072
0.398495 0.013863 0.301772
0.400995 0.013248 0.300469
0.404109 0.012015 0.297643
0.407849 0.010155 0.293274
0.411611 0.008285 0.288880
-0.288374 -0.092355 -0.042916
-0.285970 -0.090675 -0.038334
-0.283486 -0.088170 -0.031624
-0.281020 -0.085683 -0.024960
-0.278570 -0.083212 -0.018343
-0.276138 -0.080759 -0.011771
-0.273800 -0.079133 -0.007333
-0.271473 -0.077514 -0.002915
-0.269084 -0.075099 0.003552
-0.266781 -0.073499 0.007920
-0.264488 -0.071906 0.012268
-0.262142 -0.069529 0.018633
-0.259873 -0.067954 0.022932
-0.257614 -0.066386 0.027212
-0.255421 -0.065605 0.029465
-0.253233 -0.064825 0.031713
-0.251051 -0.064047 0.033955
-0.248824 -0.062496 0.038187
-0.246653 -0.061723 0.040415
-0.244444 -0.060183 0.044618
-0.242286 -0.059415 0.046831
-0.240132 -0.058649 0.049040
-0.237983 -0.057885 0.051244
-0.235873 -0.057885 0.051481
-0.233731 -0.057123 0.053679
-0.231595 -0.056362 0.055873
-0.229462 -0.055603 0.058062
-0.227335 -0.054845 0.060246
-0.225212 -0.054089 0.062425
-0.223114 -0.054089 0.062661
-0.220998 -0.053335 0.064835
-0.218887 -0.052583 0.067004
-0.216780 -0.051832 0.069168
-0.214689 -0.051832 0.069404
-0.212589 -0.051083 0.071563
-0.210494 -0.050335 0.073718
-0.208407 -0.050335 0.073952
-0.206319 -0.049590 0.076102
-0.204235 -0.049590 0.076337
-0.202150 -0.049590 0.076571
-0.200071 -0.048845 0.078715
-0.197989 -0.048845 0.078950
-0.195917 -0.048103 0.081089
-0.193849 -0.047362 0.083224
-0.191771 -0.047362 0.083458
-0.189694 -0.047362 0.083691
-0.187654 -0.045885 0.087713
-0.185581 -0.045885 0.087946
-0.183508 -0.045885 0.088179
-0.181460 -0.045148 0.090299
-0.179389 -0.045148 0.090532
-0.177319 -0.045148 0.090765
-0.175248 -0.045148 0.090998
-0.173177 -0.045148 0.091231
-0.171106 -0.045148 0.091464
-0.169035 -0.045148 0.091697
-0.167005 -0.044414 0.093811
-0.164937 -0.044414 0.094044
-0.162914 -0.043681 0.096153
-0.160848 -0.043681 0.096385
-0.158781 -0.043681 0.096618
-0.156715 -0.043681 0.096850
-0.154648 -0.043681 0.097083
-0.152582 -0.043681 0.097315
-0.150516 -0.043681 0.097548
-0.148449 -0.043681 0.097780
-0.146383 -0.043681 0.098012
-0.144250 -0.044414 0.096370
-0.142181 -0.044414 0.096603
-0.140113 -0.044414 0.096836
-0.138044 -0.044414 0.097068
-0.135975 -0.044414 0.097301
-0.133907 -0.044414 0.097534
-0.131838 -0.044414 0.097767
-0.129769 -0.044414 0.097999
-0.127616 -0.045148 0.096355
-0.125545 -0.045148 0.096588
-0.123474 -0.045148 0.096821
-0.121404 -0.045148 0.097054
-0.119333 -0.045148 0.097287
-0.117262 -0.045148 0.097520
-0.115191 -0.045148 0.097753
-0.113120 -0.045148 0.097986
-0.110946 -0.045885 0.096341
-0.108873 -0.045885 0.096574
-0.106800 -0.045885 0.096807
-0.104727 -0.045885 0.097040
-0.102654 -0.045885 0.097273
-0.100580 -0.045885 0.097506
-0.098507 -0.045885 0.097740
-0.096434 -0.045885 0.097973
-0.094119 -0.047362 0.094441
-0.092041 -0.047362 0.094675
-0.089963 -0.047362 0.094908
-0.087885 -0.047362 0.095142
-0.085808 -0.047362 0.095376
-0.083730 -0.047362 0.095609
-0.081652 -0.047362 0.095843
-0.079575 -0.047362 0.096077
-0.077357 -0.048103 0.094424
-0.075277 -0.048103 0.094658
-0.073197 -0.048103 0.094892
-0.071117 -0.048103 0.095126
-0.069037 -0.048103 0.095360
-0.066806 -0.048845 0.093704
-0.064724 -0.048845 0.093938
-0.062641 -0.048845 0.094173
-0.060400 -0.049590 0.092514
-0.058316 -0.049590 0.092748
-0.056231 -0.049590 0.092983
-0.053981 -0.050335 0.091321
-0.051894 -0.050335 0.091556
-0.049637 -0.051083 0.089891
-0.047548 -0.051083 0.090126
-0.045458 -0.051083 0.090361
-0.043191 -0.051832 0.088692
-0.041100 -0.051832 0.088928
-0.039008 -0.051832 0.089163
-0.036732 -0.052583 0.087491
-0.034638 -0.052583 0.087727
-0.032354 -0.053335 0.086052
-0.030258 -0.053335 0.086288
-0.028162 -0.053335 0.086523
-0.025868 -0.054089 0.084845
-0.023770 -0.054089 0.085081
-0.021671 -0.054089 0.085317
-0.019368 -0.054845 0.083636
-0.017267 -0.054845 0.083872
-0.014956 -0.055603 0.082188
-0.012853 -0.055603 0.082424
-0.010750 -0.055603 0.082661
-0.008430 -0.056362 0.080973
-0.006324 -0.056362 0.081210
-0.004219 -0.056362 0.081446
-0.001889 -0.057123 0.079755
0.000219 -0.057123 0.079992
0.002557 -0.057885 0.078298
0.004667 -0.057885 0.078535
0.006777 -0.057885 0.078772
0.009125 -0.058649 0.077075
0.011237 -0.058649 0.077312
0.013349 -0.058649 0.077550
0.015707 -0.059415 0.075849
0.017822 -0.059415 0.076086
0.020187 -0.060183 0.074382
0.022304 -0.060183 0.074620
0.024421 -0.060183 0.074858
0.026797 -0.060952 0.073150
0.028916 -0.060952 0.073389
0.031036 -0.060952 0.073627
0.033421 -0.061723 0.071916
0.035543 -0.061723 0.072154
0.037936 -0.062496 0.070440
0.040060 -0.062496 0.070679
0.042184 -0.062496 0.070917
0.044587 -0.063271 0.069199
0.046714 -0.063271 0.069439
0.048840 -0.063271 0.069678
0.051254 -0.064047 0.067956
0.053383 -0.064047 0.068196
0.055804 -0.064825 0.066471
0.057935 -0.064825 0.066711
0.060066 -0.064825 0.066950
0.062498 -0.065605 0.065222
0.064631 -0.065605 0.065462
0.066765 -0.065605 0.065702
0.069207 -0.066386 0.063970
0.071343 -0.066386 0.064211
0.073792 -0.067169 0.062475
0.075931 -0.067169 0.062716
0.078069 -0.067169 0.062956
0.080529 -0.067954 0.061218
0.082670 -0.067954 0.061459
0.084811 -0.067954 0.061699
0.087611 -0.069529 0.057970
0.089757 -0.069529 0.058212
0.092238 -0.070320 0.056462
0.094386 -0.070320 0.056703
0.096534 -0.070320 0.056945
0.098683 -0.070320 0.057187
0.100831 -0.070320 0.057428
0.103328 -0.071112 0.055675
0.105478 -0.071112 0.055917
0.107983 -0.071906 0.054161
0.110136 -0.071906 0.054403
0.112649 -0.072701 0.052643
0.114804 -0.072701 0.052885
0.116960 -0.072701 0.053128
0.119483 -0.073499 0.051364
0.121641 -0.073499 0.051607
0.124173 -0.074298 0.049840
0.126333 -0.074298 0.050083
0.128494 -0.074298 0.050326
0.130654 -0.074298 0.050568
0.132431 -0.073499 0.052820
0.134203 -0.072701 0.055067
0.135972 -0.071906 0.057309
0.137349 -0.070320 0.061536
0.139497 -0.070320 0.061777
0.141254 -0.069529 0.064004
0.143400 -0.069529 0.064245
0.145546 -0.069529 0.064486
0.100437 0.024138 0.299883
0.101695 0.025320 0.303059
0.102350 0.027670 0.309166
0.103897 0.028255 0.310841
0.105743 0.028255 0.311048
0.107285 0.028839 0.312720
0.109129 0.028839 0.312927
0.110667 0.029421 0.314596
0.112202 0.030002 0.316261
0.114042 0.030002 0.316468
0.115882 0.030002 0.316675
0.117410 0.030582 0.318336
0.119249 0.030582 0.318543
0.120772 0.031162 0.320201
0.122293 0.031739 0.321855
0.124128 0.031739 0.322062
0.125644 0.032316 0.323713
0.127477 0.032316 0.323919
0.128988 0.032892 0.325567
0.130496 0.033467 0.327212
0.132326 0.033467 0.327418
0.133829 0.034040 0.329059
0.135657 0.034040 0.329265
0.137156 0.034612 0.330903
0.138652 0.035184 0.332538
0.140145 0.035754 0.334170
0.141968 0.035754 0.334375
0.143456 0.036323 0.336003
0.145277 0.036323 0.336208
0.146761 0.036891 0.337833
0.148242 0.037458 0.339455
0.150060 0.037458 0.339659
0.151536 0.038024 0.341278
0.153352 0.038024 0.341482
0.154824 0.038589 0.343098
0.156293 0.039152 0.344710
0.158106 0.039152 0.344914
0.159570 0.039715 0.346523
0.161032 0.040276 0.348129
0.162491 0.040837 0.349732
0.164298 0.040837 0.349935
0.166459 0.040276 0.348740
0.168267 0.040276 0.348943
0.169720 0.040837 0.350545
0.171527 0.040837 0.350748
0.173334 0.040837 0.350952
0.175141 0.040837 0.351155
0.176948 0.040837 0.351358
0.178755 0.040837 0.351561
0.180562 0.040837 0.351765
0.182002 0.041396 0.353363
0.183807 0.041396 0.353566
0.184872 0.042512 0.356550
0.186302 0.043068 0.358139
0.188103 0.043068 0.358341
0.189903 0.043068 0.358544
0.191703 0.043068 0.358746
0.193127 0.043623 0.360332
0.194925 0.043623 0.360534
0.196724 0.043623 0.360736
0.198522 0.043623 0.360938
0.200321 0.043623 0.361141
0.202119 0.043623 0.361343
0.204305 0.043068 0.360164
0.206496 0.042512 0.358982
0.209083 0.041396 0.356409
0.210494 0.041955 0.358001
0.213091 0.040837 0.355423
0.215298 0.040276 0.354233
0.217509 0.039715 0.353040
0.220536 0.038024 0.349039
0.222760 0.037458 0.347836
0.225401 0.036323 0.345219
0.228052 0.035184 0.342593
0.230294 0.034612 0.341378
0.232962 0.033467 0.338737
0.235640 0.032316 0.336085
0.238329 0.031162 0.333422
0.241028 0.030002 0.330750
0.243303 0.029421 0.329514
0.246019 0.028255 0.326826
0.248746 0.027084 0.324127
0.251484 0.025909 0.321419
0.254232 0.024730 0.318699
0.256992 0.023545 0.315969
0.260218 0.021760 0.311749
0.264851 0.018158 0.303023
0.273341 0.009585 0.281969
0.282072 0.000769 0.260316
0.282517 0.002679 0.265270
0.282959 0.004578 0.270194
0.283890 0.005837 0.273533
0.284818 0.007092 0.276857
0.285250 0.008964 0.281712
0.285679 0.010825 0.286538
0.287087 0.011443 0.288283
0.288000 0.012675 0.291548
0.289401 0.013289 0.293282
0.290306 0.014513 0.296528
0.291701 0.015124 0.298252
0.293587 0.015124 0.298465
0.294977 0.015733 0.300185
0.296861 0.015733 0.300397
0.297748 0.016948 0.303616
0.299629 0.016948 0.303827
0.301509 0.016948 0.304039
0.303389 0.016948 0.304250
0.304765 0.017554 0.305960
0.306644 0.017554 0.306171
0.308015 0.018158 0.307878
0.309384 0.018762 0.309580
0.311259 0.018762 0.309791
0.312623 0.019364 0.311490
0.314496 0.019364 0.311701
0.315856 0.019965 0.313397
0.318242 0.019364 0.312122
0.319598 0.019965 0.313818
0.321470 0.019965 0.314028
0.323341 0.019965 0.314239
0.325212 0.019965 0.314449
0.327083 0.019965 0.314660
0.328954 0.019965 0.314870
0.330825 0.019965 0.315080
0.332697 0.019965 0.315291
0.334568 0.019965 0.315501
0.336439 0.019965 0.315712
0.338310 0.019965 0.315922
0.340719 0.019364 0.314650
0.342592 0.019364 0.314861
0.344465 0.019364 0.315072
0.346338 0.019364 0.315282
0.348756 0.018762 0.314009
0.350631 0.018762 0.314220
0.352506 0.018762 0.314430
0.354381 0.018762 0.314641
0.356256 0.018762 0.314852
0.358131 0.018762 0.315063
0.360006 0.018762 0.315274
0.362440 0.018158 0.313999
0.364317 0.018158 0.314210
0.366194 0.018158 0.314421
0.368637 0.017554 0.313144
0.371085 0.016948 0.311864
0.372965 0.016948 0.312076
0.375420 0.016341 0.310794
0.377302 0.016341 0.311006
0.379764 0.015733 0.309721
0.382230 0.015124 0.308434
0.384116 0.015124 0.308647
0.386589 0.014513 0.307357
0.389658 0.013289 0.304559
0.391550 0.013289 0.304771
0.393442 0.013289 0.304984
0.395931 0.012675 0.303687
0.398426 0.012059 0.302388
0.401531 0.010825 0.299568
0.405260 0.008964 0.295210
0.409011 0.007092 0.290826
0.412163 0.005837 0.287960
-0.284208 -0.096156 -0.046049
-0.281719 -0.093620 -0.039280
-0.279247 -0.091102 -0.032559
-0.276792 -0.088601 -0.025885
-0.274355 -0.086118 -0.019256
-0.272010 -0.084472 -0.014781
-0.269603 -0.082017 -0.008228
-0.267212 -0.079579 -0.001721
-0.264905 -0.077963 0.002674
-0.262609 -0.076354 0.007049
-0.260261 -0.073955 0.013453
-0.257988 -0.072364 0.017778
-0.255726 -0.070780 0.022084
-0.253420 -0.068419 0.028387
-0.251232 -0.067635 0.030639
-0.249049 -0.066853 0.032885
-0.246871 -0.066073 0.035127
-0.244653 -0.064517 0.039356
-0.242487 -0.063742 0.041582
-0.240287 -0.062197 0.045783
-0.238134 -0.061428 0.047995
-0.236019 -0.061428 0.048233
-0.233872 -0.060659 0.050440
-0.231730 -0.059893 0.052642
-0.229593 -0.059128 0.054839
-0.227461 -0.058365 0.057031
-0.225333 -0.057604 0.059219
-0.223230 -0.057604 0.059455
-0.221110 -0.056844 0.061638
-0.218994 -0.056086 0.063815
-0.216882 -0.055330 0.065988
-0.214776 -0.054575 0.068156
-0.212682 -0.054575 0.068391
-0.210582 -0.053822 0.070554
-0.208487 -0.053071 0.072713
-0.206398 -0.053071 0.072947
-0.204310 -0.052321 0.075101
-0.202223 -0.052321 0.075335
-0.200142 -0.051573 0.077483
-0.198057 -0.051573 0.077718
-0.195983 -0.050827 0.079861
-0.193900 -0.050827 0.080095
-0.191833 -0.050082 0.082234
-0.189753 -0.050082 0.082468
-0.187673 -0.050082 0.082702
-0.185614 -0.049339 0.084835
-0.183536 -0.049339 0.085068
-0.181459 -0.049339 0.085302
-0.179381 -0.049339 0.085536
-0.177303 -0.049339 0.085769
-0.175226 -0.049339 0.086003
-0.173148 -0.049339 0.086237
-0.171144 -0.047857 0.090253
-0.169071 -0.047857 0.090486
-0.167040 -0.047119 0.092604
-0.164969 -0.047119 0.092837
-0.162898 -0.047119 0.093069
-0.160827 -0.047119 0.093302
-0.158756 -0.047119 0.093535
-0.156685 -0.047119 0.093768
-0.154614 -0.047119 0.094001
-0.152543 -0.047119 0.094234
-0.150472 -0.047119 0.094467
-0.148401 -0.047119 0.094700
-0.146330 -0.047119 0.094933
-0.144259 -0.047119 0.095166
-0.142189 -0.047119 0.095399
-0.140047 -0.047857 0.093750
-0.137974 -0.047857 0.093984
-0.135900 -0.047857 0.094217
-0.133827 -0.047857 0.094450
-0.131754 -0.047857 0.094683
-0.129681 -0.047857 0.094916
-0.127608 -0.047857 0.095149
-0.125534 -0.047857 0.095383
-0.123283 -0.049339 0.091845
-0.121205 -0.049339 0.092079
-0.119127 -0.049339 0.092313
-0.117049 -0.049339 0.092546
-0.114972 -0.049339 0.092780
-0.112894 -0.049339 0.093014
-0.110816 -0.049339 0.093247
-0.108739 -0.049339 0.093481
-0.106553 -0.050082 0.091825
-0.104473 -0.050082 0.092059
-0.102393 -0.050082 0.092293
-0.100313 -0.050082 0.092527
-0.098233 -0.050082 0.092761
-0.096153 -0.050082 0.092995
-0.094073 -0.050082 0.093229
-0.091993 -0.050082 0.093463
-0.089787 -0.050827 0.091805
-0.087705 -0.050827 0.092040
-0.085622 -0.050827 0.092274
-0.083540 -0.050827 0.092508
-0.081458 -0.050827 0.092742
-0.079376 -0.050827 0.092976
-0.077153 -0.051573 0.091316
-0.075069 -0.051573 0.091551
-0.072984 -0.051573 0.091785
-0.070900 -0.051573 0.092020
-0.068665 -0.052321 0.090357
-0.066578 -0.052321 0.090592
-0.064337 -0.053071 0.088925
-0.062248 -0.053071 0.089160
-0.060159 -0.053071 0.089395
-0.057908 -0.053822 0.087726
-0.055816 -0.053822 0.087961
-0.053725 -0.053822 0.088197
-0.051464 -0.054575 0.086524
-0.049371 -0.054575 0.086759
-0.047103 -0.055330 0.085084
-0.045007 -0.055330 0.085319
-0.042911 -0.055330 0.085555
-0.040633 -0.056086 0.083876
-0.038535 -0.056086 0.084112
-0.036437 -0.056086 0.084348
-0.034150 -0.056844 0.082666
-0.032049 -0.056844 0.082902
-0.029754 -0.057604 0.081216
-0.027651 -0.057604 0.081453
-0.025548 -0.057604 0.081689
-0.023244 -0.058365 0.080000
-0.021139 -0.058365 0.080237
-0.019033 -0.058365 0.080474
-0.016719 -0.059128 0.078782
-0.014612 -0.059128 0.079019
-0.012290 -0.059893 0.077323
-0.010180 -0.059893 0.077560
-0.008070 -0.059893 0.077798
-0.005739 -0.060659 0.076099
-0.003627 -0.060659 0.076336
-0.001514 -0.060659 0.076574
0.000827 -0.061428 0.074872
0.002942 -0.061428 0.075109
0.005290 -0.062197 0.073404
0.007407 -0.062197 0.073642
0.009525 -0.062197 0.073880
0.011883 -0.062969 0.072171
0.014003 -0.062969 0.072409
0.016122 -0.062969 0.072648
0.018491 -0.063742 0.070935
0.020613 -0.063742 0.071174
0.022989 -0.064517 0.069458
0.025113 -0.064517 0.069697
0.027237 -0.064517 0.069936
0.029624 -0.065294 0.068217
0.031750 -0.065294 0.068456
0.033877 -0.065294 0.068695
0.036273 -0.066073 0.066973
0.038402 -0.066073 0.067212
0.040807 -0.066853 0.065486
0.042938 -0.066853 0.065726
0.045069 -0.066853 0.065966
0.047484 -0.067635 0.064236
0.049617 -0.067635 0.064476
0.051751 -0.067635 0.064716
0.054176 -0.068419 0.062984
0.056312 -0.068419 0.063224
0.058745 -0.069204 0.061487
0.060883 -0.069204 0.061728
0.063022 -0.069204 0.061968
0.065464 -0.069991 0.060229
0.067605 -0.069991 0.060469
0.069746 -0.069991 0.060710
0.072199 -0.070780 0.058967
0.074658 -0.071571 0.057220
0.076804 -0.071571 0.057462
0.079271 -0.072364 0.055711
0.081419 -0.072364 0.055952
0.083894 -0.073158 0.054198
0.086044 -0.073158 0.054440
0.088527 -0.073955 0.052682
0.090680 -0.073955 0.052924
0.092833 -0.073955 0.053166
0.095326 -0.074753 0.051405
0.097482 -0.074753 0.051647
0.099637 -0.074753 0.051889
0.101793 -0.074753 0.052132
0.104299 -0.075552 0.050367
0.106457 -0.075552 0.050610
0.108971 -0.076354 0.048841
0.111132 -0.076354 0.049084
0.113292 -0.076354 0.049327
0.115817 -0.077158 0.047555
0.117980 -0.077158 0.047799
0.120513 -0.077963 0.046023
0.122679 -0.077963 0.046267
0.125220 -0.078770 0.044487
0.127388 -0.078770 0.044731
0.129556 -0.078770 0.044975
0.131340 -0.077963 0.047241
0.132735 -0.076354 0.051514
0.134510 -0.075552 0.053765
0.136668 -0.075552 0.054008
0.138435 -0.074753 0.056253
0.140591 -0.074753 0.056496
0.142746 -0.074753 0.056738
0.096948 0.021775 0.298581
0.097918 0.023555 0.303245
0.099179 0.024736 0.306408
0.100138 0.026499 0.311026
0.101984 0.026499 0.311234
0.103530 0.027084 0.312905
0.105073 0.027668 0.314573
0.106915 0.027668 0.314780
0.108454 0.028251 0.316445
0.109989 0.028833 0.318107
0.111827 0.028833 0.318314
0.113666 0.028833 0.318520
0.115195 0.029414 0.320178
0.117032 0.029414 0.320385
0.118556 0.029993 0.322039
0.120391 0.029993 0.322246
0.121910 0.030572 0.323897
0.123426 0.031149 0.325545
0.125258 0.031149 0.325751
0.126770 0.031725 0.327395
0.128279 0.032301 0.329037
0.130107 0.032301 0.329243
0.131611 0.032875 0.330881
0.133437 0.032875 0.331086
0.134936 0.033448 0.332721
0.136433 0.034020 0.334352
0.138256 0.034020 0.334557
0.139748 0.034590 0.336186
0.141237 0.035160 0.337811
0.143056 0.035160 0.338015
0.144541 0.035729 0.339637
0.146358 0.035729 0.339842
0.147838 0.036296 0.341460
0.149316 0.036862 0.343076
0.151130 0.036862 0.343280
0.152602 0.037428 0.344892
0.154072 0.037992 0.346501
0.155883 0.037992 0.346705
0.157348 0.038555 0.348311
0.158811 0.039117 0.349914
0.160270 0.039678 0.351513
0.162076 0.039678 0.351716
0.163881 0.039678 0.351919
0.166039 0.039117 0.350727
0.167492 0.039678 0.352326
0.169298 0.039678 0.352529
0.171103 0.039678 0.352732
0.172908 0.039678 0.352935
0.174714 0.039678 0.353138
0.176519 0.039678 0.353341
0.178325 0.039678 0.353544
0.180130 0.039678 0.353747
0.181935 0.039678 0.353950
0.183372 0.040238 0.355545
0.184806 0.040797 0.357136
0.186237 0.041355 0.358724
0.188037 0.041355 0.358927
0.189464 0.041912 0.360512
0.191262 0.041912 0.360714
0.193061 0.041912 0.360917
0.194859 0.041912 0.361119
0.196658 0.041912 0.361321
0.198456 0.041912 0.361523
0.199872 0.042468 0.363105
0.202054 0.041912 0.361928
0.204240 0.041355 0.360749
0.206430 0.040797 0.359568
0.208624 0.040238 0.358385
0.210428 0.040238 0.358588
0.213025 0.039117 0.356011
0.215232 0.038555 0.354821
0.217845 0.037428 0.352230
0.220469 0.036296 0.349629
0.223103 0.035160 0.347019
0.225334 0.034590 0.345812
0.227985 0.033448 0.343186
0.230646 0.032301 0.340551
0.233317 0.031149 0.337905
0.235999 0.029993 0.335249
0.238262 0.029414 0.334020
0.240961 0.028251 0.331349
0.243670 0.027084 0.328667
0.245952 0.026499 0.327426
0.248679 0.025325 0.324729
0.251862 0.023555 0.320559
0.254614 0.022370 0.317835
0.257376 0.021180 0.315101
0.261524 0.018184 0.307902
0.269942 0.009637 0.286979
0.282547 -0.004287 0.252768
0.282993 -0.002352 0.257770
0.282940 0.000211 0.264321
0.283382 0.002119 0.269253
0.284313 0.003384 0.272596
0.285241 0.004645 0.275926
0.285672 0.006526 0.280789
0.286592 0.007774 0.284086
0.287509 0.009017 0.287369
0.288422 0.010255 0.290640
0.289824 0.010873 0.292377
0.291223 0.011489 0.294110
0.292125 0.012717 0.297355
0.293518 0.013329 0.299078
0.294908 0.013940 0.300798
0.296792 0.013940 0.301010
0.298177 0.014550 0.302726
0.299560 0.015159 0.304439
0.301942 0.014550 0.303150
0.303321 0.015159 0.304862
0.305201 0.015159 0.305074
0.306575 0.015766 0.306783
0.307947 0.016372 0.308488
0.309824 0.016372 0.308699
0.311191 0.016978 0.310401
0.313065 0.016978 0.310612
0.314428 0.017581 0.312310
0.316301 0.017581 0.312521
0.317659 0.018184 0.314216
0.319530 0.018184 0.314426
0.321401 0.018184 0.314637
0.323272 0.018184 0.314847
0.325143 0.018184 0.315058
0.327015 0.018184 0.315268
0.328886 0.018184 0.315479
0.330757 0.018184 0.315689
0.332628 0.018184 0.315900
0.334499 0.018184 0.316110
0.336370 0.018184 0.316320
0.338777 0.017581 0.315049
0.340650 0.017581 0.315260
0.342523 0.017581 0.315470
0.344938 0.016978 0.314197
0.346813 0.016978 0.314408
0.348688 0.016978 0.314618
0.350563 0.016978 0.314829
0.352438 0.016978 0.315040
0.354312 0.016978 0.315251
0.356187 0.016978 0.315462
0.358618 0.016372 0.314187
0.360495 0.016372 0.314398
0.362372 0.016372 0.314609
0.364248 0.016372 0.314820
0.366689 0.015766 0.313544
0.368568 0.015766 0.313755
0.371016 0.015159 0.312476
0.373469 0.014550 0.311194
0.375351 0.014550 0.311406
0.377810 0.013940 0.310122
0.379695 0.013940 0.310334
0.382161 0.013329 0.309048
0.384632 0.012717 0.307759
0.386520 0.012717 0.307971
0.389589 0.011489 0.305174
0.391481 0.011489 0.305387
0.393969 0.010873 0.304090
0.396461 0.010255 0.302792
0.398959 0.009637 0.301490
0.402068 0.008397 0.298666
0.405802 0.006526 0.294300
0.409559 0.004645 0.289909
-0.279935 -0.099121 -0.047009
-0.277458 -0.096572 -0.040229
-0.274998 -0.094040 -0.033497
-0.272633 -0.092363 -0.028952
-0.270204 -0.089861 -0.022298
-0.267792 -0.087376 -0.015689
-0.265396 -0.084908 -0.009126
-0.263017 -0.082457 -0.002608
-0.260717 -0.080833 0.001794
-0.258368 -0.078410 0.008237
-0.256092 -0.076804 0.012590
-0.253826 -0.075205 0.016922
-0.251518 -0.072820 0.023264
-0.249275 -0.071239 0.027548
-0.247042 -0.069665 0.031813
-0.244909 -0.069665 0.032053
-0.242691 -0.068098 0.036298
-0.240483 -0.066539 0.040524
-0.238322 -0.065761 0.042750
-0.236165 -0.064986 0.044970
-0.234014 -0.064212 0.047186
-0.231867 -0.063440 0.049396
-0.229725 -0.062670 0.051602
-0.227588 -0.061901 0.053803
-0.225455 -0.061134 0.055999
-0.223347 -0.061134 0.056236
-0.221222 -0.060369 0.058426
-0.219101 -0.059605 0.060612
-0.216985 -0.058843 0.062794
-0.214874 -0.058083 0.064970
-0.212767 -0.057324 0.067141
-0.210671 -0.057324 0.067377
-0.208571 -0.056568 0.069543
-0.206476 -0.055812 0.071705
-0.204385 -0.055059 0.073862
-0.202296 -0.055059 0.074097
-0.200207 -0.055059 0.074332
-0.198126 -0.054307 0.076484
-0.196049 -0.053557 0.078630
-0.193964 -0.053557 0.078865
-0.191880 -0.053557 0.079099
-0.189812 -0.052808 0.081241
-0.187730 -0.052808 0.081475
-0.185647 -0.052808 0.081709
-0.183565 -0.052808 0.081944
-0.181483 -0.052808 0.082178
-0.179429 -0.052061 0.084314
-0.177318 -0.052808 0.082646
-0.175269 -0.052061 0.084782
-0.173189 -0.052061 0.085016
-0.171109 -0.052061 0.085250
-0.169068 -0.051316 0.087380
-0.166991 -0.051316 0.087614
-0.164913 -0.051316 0.087847
-0.162835 -0.051316 0.088081
-0.160758 -0.051316 0.088315
-0.158680 -0.051316 0.088548
-0.156708 -0.049830 0.092559
-0.154635 -0.049830 0.092793
-0.152562 -0.049830 0.093026
-0.150369 -0.051316 0.089483
-0.148291 -0.051316 0.089717
-0.146214 -0.051316 0.089951
-0.144136 -0.051316 0.090184
-0.142058 -0.051316 0.090418
-0.139980 -0.051316 0.090652
-0.137903 -0.051316 0.090885
-0.135825 -0.051316 0.091119
-0.133669 -0.052061 0.089461
-0.131589 -0.052061 0.089695
-0.129509 -0.052061 0.089929
-0.127429 -0.052061 0.090163
-0.125349 -0.052061 0.090396
-0.123269 -0.052061 0.090630
-0.121189 -0.052061 0.090864
-0.119109 -0.052061 0.091098
-0.116933 -0.052808 0.089438
-0.114850 -0.052808 0.089672
-0.112768 -0.052808 0.089906
-0.110686 -0.052808 0.090141
-0.108604 -0.052808 0.090375
-0.106521 -0.052808 0.090609
-0.104439 -0.052808 0.090843
-0.102357 -0.052808 0.091077
-0.100159 -0.053557 0.089415
-0.098075 -0.053557 0.089650
-0.095990 -0.053557 0.089884
-0.093906 -0.053557 0.090119
-0.091821 -0.053557 0.090353
-0.089737 -0.053557 0.090588
-0.087652 -0.053557 0.090822
-0.085436 -0.054307 0.089158
-0.083350 -0.054307 0.089393
-0.081263 -0.054307 0.089628
-0.079037 -0.055059 0.087960
-0.076948 -0.055059 0.088195
-0.074859 -0.055059 0.088430
-0.072624 -0.055812 0.086760
-0.070533 -0.055812 0.086995
-0.068441 -0.055812 0.087230
-0.066197 -0.056568 0.085557
-0.064103 -0.056568 0.085792
-0.061852 -0.057324 0.084115
-0.059756 -0.057324 0.084351
-0.057660 -0.057324 0.084587
-0.055399 -0.058083 0.082906
-0.053300 -0.058083 0.083142
-0.051202 -0.058083 0.083378
-0.048931 -0.058843 0.081695
-0.046830 -0.058843 0.081931
-0.044552 -0.059605 0.080244
-0.042449 -0.059605 0.080481
-0.040346 -0.059605 0.080717
-0.038058 -0.060369 0.079027
-0.035953 -0.060369 0.079264
-0.033848 -0.060369 0.079501
-0.031550 -0.061134 0.077808
-0.029443 -0.061134 0.078045
-0.027138 -0.061901 0.076348
-0.025028 -0.061901 0.076585
-0.022918 -0.061901 0.076823
-0.020603 -0.062670 0.075123
-0.018490 -0.062670 0.075360
-0.016378 -0.062670 0.075598
-0.014053 -0.063440 0.073894
-0.011939 -0.063440 0.074132
-0.009606 -0.064212 0.072426
-0.007489 -0.064212 0.072664
-0.005372 -0.064212 0.072902
-0.003030 -0.064986 0.071192
-0.000911 -0.064986 0.071430
0.001209 -0.064986 0.071668
0.003561 -0.065761 0.069955
0.005683 -0.065761 0.070194
0.008042 -0.066539 0.068477
0.010166 -0.066539 0.068716
0.012291 -0.066539 0.068955
0.014660 -0.067318 0.067234
0.016787 -0.067318 0.067474
0.018913 -0.067318 0.067713
0.021293 -0.068098 0.065989
0.023422 -0.068098 0.066229
0.025810 -0.068881 0.064501
0.027941 -0.068881 0.064741
0.030072 -0.068881 0.064981
0.032470 -0.069665 0.063250
0.034604 -0.069665 0.063490
0.036737 -0.069665 0.063730
0.039145 -0.070451 0.061997
0.041281 -0.070451 0.062237
0.043697 -0.071239 0.060499
0.045835 -0.071239 0.060740
0.047974 -0.071239 0.060980
0.050400 -0.072029 0.059240
0.052541 -0.072029 0.059480
0.054682 -0.072029 0.059721
0.057118 -0.072820 0.057977
0.059261 -0.072820 0.058218
0.061705 -0.073613 0.056470
0.064155 -0.074408 0.054718
0.066303 -0.074408 0.054960
0.068761 -0.075205 0.053204
0.070911 -0.075205 0.053446
0.073062 -0.075205 0.053688
0.075530 -0.076003 0.051929
0.077683 -0.076003 0.052171
0.080159 -0.076804 0.050409
0.082315 -0.076804 0.050651
0.084799 -0.077606 0.048885
0.086957 -0.077606 0.049127
0.089115 -0.077606 0.049370
0.091610 -0.078410 0.047600
0.093770 -0.078410 0.047843
0.096273 -0.079216 0.046070
0.098436 -0.079216 0.046313
0.100598 -0.079216 0.046556
0.102761 -0.079216 0.046799
0.105277 -0.080023 0.045023
0.107442 -0.080023 0.045266
0.109608 -0.080023 0.045510
0.112134 -0.080833 0.043729
0.114302 -0.080833 0.043973
0.116837 -0.081644 0.042189
0.119007 -0.081644 0.042433
0.121550 -0.082457 0.040645
0.123723 -0.082457 0.040890
0.125896 -0.082457 0.041134
0.128450 -0.083272 0.039343
0.129858 -0.081644 0.043654
0.131644 -0.080833 0.045924
0.133812 -0.080833 0.046167
0.135591 -0.080023 0.048432
0.137756 -0.080023 0.048676
0.139529 -0.079216 0.050935
0.141692 -0.079216 0.051178
0.094433 0.021196 0.301949
0.095702 0.022383 0.305118
0.096379 0.024742 0.311211
0.098225 0.024742 0.311419
0.099775 0.025329 0.313090
0.101321 0.025915 0.314758
0.103164 0.025915 0.314965
0.104705 0.026500 0.316630
0.106244 0.027083 0.318291
0.108083 0.027083 0.318498
0.109617 0.027666 0.320156
0.111454 0.027666 0.320363
0.112983 0.028247 0.322017
0.114818 0.028247 0.322224
0.116343 0.028827 0.323875
0.117865 0.029406 0.325523
0.119696 0.029406 0.325729
0.121214 0.029984 0.327373
0.123043 0.029984 0.327579
0.124556 0.030561 0.329220
0.126384 0.030561 0.329426
0.127891 0.031137 0.331064
0.129396 0.031712 0.332699
0.131221 0.031712 0.332904
0.132721 0.032285 0.334535
0.134544 0.032285 0.334740
0.136039 0.032857 0.336368
0.137532 0.033429 0.337993
0.139022 0.033999 0.339615
0.140839 0.033999 0.339820
0.142325 0.034568 0.341438
0.144140 0.034568 0.341642
0.145621 0.035136 0.343258
0.147099 0.035703 0.344870
0.148911 0.035703 0.345074
0.150385 0.036269 0.346683
0.152195 0.036269 0.346886
0.153664 0.036834 0.348492
0.155130 0.037398 0.350095
0.156937 0.037398 0.350298
0.158399 0.037960 0.351898
0.159858 0.038522 0.353494
0.161661 0.038522 0.353697
0.163465 0.038522 0.353900
0.165269 0.038522 0.354103
0.167073 0.038522 0.354305
0.168876 0.038522 0.354508
0.170680 0.038522 0.354711
0.172484 0.038522 0.354914
0.174287 0.038522 0.355117
0.176091 0.038522 0.355320
0.177895 0.038522 0.355523
0.179334 0.039083 0.357114
0.181502 0.038522 0.355928
0.183306 0.038522 0.356131
0.184370 0.039642 0.359107
0.185801 0.040200 0.360692
0.187971 0.039642 0.359512
0.189398 0.040200 0.361097
0.191196 0.040200 0.361299
0.192995 0.040200 0.361502
0.194794 0.040200 0.361704
0.196592 0.040200 0.361906
0.198009 0.040758 0.363487
0.199806 0.040758 0.363689
0.201988 0.040200 0.362513
0.204174 0.039642 0.361335
0.206754 0.038522 0.358769
0.208166 0.039083 0.360357
0.210756 0.037960 0.357786
0.212959 0.037398 0.356599
0.215566 0.036269 0.354014
0.218183 0.035136 0.351419
0.220403 0.034568 0.350220
0.223037 0.033429 0.347610
0.225680 0.032285 0.344991
0.228334 0.031137 0.342361
0.230579 0.030561 0.341145
0.233250 0.029406 0.338500
0.235932 0.028247 0.335846
0.238623 0.027083 0.333180
0.240893 0.026500 0.331947
0.243603 0.025329 0.329267
0.246322 0.024154 0.326576
0.249053 0.022975 0.323874
0.252240 0.021196 0.319698
0.254995 0.020005 0.316970
0.258671 0.017609 0.311272
0.267032 0.009071 0.290437
0.282527 -0.008740 0.246756
0.282974 -0.006783 0.251798
0.283419 -0.004838 0.256808
0.283365 -0.002263 0.263370
0.283805 -0.000345 0.268310
0.284737 0.000927 0.271658
0.285665 0.002194 0.274993
0.286095 0.004084 0.279864
0.287015 0.005338 0.283166
0.287932 0.006588 0.286455
0.288845 0.007832 0.289730
0.290248 0.008452 0.291470
0.291648 0.009071 0.293206
0.293046 0.009689 0.294939
0.293449 0.011534 0.299691
0.295335 0.011534 0.299904
0.296723 0.012147 0.301623
0.298607 0.012147 0.301835
0.299991 0.012759 0.303550
0.301873 0.012759 0.303762
0.303252 0.013369 0.305474
0.305132 0.013369 0.305685
0.306507 0.013979 0.307394
0.308385 0.013979 0.307605
0.309755 0.014587 0.309310
0.311632 0.014587 0.309521
0.312997 0.015193 0.311222
0.314359 0.015799 0.312920
0.316232 0.015799 0.313130
0.318105 0.015799 0.313341
0.319978 0.015799 0.313552
0.321333 0.016404 0.315245
0.323204 0.016404 0.315456
0.325075 0.016404 0.315666
0.326946 0.016404 0.315877
0.329343 0.015799 0.314605
0.331216 0.015799 0.314816
0.333089 0.015799 0.315026
0.334962 0.015799 0.315237
0.336302 0.016404 0.316929
0.338709 0.015799 0.315658
0.340582 0.015799 0.315869
0.342995 0.015193 0.314596
0.344869 0.015193 0.314807
0.346744 0.015193 0.315017
0.348619 0.015193 0.315228
0.350494 0.015193 0.315439
0.352369 0.015193 0.315650
0.354796 0.014587 0.314375
0.356119 0.015193 0.316072
0.358549 0.014587 0.314798
0.360426 0.014587 0.315009
0.362303 0.014587 0.315220
0.364180 0.014587 0.315431
0.366621 0.013979 0.314155
0.368499 0.013979 0.314366
0.370947 0.013369 0.313088
0.373400 0.012759 0.311807
0.375282 0.012759 0.312018
0.377742 0.012147 0.310735
0.380206 0.011534 0.309449
0.382092 0.011534 0.309661
0.384563 0.010920 0.308373
0.387628 0.009689 0.305577
0.389520 0.009689 0.305789
0.391411 0.009689 0.306002
0.393899 0.009071 0.304706
0.396392 0.008452 0.303408
0.399493 0.007210 0.300590
0.403216 0.005338 0.296235
0.406961 0.003455 0.291854
0.410108 0.002194 0.288990
-0.275652 -0.102093 -0.047971
-0.273187 -0.099530 -0.041180
-0.270815 -0.097832 -0.036596
-0.268381 -0.095299 -0.029884
-0.265964 -0.092784 -0.023219
-0.263564 -0.090286 -0.016600
-0.261180 -0.087806 -0.010026
-0.258874 -0.086162 -0.005587
-0.256520 -0.083709 0.000911
-0.254182 -0.081274 0.007365
-0.251912 -0.079659 0.011725
-0.249603 -0.077251 0.018105
-0.247357 -0.075655 0.022416
-0.245121 -0.074066 0.026707
-0.242938 -0.073274 0.028965
-0.240719 -0.071696 0.033227
-0.238548 -0.070909 0.035470
-0.236347 -0.069341 0.039703
-0.234156 -0.067780 0.043917
-0.232004 -0.067003 0.046137
-0.229857 -0.066227 0.048351
-0.227715 -0.065452 0.050560
-0.225600 -0.065452 0.050798
-0.223465 -0.064680 0.053002
-0.221335 -0.063909 0.055201
-0.219209 -0.063140 0.057395
-0.217088 -0.062372 0.059585
-0.214972 -0.061606 0.061770
-0.212861 -0.060842 0.063949
-0.210754 -0.060080 0.066124
-0.208652 -0.059319 0.068295
-0.206555 -0.059319 0.068530
-0.204460 -0.058560 0.070695
-0.202370 -0.057803 0.072856
-0.200278 -0.057803 0.073091
-0.198187 -0.057803 0.073326
-0.196105 -0.057047 0.075481
-0.194028 -0.056293 0.077632
-0.191941 -0.056293 0.077867
-0.189855 -0.056293 0.078101
-0.187768 -0.056293 0.078336
-0.185681 -0.056293 0.078571
-0.183618 -0.055540 0.080715
-0.181533 -0.055540 0.080950
-0.179449 -0.055540 0.081184
-0.177395 -0.054790 0.083324
-0.175312 -0.054790 0.083558
-0.173230 -0.054790 0.083792
-0.171148 -0.054790 0.084026
-0.169066 -0.054790 0.084260
-0.166983 -0.054790 0.084495
-0.164901 -0.054790 0.084729
-0.162819 -0.054790 0.084963
-0.160785 -0.054041 0.087096
-0.158705 -0.054041 0.087330
-0.156625 -0.054041 0.087564
-0.154545 -0.054041 0.087798
-0.152465 -0.054041 0.088032
-0.150385 -0.054041 0.088266
-0.148305 -0.054041 0.088500
-0.146225 -0.054041 0.088734
-0.144078 -0.054790 0.087071
-0.141996 -0.054790 0.087305
-0.139914 -0.054790 0.087539
-0.137832 -0.054790 0.087773
-0.135749 -0.054790 0.088008
-0.133667 -0.054790 0.088242
-0.131585 -0.054790 0.088476
-0.129419 -0.055540 0.086811
-0.127335 -0.055540 0.087046
-0.125250 -0.055540 0.087280
-0.123166 -0.055540 0.087514
-0.121081 -0.055540 0.087749
-0.118997 -0.055540 0.087983
-0.116912 -0.055540 0.088218
-0.114828 -0.055540 0.088452
-0.112743 -0.055540 0.088687
-0.110555 -0.056293 0.087020
-0.108468 -0.056293 0.087255
-0.106381 -0.056293 0.087490
-0.104294 -0.056293 0.087724
-0.102207 -0.056293 0.087959
-0.100121 -0.056293 0.088194
-0.098034 -0.056293 0.088429
-0.095827 -0.057047 0.086760
-0.093738 -0.057047 0.086995
-0.091649 -0.057047 0.087230
-0.089559 -0.057047 0.087465
-0.087341 -0.057803 0.085793
-0.085249 -0.057803 0.086029
-0.083158 -0.057803 0.086264
-0.080930 -0.058560 0.084589
-0.078836 -0.058560 0.084825
-0.076742 -0.058560 0.085060
-0.074505 -0.059319 0.083382
-0.072409 -0.059319 0.083618
-0.070164 -0.060080 0.081937
-0.068066 -0.060080 0.082173
-0.065967 -0.060080 0.082409
-0.063713 -0.060842 0.080724
-0.061612 -0.060842 0.080961
-0.059511 -0.060842 0.081197
-0.057247 -0.061606 0.079509
-0.055144 -0.061606 0.079746
-0.052873 -0.062372 0.078055
-0.050767 -0.062372 0.078292
-0.048662 -0.062372 0.078528
-0.046381 -0.063140 0.076834
-0.044273 -0.063140 0.077071
-0.042166 -0.063140 0.077308
-0.039875 -0.063909 0.075611
-0.037765 -0.063909 0.075848
-0.035466 -0.064680 0.074147
-0.033354 -0.064680 0.074384
-0.031242 -0.064680 0.074622
-0.028934 -0.065452 0.072917
-0.026819 -0.065452 0.073155
-0.024704 -0.065452 0.073393
-0.022386 -0.066227 0.071686
-0.020269 -0.066227 0.071924
-0.017944 -0.067003 0.070213
-0.015824 -0.067003 0.070451
-0.013705 -0.067003 0.070689
-0.011369 -0.067780 0.068975
-0.009247 -0.067780 0.069213
-0.007126 -0.067780 0.069452
-0.004780 -0.068560 0.067734
-0.002656 -0.068560 0.067973
-0.000303 -0.069341 0.066252
0.001823 -0.069341 0.066491
0.003950 -0.069341 0.066730
0.006313 -0.070124 0.065006
0.008442 -0.070124 0.065245
0.010571 -0.070124 0.065485
0.012944 -0.070909 0.063756
0.015075 -0.070909 0.063996
0.017456 -0.071696 0.062265
0.019590 -0.071696 0.062505
0.021723 -0.071696 0.062745
0.024114 -0.072484 0.061010
0.026251 -0.072484 0.061250
0.028387 -0.072484 0.061490
0.030788 -0.073274 0.059752
0.032926 -0.073274 0.059992
0.035335 -0.074066 0.058250
0.037476 -0.074066 0.058491
0.039617 -0.074066 0.058732
0.042036 -0.074859 0.056987
0.044180 -0.074859 0.057228
0.046323 -0.074859 0.057469
0.048753 -0.075655 0.055720
0.051188 -0.076452 0.053967
0.053336 -0.076452 0.054209
0.055779 -0.077251 0.052453
0.057929 -0.077251 0.052694
0.060380 -0.078052 0.050934
0.062533 -0.078052 0.051177
0.064992 -0.078855 0.049413
0.067148 -0.078855 0.049655
0.069303 -0.078855 0.049898
0.071773 -0.079659 0.048130
0.073931 -0.079659 0.048373
0.076408 -0.080466 0.046602
0.078568 -0.080466 0.046845
0.081054 -0.081274 0.045070
0.083217 -0.081274 0.045314
0.085380 -0.081274 0.045557
0.087876 -0.082084 0.043779
0.090041 -0.082084 0.044022
0.092545 -0.082896 0.042240
0.094713 -0.082896 0.042484
0.097226 -0.083709 0.040698
0.099396 -0.083709 0.040942
0.101566 -0.083709 0.041186
0.103736 -0.083709 0.041430
0.105907 -0.083709 0.041675
0.108435 -0.084525 0.039886
0.110608 -0.084525 0.040130
