ply
format ascii 1.0
element vertex 1665
property float x
property float y
property float z
end_header
-0.305340 0.146431 -0.474237
-0.307294 0.146311 -0.474059
-0.308485 0.146311 -0.473060
-0.309675 0.146311 -0.472061
-0.311625 0.146192 -0.471886
-0.312815 0.146192 -0.470887
-0.314760 0.146073 -0.470713
-0.315949 0.146073 -0.469716
-0.317890 0.145954 -0.469542
-0.319078 0.145954 -0.468546
-0.321015 0.145836 -0.468373
-0.322202 0.145836 -0.467377
-0.324135 0.145717 -0.467206
-0.325321 0.145717 -0.466211
-0.327992 0.145481 -0.466864
-0.329176 0.145481 -0.465871
-0.331099 0.145363 -0.465701
-0.332282 0.145363 -0.464709
-0.334201 0.145245 -0.464540
-0.335382 0.145245 -0.463549
-0.337297 0.145128 -0.463381
-0.338478 0.145128 -0.462390
-0.340389 0.145011 -0.462224
-0.341569 0.145011 -0.461234
-0.343476 0.144893 -0.461068
-0.344655 0.144893 -0.460079
-0.346557 0.144776 -0.459915
-0.347735 0.144776 -0.458926
-0.349634 0.144660 -0.458763
-0.350811 0.144660 -0.457775
-0.352706 0.144543 -0.457613
-0.353882 0.144543 -0.456626
-0.355058 0.144543 -0.455639
-0.356235 0.144543 -0.454652
-0.358123 0.144427 -0.454492
-0.359299 0.144427 -0.453506
-0.360474 0.144427 -0.452520
-0.362358 0.144311 -0.452362
-0.363532 0.144311 -0.451377
-0.364706 0.144311 -0.450392
-0.366586 0.144195 -0.450236
-0.367759 0.144195 -0.449251
-0.368932 0.144195 -0.448267
-0.370806 0.144079 -0.448113
-0.371979 0.144079 -0.447129
-0.373151 0.144079 -0.446145
-0.375021 0.143963 -0.445993
-0.376887 0.143848 -0.445841
-0.378058 0.143848 -0.444859
-0.379228 0.143848 -0.443876
-0.381090 0.143733 -0.443726
-0.382259 0.143733 -0.442745
-0.383429 0.143733 -0.441763
-0.385285 0.143618 -0.441615
-0.386454 0.143618 -0.440634
-0.387623 0.143618 -0.439654
-0.389475 0.143503 -0.439507
-0.390642 0.143503 -0.438527
-0.391810 0.143503 -0.437547
-0.393657 0.143388 -0.437402
-0.394824 0.143388 -0.436423
-0.395991 0.143388 -0.435444
-0.397833 0.143273 -0.435301
-0.398999 0.143273 -0.434323
-0.400165 0.143273 -0.433345
-0.402002 0.143159 -0.433203
-0.403167 0.143159 -0.432226
-0.404332 0.143159 -0.431248
-0.406165 0.143045 -0.431109
-0.407329 0.143045 -0.430132
-0.408493 0.143045 -0.429155
-0.410321 0.142931 -0.429018
-0.410821 0.143045 -0.427202
-0.412647 0.142931 -0.427066
-0.413810 0.142931 -0.426090
-0.414973 0.142931 -0.425114
-0.416136 0.142931 -0.424138
-0.417957 0.142817 -0.424004
-0.419774 0.142704 -0.423871
-0.420935 0.142704 -0.422896
-0.422097 0.142704 -0.421922
-0.423258 0.142704 -0.420948
-0.425070 0.142590 -0.420817
-0.426230 0.142590 -0.419843
-0.427391 0.142590 -0.418869
-0.428551 0.142590 -0.417896
-0.430357 0.142477 -0.417767
-0.431517 0.142477 -0.416795
-0.432676 0.142477 -0.415822
-0.434478 0.142364 -0.415695
-0.435636 0.142364 -0.414723
-0.436795 0.142364 -0.413751
-0.437953 0.142364 -0.412779
-0.439112 0.142364 -0.411807
-0.440270 0.142364 -0.410835
-0.441429 0.142364 -0.409862
-0.442587 0.142364 -0.408890
-0.443111 0.142477 -0.407066
-0.444270 0.142477 -0.406093
-0.445430 0.142477 -0.405120
-0.446589 0.142477 -0.404147
-0.447749 0.142477 -0.403174
-0.448908 0.142477 -0.402201
-0.449437 0.142590 -0.400370
-0.450598 0.142590 -0.399396
-0.451758 0.142590 -0.398423
-0.452918 0.142590 -0.397449
-0.453451 0.142704 -0.395613
-0.454612 0.142704 -0.394638
-0.455773 0.142704 -0.393664
-0.456935 0.142704 -0.392689
-0.458096 0.142704 -0.391715
-0.459257 0.142704 -0.390741
-0.460419 0.142704 -0.389766
-0.460958 0.142817 -0.387922
-0.462120 0.142817 -0.386947
-0.463282 0.142817 -0.385972
-0.464444 0.142817 -0.384997
-0.464987 0.142931 -0.383147
-0.466150 0.142931 -0.382171
-0.466695 0.143045 -0.380318
-0.467859 0.143045 -0.379342
-0.469023 0.143045 -0.378365
-0.469570 0.143159 -0.376507
-0.470118 0.143273 -0.374647
-0.471900 0.143159 -0.374552
-0.472450 0.143273 -0.372690
-0.473000 0.143388 -0.370825
-0.474167 0.143388 -0.369846
-0.474720 0.143503 -0.367978
-0.475273 0.143618 -0.366106
-0.476442 0.143618 -0.365125
-0.476997 0.143733 -0.363250
-0.478167 0.143733 -0.362269
-0.478724 0.143848 -0.360389
-0.479282 0.143963 -0.358507
-0.480454 0.143963 -0.357524
-0.481013 0.144079 -0.355638
-0.481574 0.144195 -0.353749
-0.482136 0.144311 -0.351857
-0.482698 0.144427 -0.349962
-0.483262 0.144543 -0.348064
-0.483826 0.144660 -0.346162
-0.484391 0.144776 -0.344258
-0.484958 0.144893 -0.342351
-0.485525 0.145011 -0.340440
-0.486093 0.145128 -0.338527
-0.486662 0.145245 -0.336610
-0.487231 0.145363 -0.334691
-0.487189 0.145599 -0.331836
-0.487761 0.145717 -0.329908
-0.487719 0.145954 -0.327039
-0.487678 0.146192 -0.324160
-0.487636 0.146431 -0.321272
-0.487594 0.146670 -0.318375
-0.487552 0.146910 -0.315468
-0.487509 0.147151 -0.312552
-0.487467 0.147393 -0.309626
-0.487425 0.147635 -0.306691
-0.487382 0.147879 -0.303746
-0.487339 0.148123 -0.300791
-0.487296 0.148368 -0.297826
-0.487253 0.148613 -0.294852
-0.487210 0.148860 -0.291868
-0.485908 0.149356 -0.286890
-0.482692 0.150231 -0.278867
-0.386393 0.169522 -0.123352
-0.386153 0.169842 -0.119626
-0.385100 0.170326 -0.114591
-0.384041 0.170811 -0.109527
-0.382975 0.171300 -0.104435
-0.382727 0.171628 -0.100633
-0.379998 0.172451 -0.092831
-0.376406 0.173450 -0.083606
-0.371927 0.174631 -0.072906
-0.367387 0.175827 -0.062060
-0.362783 0.177040 -0.051065
-0.358117 0.178269 -0.039918
-0.341673 0.181878 -0.009506
0.316586 0.185971 -0.487280
0.311809 0.185583 -0.488078
0.308666 0.185389 -0.487836
0.305530 0.185196 -0.487595
0.300795 0.184811 -0.488389
0.297677 0.184619 -0.488148
0.292973 0.184237 -0.488938
0.289872 0.184046 -0.488697
0.285199 0.183666 -0.489484
0.282116 0.183476 -0.489243
0.277473 0.183098 -0.490026
0.274407 0.182910 -0.489785
0.271348 0.182722 -0.489546
0.266746 0.182347 -0.490325
0.263704 0.182160 -0.490085
0.259132 0.181788 -0.490860
0.256106 0.181602 -0.490621
0.251564 0.181232 -0.491393
0.248555 0.181047 -0.491154
0.244042 0.180679 -0.491922
0.241050 0.180496 -0.491683
0.238064 0.180313 -0.491445
0.233590 0.179948 -0.492210
0.232111 0.179948 -0.490969
0.227658 0.179584 -0.491733
0.224701 0.179403 -0.491496
0.221750 0.179222 -0.491259
0.218805 0.179042 -0.491022
0.214401 0.178682 -0.491783
0.211472 0.178502 -0.491546
0.208548 0.178323 -0.491310
0.204182 0.177966 -0.492067
0.201275 0.177788 -0.491831
0.198374 0.177611 -0.491596
0.192615 0.177080 -0.493336
0.189734 0.176904 -0.493100
0.186858 0.176728 -0.492864
0.183988 0.176552 -0.492630
0.181124 0.176377 -0.492395
0.176860 0.176028 -0.493142
0.174011 0.175854 -0.492907
0.171168 0.175680 -0.492674
0.168330 0.175506 -0.492440
0.164112 0.175161 -0.493183
0.161290 0.174988 -0.492950
0.158473 0.174816 -0.492717
0.155662 0.174644 -0.492485
0.152856 0.174473 -0.492253
0.150056 0.174302 -0.492022
0.147262 0.174131 -0.491791
0.143117 0.173790 -0.492530
0.140337 0.173621 -0.492299
0.137563 0.173451 -0.492069
0.134794 0.173282 -0.491839
0.130694 0.172945 -0.492574
0.129272 0.172945 -0.491381
0.126519 0.172777 -0.491152
0.122447 0.172442 -0.491886
0.119709 0.172274 -0.491658
0.116976 0.172108 -0.491430
0.112937 0.171775 -0.492160
0.110219 0.171609 -0.491933
0.107505 0.171444 -0.491706
0.104797 0.171278 -0.491479
0.100802 0.170949 -0.492206
0.098108 0.170785 -0.491979
0.095419 0.170621 -0.491753
0.092735 0.170457 -0.491527
0.090057 0.170294 -0.491302
0.086112 0.169968 -0.492025
0.083447 0.169806 -0.491800
0.080788 0.169643 -0.491575
0.078134 0.169482 -0.491351
0.075484 0.169320 -0.491127
0.072840 0.169159 -0.490904
0.068954 0.168838 -0.491623
0.066323 0.168677 -0.491399
0.063698 0.168517 -0.491176
0.061077 0.168358 -0.490954
0.058461 0.168198 -0.490732
0.054624 0.167881 -0.491447
0.052022 0.167722 -0.491225
0.049424 0.167564 -0.491004
0.046832 0.167406 -0.490783
0.044244 0.167249 -0.490562
0.040455 0.166934 -0.491274
0.037881 0.166778 -0.491053
0.035311 0.166621 -0.490833
0.032746 0.166465 -0.490614
0.030186 0.166309 -0.490395
0.027631 0.166154 -0.490176
0.023898 0.165844 -0.490883
0.021355 0.165689 -0.490665
0.018818 0.165535 -0.490447
0.016285 0.165381 -0.490229
0.013757 0.165227 -0.490011
0.010070 0.164920 -0.490715
0.007554 0.164767 -0.490498
0.005044 0.164615 -0.490281
0.002537 0.164462 -0.490065
0.000036 0.164310 -0.489849
-0.003605 0.164007 -0.490549
-0.006094 0.163856 -0.490333
-0.008579 0.163705 -0.490118
-0.011059 0.163554 -0.489903
-0.013534 0.163403 -0.489688
-0.016005 0.163253 -0.489474
-0.019593 0.162954 -0.490170
-0.022052 0.162805 -0.489956
-0.025620 0.162507 -0.490650
-0.028066 0.162358 -0.490436
-0.030508 0.162210 -0.490222
-0.034047 0.161914 -0.490913
-0.036477 0.161767 -0.490699
-0.038902 0.161620 -0.490486
-0.041323 0.161473 -0.490274
-0.043740 0.161326 -0.490061
-0.047236 0.161034 -0.490749
-0.049641 0.160888 -0.490536
-0.052041 0.160742 -0.490325
-0.054437 0.160597 -0.490113
-0.056829 0.160452 -0.489902
-0.059217 0.160307 -0.489692
-0.062663 0.160018 -0.490375
-0.065039 0.159874 -0.490165
-0.067410 0.159731 -0.489955
-0.069778 0.159587 -0.489745
-0.072141 0.159444 -0.489535
-0.075546 0.159158 -0.490216
-0.077897 0.159016 -0.490006
-0.080245 0.158874 -0.489798
-0.082588 0.158732 -0.489589
-0.084927 0.158590 -0.489381
-0.088291 0.158307 -0.490058
-0.090619 0.158166 -0.489850
-0.092942 0.158026 -0.489642
-0.095262 0.157885 -0.489435
-0.097577 0.157745 -0.489228
-0.099889 0.157605 -0.489022
-0.103206 0.157326 -0.489695
-0.105506 0.157186 -0.489489
-0.107802 0.157048 -0.489283
-0.110094 0.156909 -0.489077
-0.112382 0.156770 -0.488872
-0.115660 0.156494 -0.489542
-0.117937 0.156356 -0.489337
-0.120210 0.156219 -0.489132
-0.122479 0.156081 -0.488927
-0.124745 0.155944 -0.488723
-0.127983 0.155671 -0.489390
-0.130238 0.155535 -0.489186
-0.133459 0.155263 -0.489850
-0.135702 0.155127 -0.489647
-0.137942 0.154992 -0.489443
-0.140179 0.154857 -0.489240
-0.143368 0.154587 -0.489901
-0.145594 0.154453 -0.489698
-0.147815 0.154319 -0.489496
-0.150033 0.154185 -0.489293
-0.152247 0.154051 -0.489091
-0.155399 0.153784 -0.489750
-0.157603 0.153651 -0.489548
-0.159803 0.153518 -0.489346
-0.161999 0.153386 -0.489145
-0.164191 0.153253 -0.488944
-0.166380 0.153121 -0.488744
-0.169489 0.152857 -0.489399
-0.170746 0.152857 -0.488344
-0.172923 0.152726 -0.488145
-0.175097 0.152595 -0.487946
-0.177266 0.152464 -0.487747
-0.179433 0.152333 -0.487549
-0.181595 0.152202 -0.487351
-0.184660 0.151942 -0.488004
-0.186812 0.151812 -0.487806
-0.188961 0.151682 -0.487608
-0.191106 0.151553 -0.487411
-0.193248 0.151424 -0.487214
-0.195385 0.151295 -0.487018
-0.197520 0.151166 -0.486821
-0.199650 0.151037 -0.486625
-0.201777 0.150909 -0.486430
-0.204782 0.150653 -0.487079
-0.206899 0.150525 -0.486884
-0.209013 0.150398 -0.486689
-0.211995 0.150143 -0.487335
-0.214099 0.150017 -0.487140
-0.216200 0.149890 -0.486946
-0.218297 0.149764 -0.486751
-0.221251 0.149511 -0.487395
-0.223338 0.149386 -0.487201
-0.225422 0.149260 -0.487007
-0.227503 0.149135 -0.486813
-0.229580 0.149009 -0.486620
-0.231654 0.148884 -0.486427
-0.233724 0.148760 -0.486234
-0.236632 0.148511 -0.486875
-0.238693 0.148387 -0.486682
-0.240751 0.148263 -0.486490
-0.241970 0.148263 -0.485467
-0.244023 0.148139 -0.485276
-0.246072 0.148016 -0.485085
-0.248118 0.147892 -0.484895
-0.250161 0.147769 -0.484705
-0.253023 0.147524 -0.485344
-0.255057 0.147401 -0.485154
-0.257087 0.147279 -0.484964
-0.259114 0.147157 -0.484775
-0.261138 0.147035 -0.484586
-0.263158 0.146913 -0.484397
-0.265175 0.146792 -0.484208
-0.267188 0.146671 -0.484020
-0.269199 0.146550 -0.483832
-0.271206 0.146429 -0.483645
-0.273209 0.146308 -0.483458
-0.274413 0.146308 -0.482448
-0.276412 0.146188 -0.482262
-0.277614 0.146188 -0.481253
-0.279609 0.146067 -0.481068
-0.281601 0.145947 -0.480884
-0.282801 0.145947 -0.479877
-0.284789 0.145827 -0.479693
-0.286773 0.145708 -0.479510
-0.287972 0.145708 -0.478504
-0.289952 0.145588 -0.478322
-0.291149 0.145588 -0.477318
-0.293125 0.145469 -0.477137
-0.295098 0.145350 -0.476956
-0.296293 0.145350 -0.475953
-0.298262 0.145231 -0.475773
-0.300227 0.145112 -0.475594
-0.302189 0.144994 -0.475415
-0.304148 0.144875 -0.475237
-0.305340 0.144875 -0.474237
-0.307294 0.144757 -0.474059
-0.309246 0.144639 -0.473882
-0.310436 0.144639 -0.472884
-0.311625 0.144639 -0.471886
-0.312815 0.144639 -0.470887
-0.314760 0.144521 -0.470713
-0.316703 0.144404 -0.470539
-0.317890 0.144404 -0.469542
-0.319828 0.144286 -0.469369
-0.321015 0.144286 -0.468373
-0.322949 0.144169 -0.468201
-0.324135 0.144169 -0.467206
-0.326065 0.144052 -0.467035
-0.327992 0.143935 -0.466864
-0.329176 0.143935 -0.465871
-0.331099 0.143819 -0.465701
-0.332282 0.143819 -0.464709
-0.334201 0.143702 -0.464540
-0.335382 0.143702 -0.463549
-0.337297 0.143586 -0.463381
-0.339209 0.143470 -0.463214
-0.340389 0.143470 -0.462224
-0.342297 0.143354 -0.462058
-0.343476 0.143354 -0.461068
-0.345379 0.143239 -0.460903
-0.346557 0.143239 -0.459915
-0.348457 0.143123 -0.459751
-0.349634 0.143123 -0.458763
-0.351530 0.143008 -0.458600
-0.352706 0.143008 -0.457613
-0.353882 0.143008 -0.456626
-0.355058 0.143008 -0.455639
-0.356948 0.142893 -0.455479
-0.358123 0.142893 -0.454492
-0.359299 0.142893 -0.453506
-0.361184 0.142778 -0.453348
-0.362358 0.142778 -0.452362
-0.364239 0.142663 -0.452205
-0.365412 0.142663 -0.451220
-0.366586 0.142663 -0.450236
-0.367759 0.142663 -0.449251
-0.369634 0.142548 -0.449096
-0.370806 0.142548 -0.448113
-0.372678 0.142434 -0.447959
-0.373849 0.142434 -0.446976
-0.375716 0.142320 -0.446823
-0.376887 0.142320 -0.445841
-0.378058 0.142320 -0.444859
-0.379920 0.142206 -0.444708
-0.381090 0.142206 -0.443726
-0.382259 0.142206 -0.442745
-0.384117 0.142092 -0.442595
-0.385285 0.142092 -0.441615
-0.386454 0.142092 -0.440634
-0.388307 0.141978 -0.440487
-0.389475 0.141978 -0.439507
-0.390642 0.141978 -0.438527
-0.392490 0.141865 -0.438382
-0.393657 0.141865 -0.437402
-0.395501 0.141752 -0.437258
-0.396667 0.141752 -0.436280
-0.397833 0.141752 -0.435301
-0.398999 0.141752 -0.434323
-0.400837 0.141638 -0.434181
-0.402002 0.141638 -0.433203
-0.403167 0.141638 -0.432226
-0.405001 0.141525 -0.432086
-0.406165 0.141525 -0.431109
-0.407329 0.141525 -0.430132
-0.409158 0.141413 -0.429994
-0.410321 0.141413 -0.429018
-0.411484 0.141413 -0.428042
-0.412647 0.141413 -0.427066
-0.413810 0.141413 -0.426090
-0.415632 0.141300 -0.425955
-0.416795 0.141300 -0.424979
-0.417957 0.141300 -0.424004
-0.419774 0.141188 -0.423871
-0.420935 0.141188 -0.422896
-0.422749 0.141076 -0.422764
-0.423910 0.141076 -0.421790
-0.425070 0.141076 -0.420817
-0.426230 0.141076 -0.419843
-0.428038 0.140963 -0.419713
-0.429198 0.140963 -0.418740
-0.430357 0.140963 -0.417767
-0.432161 0.140852 -0.417639
-0.433319 0.140852 -0.416667
-0.434478 0.140852 -0.415695
-0.435636 0.140852 -0.414723
-0.436795 0.140852 -0.413751
-0.437953 0.140852 -0.412779
-0.439112 0.140852 -0.411807
-0.440270 0.140852 -0.410835
-0.441429 0.140852 -0.409862
-0.442587 0.140852 -0.408890
-0.443746 0.140852 -0.407918
-0.444270 0.140963 -0.406093
-0.445430 0.140963 -0.405120
-0.446589 0.140963 -0.404147
-0.447749 0.140963 -0.403174
-0.448908 0.140963 -0.402201
-0.450068 0.140963 -0.401229
-0.451227 0.140963 -0.400256
-0.451758 0.141076 -0.398423
-0.452918 0.141076 -0.397449
-0.454079 0.141076 -0.396476
-0.455239 0.141076 -0.395502
-0.456399 0.141076 -0.394528
-0.457560 0.141076 -0.393555
-0.458720 0.141076 -0.392581
-0.459257 0.141188 -0.390741
-0.460419 0.141188 -0.389766
-0.461580 0.141188 -0.388792
-0.462741 0.141188 -0.387817
-0.463282 0.141300 -0.385972
-0.464444 0.141300 -0.384997
-0.465606 0.141300 -0.384021
-0.466150 0.141413 -0.382171
-0.467313 0.141413 -0.381195
-0.468476 0.141413 -0.380219
-0.469023 0.141525 -0.378365
-0.470187 0.141525 -0.377388
-0.470735 0.141638 -0.375530
-0.471900 0.141638 -0.374552
-0.473065 0.141638 -0.373575
-0.473615 0.141752 -0.371712
-0.474167 0.141865 -0.369846
-0.475334 0.141865 -0.368867
-0.475888 0.141978 -0.366998
-0.476442 0.142092 -0.365125
-0.478223 0.141978 -0.365038
-0.478779 0.142092 -0.363164
-0.479337 0.142206 -0.361287
-0.479895 0.142320 -0.359407
-0.480454 0.142434 -0.357524
-0.481013 0.142548 -0.355638
-0.481574 0.142663 -0.353749
-0.482136 0.142778 -0.351857
-0.482698 0.142893 -0.349962
-0.483262 0.143008 -0.348064
-0.483826 0.143123 -0.346162
-0.484391 0.143239 -0.344258
-0.484958 0.143354 -0.342351
-0.485525 0.143470 -0.340440
-0.486093 0.143586 -0.338527
-0.486662 0.143702 -0.336610
-0.487231 0.143819 -0.334691
-0.487802 0.143935 -0.332768
-0.488374 0.144052 -0.330842
-0.488333 0.144286 -0.327977
-0.488293 0.144521 -0.325102
-0.488252 0.144757 -0.322218
-0.488211 0.144994 -0.319324
-0.488170 0.145231 -0.316422
-0.488129 0.145469 -0.313509
-0.488087 0.145708 -0.310587
-0.488046 0.145947 -0.307656
-0.488004 0.146188 -0.304715
-0.487963 0.146429 -0.301764
-0.487921 0.146671 -0.298804
-0.487879 0.146913 -0.295834
-0.487837 0.147157 -0.292854
-0.487794 0.147401 -0.289864
-0.485862 0.148016 -0.283878
-0.482640 0.148884 -0.275824
-0.386963 0.167881 -0.120912
-0.385913 0.168358 -0.115885
-0.384857 0.168838 -0.110830
-0.384613 0.169159 -0.107055
-0.383548 0.169643 -0.101951
-0.382477 0.170131 -0.096817
-0.378077 0.171278 -0.086299
-0.373618 0.172442 -0.075638
-0.369951 0.173451 -0.066214
-0.365379 0.174644 -0.055280
-0.360744 0.175854 -0.044195
-0.356045 0.177080 -0.032956
0.316586 0.183976 -0.487280
0.311809 0.183592 -0.488078
0.308666 0.183400 -0.487836
0.305530 0.183209 -0.487595
0.300795 0.182829 -0.488389
0.297677 0.182639 -0.488148
0.292973 0.182260 -0.488938
0.288289 0.181883 -0.489725
0.285199 0.181695 -0.489484
0.282116 0.181508 -0.489243
0.277473 0.181134 -0.490026
0.274407 0.180948 -0.489785
0.269795 0.180576 -0.490565
0.266746 0.180391 -0.490325
0.263704 0.180206 -0.490085
0.259132 0.179838 -0.490860
0.256106 0.179654 -0.490621
0.251564 0.179288 -0.491393
0.248555 0.179105 -0.491154
0.244042 0.178741 -0.491922
0.241050 0.178560 -0.491683
0.238064 0.178378 -0.491445
0.233590 0.178017 -0.492210
0.232111 0.178017 -0.490969
0.227658 0.177658 -0.491733
0.224701 0.177478 -0.491496
0.221750 0.177299 -0.491259
0.217335 0.176943 -0.492019
0.214401 0.176765 -0.491783
0.211472 0.176587 -0.491546
0.208548 0.176410 -0.491310
0.204182 0.176057 -0.492067
0.201275 0.175881 -0.491831
0.198374 0.175705 -0.491596
0.192615 0.175180 -0.493336
0.189734 0.175006 -0.493100
0.186858 0.174832 -0.492864
0.183988 0.174658 -0.492630
0.181124 0.174485 -0.492395
0.176860 0.174139 -0.493142
0.174011 0.173967 -0.492907
0.171168 0.173795 -0.492674
0.168330 0.173623 -0.492440
0.164112 0.173281 -0.493183
0.161290 0.173111 -0.492950
0.158473 0.172940 -0.492717
0.155662 0.172770 -0.492485
0.152856 0.172601 -0.492253
0.150056 0.172432 -0.492022
0.145902 0.172094 -0.492761
0.143117 0.171926 -0.492530
0.140337 0.171758 -0.492299
0.137563 0.171590 -0.492069
0.134794 0.171423 -0.491839
0.130694 0.171089 -0.492574
0.129272 0.171089 -0.491381
0.125190 0.170757 -0.492115
0.122447 0.170591 -0.491886
0.119709 0.170426 -0.491658
0.115661 0.170096 -0.492389
0.112937 0.169932 -0.492160
0.110219 0.169768 -0.491933
0.107505 0.169604 -0.491706
0.104797 0.169441 -0.491479
0.100802 0.169115 -0.492206
0.098108 0.168952 -0.491979
0.095419 0.168790 -0.491753
0.092735 0.168628 -0.491527
0.090057 0.168466 -0.491302
0.086112 0.168144 -0.492025
0.083447 0.167984 -0.491800
0.080788 0.167823 -0.491575
0.078134 0.167663 -0.491351
0.075484 0.167503 -0.491127
0.072840 0.167344 -0.490904
0.068954 0.167026 -0.491623
0.066323 0.166867 -0.491399
0.063698 0.166709 -0.491176
0.061077 0.166551 -0.490954
0.058461 0.166394 -0.490732
0.054624 0.166079 -0.491447
0.052022 0.165922 -0.491225
0.049424 0.165766 -0.491004
0.046832 0.165610 -0.490783
0.044244 0.165454 -0.490562
0.040455 0.165143 -0.491274
0.037881 0.164988 -0.491053
0.035311 0.164833 -0.490833
0.032746 0.164679 -0.490614
0.030186 0.164525 -0.490395
0.027631 0.164371 -0.490176
0.023898 0.164064 -0.490883
0.021355 0.163911 -0.490665
0.018818 0.163758 -0.490447
0.016285 0.163606 -0.490229
0.013757 0.163454 -0.490011
0.010070 0.163150 -0.490715
0.007554 0.162999 -0.490498
0.005044 0.162848 -0.490281
0.002537 0.162697 -0.490065
0.000036 0.162547 -0.489849
-0.003605 0.162247 -0.490549
-0.006094 0.162097 -0.490333
-0.008579 0.161948 -0.490118
-0.011059 0.161799 -0.489903
-0.013534 0.161650 -0.489688
-0.016005 0.161501 -0.489474
-0.019593 0.161205 -0.490170
-0.022052 0.161057 -0.489956
-0.025620 0.160763 -0.490650
-0.028066 0.160616 -0.490436
-0.030508 0.160469 -0.490222
-0.034047 0.160177 -0.490913
-0.036477 0.160031 -0.490699
-0.038902 0.159885 -0.490486
-0.041323 0.159740 -0.490274
-0.043740 0.159595 -0.490061
-0.047236 0.159306 -0.490749
-0.049641 0.159161 -0.490536
-0.052041 0.159017 -0.490325
-0.054437 0.158874 -0.490113
-0.056829 0.158730 -0.489902
-0.059217 0.158587 -0.489692
-0.062663 0.158301 -0.490375
-0.065039 0.158159 -0.490165
-0.067410 0.158016 -0.489955
-0.069778 0.157874 -0.489745
-0.072141 0.157733 -0.489535
-0.075546 0.157450 -0.490216
-0.077897 0.157309 -0.490006
-0.080245 0.157168 -0.489798
-0.082588 0.157028 -0.489589
-0.084927 0.156888 -0.489381
-0.088291 0.156608 -0.490058
-0.090619 0.156469 -0.489850
-0.092942 0.156329 -0.489642
-0.095262 0.156191 -0.489435
-0.097577 0.156052 -0.489228
-0.099889 0.155913 -0.489022
-0.103206 0.155637 -0.489695
-0.105506 0.155499 -0.489489
-0.107802 0.155362 -0.489283
-0.110094 0.155225 -0.489077
-0.112382 0.155088 -0.488872
-0.115660 0.154814 -0.489542
-0.117937 0.154678 -0.489337
-0.120210 0.154542 -0.489132
-0.122479 0.154406 -0.488927
-0.124745 0.154271 -0.488723
-0.127983 0.154000 -0.489390
-0.130238 0.153865 -0.489186
-0.133459 0.153596 -0.489850
-0.135702 0.153462 -0.489647
-0.137942 0.153328 -0.489443
-0.140179 0.153195 -0.489240
-0.143368 0.152928 -0.489901
-0.145594 0.152795 -0.489698
-0.147815 0.152662 -0.489496
-0.150033 0.152530 -0.489293
-0.152247 0.152397 -0.489091
-0.155399 0.152133 -0.489750
-0.157603 0.152002 -0.489548
-0.159803 0.151870 -0.489346
-0.161999 0.151739 -0.489145
-0.164191 0.151608 -0.488944
-0.167307 0.151347 -0.489599
-0.169489 0.151217 -0.489399
-0.170746 0.151217 -0.488344
-0.172923 0.151087 -0.488145
-0.175097 0.150957 -0.487946
-0.177266 0.150827 -0.487747
-0.179433 0.150698 -0.487549
-0.182503 0.150440 -0.488202
-0.184660 0.150311 -0.488004
-0.186812 0.150183 -0.487806
-0.188961 0.150054 -0.487608
-0.191106 0.149926 -0.487411
-0.193248 0.149798 -0.487214
-0.195385 0.149671 -0.487018
-0.197520 0.149543 -0.486821
-0.199650 0.149416 -0.486625
-0.202661 0.149162 -0.487275
-0.204782 0.149036 -0.487079
-0.206899 0.148909 -0.486884
-0.209013 0.148783 -0.486689
-0.211995 0.148532 -0.487335
-0.214099 0.148406 -0.487140
-0.216200 0.148281 -0.486946
-0.219160 0.148031 -0.487590
-0.221251 0.147906 -0.487395
-0.223338 0.147782 -0.487201
-0.225422 0.147658 -0.487007
-0.227503 0.147534 -0.486813
-0.229580 0.147410 -0.486620
-0.231654 0.147286 -0.486427
-0.233724 0.147163 -0.486234
-0.236632 0.146917 -0.486875
-0.238693 0.146794 -0.486682
-0.240751 0.146671 -0.486490
-0.241970 0.146671 -0.485467
-0.244855 0.146427 -0.486107
-0.246902 0.146305 -0.485915
-0.248946 0.146183 -0.485725
-0.250986 0.146061 -0.485534
-0.253023 0.145940 -0.485344
-0.255057 0.145819 -0.485154
-0.257087 0.145698 -0.484964
-0.259114 0.145577 -0.484775
-0.261138 0.145457 -0.484586
-0.263158 0.145336 -0.484397
-0.265175 0.145216 -0.484208
-0.267188 0.145096 -0.484020
-0.269199 0.144976 -0.483832
-0.271206 0.144857 -0.483645
-0.273209 0.144737 -0.483458
-0.274413 0.144737 -0.482448
-0.276412 0.144618 -0.482262
-0.278408 0.144499 -0.482076
-0.280401 0.144380 -0.481891
-0.281601 0.144380 -0.480884
-0.283590 0.144262 -0.480699
-0.284789 0.144262 -0.479693
-0.286773 0.144143 -0.479510
-0.287972 0.144143 -0.478504
-0.289952 0.144025 -0.478322
-0.291929 0.143907 -0.478141
-0.293125 0.143907 -0.477137
-0.295098 0.143789 -0.476956
-0.297067 0.143672 -0.476776
-0.298262 0.143672 -0.475773
-0.300227 0.143554 -0.475594
-0.302189 0.143437 -0.475415
-0.304148 0.143320 -0.475237
-0.305340 0.143320 -0.474237
-0.307294 0.143203 -0.474059
-0.309246 0.143086 -0.473882
-0.310436 0.143086 -0.472884
-0.311625 0.143086 -0.471886
-0.313572 0.142970 -0.471710
-0.314760 0.142970 -0.470713
-0.316703 0.142854 -0.470539
-0.317890 0.142854 -0.469542
-0.319828 0.142737 -0.469369
-0.321015 0.142737 -0.468373
-0.322949 0.142621 -0.468201
-0.324135 0.142621 -0.467206
-0.326065 0.142506 -0.467035
-0.327992 0.142390 -0.466864
-0.329916 0.142275 -0.466694
-0.331099 0.142275 -0.465701
-0.333019 0.142160 -0.465532
-0.334201 0.142160 -0.464540
-0.336116 0.142045 -0.464372
-0.337297 0.142045 -0.463381
-0.339209 0.141930 -0.463214
-0.340389 0.141930 -0.462224
-0.342297 0.141815 -0.462058
-0.343476 0.141815 -0.461068
-0.345379 0.141701 -0.460903
-0.347280 0.141586 -0.460738
-0.348457 0.141586 -0.459751
-0.350354 0.141472 -0.459587
-0.351530 0.141472 -0.458600
-0.352706 0.141472 -0.457613
-0.354598 0.141359 -0.457451
-0.355773 0.141359 -0.456465
-0.356948 0.141359 -0.455479
-0.358835 0.141245 -0.455318
-0.360009 0.141245 -0.454333
-0.361184 0.141245 -0.453348
-0.363066 0.141131 -0.453190
-0.364239 0.141131 -0.452205
-0.365412 0.141131 -0.451220
-0.367289 0.141018 -0.451064
-0.368462 0.141018 -0.450080
-0.369634 0.141018 -0.449096
-0.371506 0.140905 -0.448942
-0.372678 0.140905 -0.447959
-0.373849 0.140905 -0.446976
-0.375716 0.140792 -0.446823
-0.376887 0.140792 -0.445841
-0.378750 0.140679 -0.445689
-0.379920 0.140679 -0.444708
-0.381779 0.140566 -0.444557
-0.382948 0.140566 -0.443576
-0.384117 0.140566 -0.442595
-0.385971 0.140454 -0.442447
-0.387139 0.140454 -0.441467
-0.388307 0.140454 -0.440487
-0.390157 0.140342 -0.440340
-0.391323 0.140342 -0.439361
-0.392490 0.140342 -0.438382
-0.394335 0.140230 -0.438236
-0.395501 0.140230 -0.437258
-0.396667 0.140230 -0.436280
-0.398507 0.140118 -0.436136
-0.399672 0.140118 -0.435158
-0.400837 0.140118 -0.434181
-0.402673 0.140006 -0.434039
-0.403837 0.140006 -0.433062
-0.405001 0.140006 -0.432086
-0.406831 0.139894 -0.431946
-0.407995 0.139894 -0.430970
-0.409158 0.139894 -0.429994
-0.410984 0.139783 -0.429855
-0.411484 0.139894 -0.428042
-0.413308 0.139783 -0.427905
-0.414470 0.139783 -0.426930
-0.415632 0.139783 -0.425955
-0.416795 0.139783 -0.424979
-0.418613 0.139672 -0.424845
-0.420429 0.139561 -0.424711
-0.421589 0.139561 -0.423738
-0.422749 0.139561 -0.422764
-0.423910 0.139561 -0.421790
-0.425720 0.139450 -0.421659
-0.426879 0.139450 -0.420686
-0.428038 0.139450 -0.419713
-0.429198 0.139450 -0.418740
-0.431002 0.139339 -0.418611
-0.432161 0.139339 -0.417639
-0.433319 0.139339 -0.416667
-0.434478 0.139339 -0.415695
-0.435636 0.139339 -0.414723
-0.436795 0.139339 -0.413751
-0.437953 0.139339 -0.412779
-0.439112 0.139339 -0.411807
-0.440270 0.139339 -0.410835
-0.441429 0.139339 -0.409862
-0.442587 0.139339 -0.408890
-0.443746 0.139339 -0.407918
-0.444904 0.139339 -0.406946
-0.446063 0.139339 -0.405974
-0.446589 0.139450 -0.404147
-0.447749 0.139450 -0.403174
-0.448908 0.139450 -0.402201
-0.450068 0.139450 -0.401229
-0.451227 0.139450 -0.400256
-0.452386 0.139450 -0.399283
-0.453546 0.139450 -0.398310
-0.454079 0.139561 -0.396476
-0.455239 0.139561 -0.395502
-0.456399 0.139561 -0.394528
-0.457560 0.139561 -0.393555
-0.458720 0.139561 -0.392581
-0.459880 0.139561 -0.391607
-0.461041 0.139561 -0.390634
-0.462201 0.139561 -0.389660
-0.462741 0.139672 -0.387817
-0.463902 0.139672 -0.386843
-0.465064 0.139672 -0.385869
-0.465606 0.139783 -0.384021
-0.466769 0.139783 -0.383046
-0.467313 0.139894 -0.381195
-0.468476 0.139894 -0.380219
-0.469639 0.139894 -0.379243
-0.470187 0.140006 -0.377388
-0.471351 0.140006 -0.376411
-0.471900 0.140118 -0.374552
-0.473679 0.140006 -0.374458
-0.474230 0.140118 -0.372597
-0.474781 0.140230 -0.370734
-0.475334 0.140342 -0.368867
-0.476501 0.140342 -0.367888
-0.477055 0.140454 -0.366018
-0.478223 0.140454 -0.365038
-0.478779 0.140566 -0.363164
-0.479337 0.140679 -0.361287
-0.479895 0.140792 -0.359407
-0.481065 0.140792 -0.358425
-0.481625 0.140905 -0.356541
-0.482186 0.141018 -0.354654
-0.482748 0.141131 -0.352764
-0.483310 0.141245 -0.350871
-0.483874 0.141359 -0.348976
-0.484438 0.141472 -0.347077
-0.485003 0.141586 -0.345175
-0.485570 0.141701 -0.343270
-0.486137 0.141815 -0.341361
-0.486705 0.141930 -0.339450
-0.487274 0.142045 -0.337536
-0.487843 0.142160 -0.335619
-0.488414 0.142275 -0.333698
-0.488986 0.142390 -0.331775
-0.488946 0.142621 -0.328913
-0.489520 0.142737 -0.326981
-0.489481 0.142970 -0.324105
-0.489442 0.143203 -0.321219
-0.489403 0.143437 -0.318324
-0.489364 0.143672 -0.315419
-0.489325 0.143907 -0.312505
-0.488666 0.144262 -0.308620
-0.489246 0.144380 -0.306649
-0.489207 0.144618 -0.303706
-0.489167 0.144857 -0.300754
-0.489127 0.145096 -0.297792
-0.489087 0.145336 -0.294820
-0.489047 0.145577 -0.291838
-0.489006 0.145819 -0.288847
-0.485816 0.146671 -0.280856
-0.482589 0.147534 -0.272771
-0.386725 0.166394 -0.117177
-0.386485 0.166709 -0.113428
-0.385430 0.167185 -0.108361
-0.384368 0.167663 -0.103266
-0.384122 0.167984 -0.099462
-0.380572 0.168952 -0.090319
-0.376142 0.170096 -0.079717
-0.371652 0.171256 -0.068970
-0.367101 0.172432 -0.058076
-0.363356 0.173452 -0.048446
-0.358689 0.174658 -0.037270
0.316586 0.181981 -0.487280
0.311809 0.181601 -0.488078
0.308666 0.181412 -0.487836
0.305530 0.181223 -0.487595
0.300795 0.180846 -0.488389
0.297677 0.180658 -0.488148
0.292973 0.180284 -0.488938
0.288289 0.179911 -0.489725
0.285199 0.179725 -0.489484
0.282116 0.179540 -0.489243
0.277473 0.179170 -0.490026
0.274407 0.178986 -0.489785
0.269795 0.178618 -0.490565
0.266746 0.178435 -0.490325
0.263704 0.178252 -0.490085
0.259132 0.177887 -0.490860
0.256106 0.177706 -0.490621
0.251564 0.177343 -0.491393
0.248555 0.177163 -0.491154
0.244042 0.176803 -0.491922
0.241050 0.176623 -0.491683
0.238064 0.176444 -0.491445
0.233590 0.176087 -0.492210
0.230621 0.175909 -0.491971
0.227658 0.175731 -0.491733
0.224701 0.175554 -0.491496
0.221750 0.175377 -0.491259
0.217335 0.175024 -0.492019
0.214401 0.174848 -0.491783
0.211472 0.174672 -0.491546
0.208548 0.174497 -0.491310
0.204182 0.174148 -0.492067
0.201275 0.173974 -0.491831
0.196936 0.173626 -0.492585
0.192615 0.173280 -0.493336
0.189734 0.173108 -0.493100
0.186858 0.172936 -0.492864
0.183988 0.172764 -0.492630
0.181124 0.172593 -0.492395
0.176860 0.172251 -0.493142
0.174011 0.172080 -0.492907
0.171168 0.171910 -0.492674
0.168330 0.171740 -0.492440
0.164112 0.171402 -0.493183
0.161290 0.171233 -0.492950
0.158473 0.171065 -0.492717
0.155662 0.170897 -0.492485
0.152856 0.170729 -0.492253
0.150056 0.170562 -0.492022
0.145902 0.170228 -0.492761
0.143117 0.170061 -0.492530
0.140337 0.169895 -0.492299
0.137563 0.169729 -0.492069
0.133453 0.169399 -0.492804
0.130694 0.169234 -0.492574
0.129272 0.169234 -0.491381
0.125190 0.168905 -0.492115
0.122447 0.168741 -0.491886
0.119709 0.168578 -0.491658
0.115661 0.168251 -0.492389
0.112937 0.168089 -0.492160
0.110219 0.167927 -0.491933
0.107505 0.167765 -0.491706
0.104797 0.167603 -0.491479
0.100802 0.167280 -0.492206
0.098108 0.167120 -0.491979
0.095419 0.166959 -0.491753
0.092735 0.166799 -0.491527
0.090057 0.166639 -0.491302
0.086112 0.166320 -0.492025
0.083447 0.166162 -0.491800
0.080788 0.166003 -0.491575
0.078134 0.165845 -0.491351
0.075484 0.165687 -0.491127
0.072840 0.165529 -0.490904
0.068954 0.165214 -0.491623
0.066323 0.165057 -0.491399
0.063698 0.164901 -0.491176
0.061077 0.164745 -0.490954
0.058461 0.164589 -0.490732
0.054624 0.164278 -0.491447
0.052022 0.164123 -0.491225
0.049424 0.163968 -0.491004
0.046832 0.163813 -0.490783
0.044244 0.163659 -0.490562
0.040455 0.163352 -0.491274
0.037881 0.163198 -0.491053
0.035311 0.163045 -0.490833
0.032746 0.162893 -0.490614
0.030186 0.162740 -0.490395
0.027631 0.162588 -0.490176
0.023898 0.162284 -0.490883
0.021355 0.162133 -0.490665
0.018818 0.161982 -0.490447
0.016285 0.161831 -0.490229
0.013757 0.161681 -0.490011
0.010070 0.161381 -0.490715
0.007554 0.161231 -0.490498
0.005044 0.161082 -0.490281
0.002537 0.160933 -0.490065
0.000036 0.160784 -0.489849
-0.003605 0.160487 -0.490549
-0.006094 0.160339 -0.490333
-0.008579 0.160191 -0.490118
-0.011059 0.160044 -0.489903
-0.013534 0.159896 -0.489688
-0.016005 0.159749 -0.489474
-0.019593 0.159456 -0.490170
-0.022052 0.159310 -0.489956
-0.025620 0.159019 -0.490650
-0.028066 0.158874 -0.490436
-0.030508 0.158728 -0.490222
-0.034047 0.158439 -0.490913
-0.036477 0.158295 -0.490699
-0.038902 0.158151 -0.490486
-0.041323 0.158007 -0.490274
-0.043740 0.157864 -0.490061
-0.047236 0.157577 -0.490749
-0.049641 0.157435 -0.490536
-0.052041 0.157292 -0.490325
-0.054437 0.157150 -0.490113
-0.056829 0.157008 -0.489902
-0.059217 0.156866 -0.489692
-0.062663 0.156584 -0.490375
-0.065039 0.156443 -0.490165
-0.067410 0.156302 -0.489955
-0.069778 0.156162 -0.489745
-0.072141 0.156022 -0.489535
-0.075546 0.155742 -0.490216
-0.077897 0.155603 -0.490006
-0.080245 0.155463 -0.489798
-0.082588 0.155324 -0.489589
-0.084927 0.155186 -0.489381
-0.088291 0.154909 -0.490058
-0.090619 0.154771 -0.489850
-0.092942 0.154633 -0.489642
-0.095262 0.154496 -0.489435
-0.097577 0.154359 -0.489228
-0.099889 0.154222 -0.489022
-0.103206 0.153949 -0.489695
-0.105506 0.153812 -0.489489
-0.107802 0.153676 -0.489283
-0.110094 0.153541 -0.489077
-0.112382 0.153405 -0.488872
-0.115660 0.153135 -0.489542
-0.117937 0.153000 -0.489337
-0.120210 0.152865 -0.489132
-0.122479 0.152731 -0.488927
-0.124745 0.152597 -0.488723
-0.127983 0.152329 -0.489390
-0.130238 0.152196 -0.489186
-0.133459 0.151930 -0.489850
-0.135702 0.151797 -0.489647
-0.137942 0.151665 -0.489443
-0.140179 0.151533 -0.489240
-0.143368 0.151269 -0.489901
-0.145594 0.151137 -0.489698
-0.147815 0.151006 -0.489496
-0.150033 0.150875 -0.489293
-0.152247 0.150744 -0.489091
-0.155399 0.150483 -0.489750
-0.157603 0.150353 -0.489548
-0.159803 0.150223 -0.489346
-0.161999 0.150093 -0.489145
-0.164191 0.149963 -0.488944
-0.167307 0.149705 -0.489599
-0.169489 0.149576 -0.489399
-0.170746 0.149576 -0.488344
-0.172923 0.149447 -0.488145
-0.175097 0.149319 -0.487946
-0.177266 0.149191 -0.487747
-0.179433 0.149063 -0.487549
-0.182503 0.148807 -0.488202
-0.184660 0.148680 -0.488004
-0.186812 0.148553 -0.487806
-0.188961 0.148426 -0.487608
-0.191106 0.148299 -0.487411
-0.193248 0.148173 -0.487214
-0.195385 0.148047 -0.487018
-0.197520 0.147921 -0.486821
-0.199650 0.147795 -0.486625
-0.202661 0.147544 -0.487275
-0.204782 0.147419 -0.487079
-0.206899 0.147294 -0.486884
-0.209013 0.147169 -0.486689
-0.211995 0.146920 -0.487335
-0.214099 0.146796 -0.487140
-0.216200 0.146672 -0.486946
-0.219160 0.146425 -0.487590
-0.221251 0.146301 -0.487395
-0.223338 0.146178 -0.487201
-0.225422 0.146055 -0.487007
-0.227503 0.145933 -0.486813
-0.229580 0.145810 -0.486620
-0.231654 0.145688 -0.486427
-0.233724 0.145566 -0.486234
-0.235790 0.145444 -0.486042
-0.238693 0.145201 -0.486682
-0.240751 0.145080 -0.486490
-0.242805 0.144959 -0.486298
-0.244855 0.144838 -0.486107
-0.246902 0.144717 -0.485915
-0.248946 0.144597 -0.485725
-0.250986 0.144476 -0.485534
-0.253023 0.144356 -0.485344
-0.255057 0.144237 -0.485154
-0.257087 0.144117 -0.484964
-0.259114 0.143997 -0.484775
-0.261138 0.143878 -0.484586
-0.263158 0.143759 -0.484397
-0.265175 0.143640 -0.484208
-0.267188 0.143522 -0.484020
-0.269199 0.143403 -0.483832
-0.271206 0.143285 -0.483645
-0.273209 0.143167 -0.483458
-0.275210 0.143049 -0.483271
-0.276412 0.143049 -0.482262
-0.278408 0.142931 -0.482076
-0.280401 0.142814 -0.481891
-0.281601 0.142814 -0.480884
-0.283590 0.142696 -0.480699
-0.285575 0.142579 -0.480515
-0.286773 0.142579 -0.479510
-0.288755 0.142462 -0.479327
-0.289952 0.142462 -0.478322
-0.291929 0.142345 -0.478141
-0.293125 0.142345 -0.477137
-0.295098 0.142229 -0.476956
-0.297067 0.142112 -0.476776
-0.298262 0.142112 -0.475773
-0.300227 0.141996 -0.475594
-0.302189 0.141880 -0.475415
-0.304148 0.141765 -0.475237
-0.306104 0.141649 -0.475058
-0.307294 0.141649 -0.474059
-0.309246 0.141533 -0.473882
-0.311194 0.141418 -0.473705
-0.312383 0.141418 -0.472708
-0.313572 0.141418 -0.471710
-0.315515 0.141303 -0.471535
-0.316703 0.141303 -0.470539
-0.318642 0.141188 -0.470365
-0.319828 0.141188 -0.469369
-0.321764 0.141074 -0.469196
-0.322949 0.141074 -0.468201
-0.324880 0.140959 -0.468029
-0.326065 0.140959 -0.467035
-0.327992 0.140845 -0.466864
-0.329916 0.140731 -0.466694
-0.331837 0.140617 -0.466524
-0.333019 0.140617 -0.465532
-0.334935 0.140503 -0.465363
-0.336116 0.140503 -0.464372
-0.338029 0.140389 -0.464204
-0.339209 0.140389 -0.463214
-0.341118 0.140276 -0.463047
-0.342297 0.140276 -0.462058
-0.344201 0.140163 -0.461892
-0.345379 0.140163 -0.460903
-0.347280 0.140050 -0.460738
-0.348457 0.140050 -0.459751
-0.350354 0.139937 -0.459587
-0.351530 0.139937 -0.458600
-0.353422 0.139824 -0.458437
-0.354598 0.139824 -0.457451
-0.356486 0.139712 -0.457289
-0.357661 0.139712 -0.456304
-0.358835 0.139712 -0.455318
-0.360009 0.139712 -0.454333
-0.361892 0.139600 -0.454174
-0.363066 0.139600 -0.453190
-0.364239 0.139600 -0.452205
-0.366117 0.139487 -0.452048
-0.367289 0.139487 -0.451064
-0.368462 0.139487 -0.450080
-0.370335 0.139376 -0.449925
-0.371506 0.139376 -0.448942
-0.372678 0.139376 -0.447959
-0.374546 0.139264 -0.447805
-0.376411 0.139152 -0.447652
-0.377581 0.139152 -0.446670
-0.378750 0.139152 -0.445689
-0.380611 0.139041 -0.445537
-0.381779 0.139041 -0.444557
-0.382948 0.139041 -0.443576
-0.384804 0.138930 -0.443426
-0.385971 0.138930 -0.442447
-0.387139 0.138930 -0.441467
-0.388990 0.138818 -0.441319
-0.390157 0.138818 -0.440340
-0.391323 0.138818 -0.439361
-0.393169 0.138708 -0.439214
-0.394335 0.138708 -0.438236
-0.395501 0.138708 -0.437258
-0.397342 0.138597 -0.437113
-0.398507 0.138597 -0.436136
-0.399672 0.138597 -0.435158
-0.401509 0.138486 -0.435016
-0.402673 0.138486 -0.434039
-0.403837 0.138486 -0.433062
-0.405668 0.138376 -0.432922
-0.406831 0.138376 -0.431946
-0.407995 0.138376 -0.430970
-0.409821 0.138266 -0.430831
-0.410984 0.138266 -0.429855
-0.412146 0.138266 -0.428880
-0.413308 0.138266 -0.427905
-0.414470 0.138266 -0.426930
-0.416290 0.138156 -0.426794
-0.417452 0.138156 -0.425820
-0.418613 0.138156 -0.424845
-0.420429 0.138046 -0.424711
-0.421589 0.138046 -0.423738
-0.423401 0.137936 -0.423605
-0.424560 0.137936 -0.422632
-0.425720 0.137936 -0.421659
-0.426879 0.137936 -0.420686
-0.428685 0.137827 -0.420556
-0.429844 0.137827 -0.419584
-0.431002 0.137827 -0.418611
-0.432161 0.137827 -0.417639
-0.433319 0.137827 -0.416667
-0.434478 0.137827 -0.415695
-0.435636 0.137827 -0.414723
-0.436795 0.137827 -0.413751
-0.437953 0.137827 -0.412779
-0.439112 0.137827 -0.411807
-0.440270 0.137827 -0.410835
-0.441429 0.137827 -0.409862
-0.442587 0.137827 -0.408890
-0.444380 0.137718 -0.408769
-0.444904 0.137827 -0.406946
-0.446063 0.137827 -0.405974
-0.447221 0.137827 -0.405002
-0.448380 0.137827 -0.404030
-0.448908 0.137936 -0.402201
-0.450068 0.137936 -0.401229
-0.451227 0.137936 -0.400256
-0.452386 0.137936 -0.399283
-0.453546 0.137936 -0.398310
-0.454705 0.137936 -0.397337
-0.455865 0.137936 -0.396364
-0.456399 0.138046 -0.394528
-0.458184 0.137936 -0.394418
-0.458720 0.138046 -0.392581
-0.459880 0.138046 -0.391607
-0.461041 0.138046 -0.390634
-0.462201 0.138046 -0.389660
-0.463361 0.138046 -0.388686
-0.463902 0.138156 -0.386843
-0.465064 0.138156 -0.385869
-0.466225 0.138156 -0.384894
-0.466769 0.138266 -0.383046
-0.467931 0.138266 -0.382071
-0.469093 0.138266 -0.381096
-0.469639 0.138376 -0.379243
-0.470802 0.138376 -0.378268
-0.471966 0.138376 -0.377292
-0.471900 0.138597 -0.374552
-0.473679 0.138486 -0.374458
-0.474230 0.138597 -0.372597
-0.475395 0.138597 -0.371620
-0.475947 0.138708 -0.369756
-0.476501 0.138818 -0.367888
-0.477668 0.138818 -0.366909
-0.478835 0.138818 -0.365930
-0.479391 0.138930 -0.364058
-0.479948 0.139041 -0.362183
-0.480506 0.139152 -0.360306
-0.481065 0.139264 -0.358425
-0.481625 0.139376 -0.356541
-0.482186 0.139487 -0.354654
-0.482748 0.139600 -0.352764
-0.483310 0.139712 -0.350871
-0.483874 0.139824 -0.348976
-0.484438 0.139937 -0.347077
-0.485003 0.140050 -0.345175
-0.485570 0.140163 -0.343270
-0.486137 0.140276 -0.341361
-0.486705 0.140389 -0.339450
-0.487274 0.140503 -0.337536
-0.487843 0.140617 -0.335619
-0.488414 0.140731 -0.333698
-0.488986 0.140845 -0.331775
-0.489559 0.140959 -0.329848
-0.489520 0.141188 -0.326981
-0.490094 0.141303 -0.325046
-0.490057 0.141533 -0.322164
-0.490019 0.141765 -0.319273
-0.489981 0.141996 -0.316372
-0.489942 0.142229 -0.313462
-0.489904 0.142462 -0.310543
-0.489866 0.142696 -0.307613
-0.489827 0.142931 -0.304675
-0.489788 0.143167 -0.301726
-0.489749 0.143403 -0.298768
-0.489711 0.143640 -0.295801
-0.489671 0.143878 -0.292823
-0.489632 0.144117 -0.289836
-0.488966 0.144476 -0.285845
-0.485770 0.145322 -0.277823
-0.481897 0.146301 -0.268687
-0.387297 0.164745 -0.114724
-0.386245 0.165214 -0.109665
-0.385187 0.165687 -0.104578
-0.384943 0.166003 -0.100781
-0.382227 0.166799 -0.092987
-0.378652 0.167765 -0.083771
-0.374192 0.168905 -0.073083
-0.369671 0.170061 -0.062249
-0.365089 0.171233 -0.051266
-0.361317 0.172251 -0.041558
-0.354845 0.173800 -0.027391
0.316586 0.179986 -0.487280
0.311809 0.179610 -0.488078
0.308666 0.179423 -0.487836
0.303920 0.179050 -0.488630
0.300795 0.178864 -0.488389
0.297677 0.178678 -0.488148
0.292973 0.178308 -0.488938
0.288289 0.177939 -0.489725
0.285199 0.177755 -0.489484
0.282116 0.177571 -0.489243
0.277473 0.177206 -0.490026
0.274407 0.177023 -0.489785
0.269795 0.176660 -0.490565
0.266746 0.176479 -0.490325
0.262163 0.176117 -0.491101
0.259132 0.175937 -0.490860
0.256106 0.175758 -0.490621
0.251564 0.175399 -0.491393
0.248555 0.175221 -0.491154
0.244042 0.174864 -0.491922
0.241050 0.174687 -0.491683
0.238064 0.174510 -0.491445
0.233590 0.174156 -0.492210
0.230621 0.173980 -0.491971
0.227658 0.173805 -0.491733
0.224701 0.173629 -0.491496
0.221750 0.173454 -0.491259
0.217335 0.173105 -0.492019
0.214401 0.172931 -0.491783
0.211472 0.172757 -0.491546
0.207095 0.172411 -0.492303
0.204182 0.172238 -0.492067
0.201275 0.172066 -0.491831
0.196936 0.171723 -0.492585
0.192615 0.171381 -0.493336
0.189734 0.171210 -0.493100
0.186858 0.171040 -0.492864
0.183988 0.170870 -0.492630
0.179714 0.170531 -0.493376
0.176860 0.170362 -0.493142
0.174011 0.170194 -0.492907
0.171168 0.170025 -0.492674
0.168330 0.169858 -0.492440
0.165499 0.169690 -0.492208
0.161290 0.169356 -0.492950
0.158473 0.169189 -0.492717
0.155662 0.169023 -0.492485
0.152856 0.168857 -0.492253
0.148693 0.168526 -0.492992
0.145902 0.168361 -0.492761
0.143117 0.168197 -0.492530
0.140337 0.168032 -0.492299
0.137563 0.167868 -0.492069
0.133453 0.167541 -0.492804
0.130694 0.167378 -0.492574
0.127939 0.167216 -0.492344
0.125190 0.167053 -0.492115
0.122447 0.166891 -0.491886
0.118390 0.166568 -0.492617
0.115661 0.166407 -0.492389
0.112937 0.166246 -0.492160
0.110219 0.166085 -0.491933
0.107505 0.165925 -0.491706
0.104797 0.165765 -0.491479
0.100802 0.165446 -0.492206
0.098108 0.165287 -0.491979
0.095419 0.165128 -0.491753
0.092735 0.164970 -0.491527
0.090057 0.164812 -0.491302
0.086112 0.164497 -0.492025
0.083447 0.164340 -0.491800
0.080788 0.164183 -0.491575
0.078134 0.164026 -0.491351
0.075484 0.163870 -0.491127
0.071590 0.163558 -0.491846
0.068954 0.163403 -0.491623
0.066323 0.163248 -0.491399
0.063698 0.163093 -0.491176
0.061077 0.162938 -0.490954
0.058461 0.162784 -0.490732
0.054624 0.162476 -0.491447
0.052022 0.162323 -0.491225
0.049424 0.162170 -0.491004
0.046832 0.162017 -0.490783
0.044244 0.161865 -0.490562
0.040455 0.161560 -0.491274
0.037881 0.161409 -0.491053
0.035311 0.161257 -0.490833
0.032746 0.161106 -0.490614
0.030186 0.160956 -0.490395
0.026445 0.160655 -0.491103
0.023898 0.160505 -0.490883
0.021355 0.160355 -0.490665
0.018818 0.160206 -0.490447
0.016285 0.160057 -0.490229
0.013757 0.159908 -0.490011
0.010070 0.159611 -0.490715
0.007554 0.159463 -0.490498
0.005044 0.159315 -0.490281
0.002537 0.159168 -0.490065
0.000036 0.159020 -0.489849
-0.003605 0.158727 -0.490549
-0.006094 0.158580 -0.490333
-0.008579 0.158434 -0.490118
-0.011059 0.158288 -0.489903
-0.013534 0.158143 -0.489688
-0.017130 0.157853 -0.490385
-0.019593 0.157708 -0.490170
-0.022052 0.157563 -0.489956
-0.025620 0.157275 -0.490650
-0.028066 0.157131 -0.490436
-0.030508 0.156988 -0.490222
-0.034047 0.156702 -0.490913
-0.036477 0.156559 -0.490699
-0.038902 0.156416 -0.490486
-0.041323 0.156274 -0.490274
-0.043740 0.156132 -0.490061
-0.047236 0.155849 -0.490749
-0.049641 0.155708 -0.490536
-0.052041 0.155567 -0.490325
-0.054437 0.155427 -0.490113
-0.056829 0.155286 -0.489902
-0.060283 0.155006 -0.490586
-0.062663 0.154866 -0.490375
-0.065039 0.154727 -0.490165
-0.067410 0.154588 -0.489955
-0.069778 0.154449 -0.489745
-0.072141 0.154310 -0.489535
-0.075546 0.154034 -0.490216
-0.077897 0.153896 -0.490006
-0.080245 0.153758 -0.489798
-0.082588 0.153621 -0.489589
-0.084927 0.153484 -0.489381
-0.088291 0.153210 -0.490058
-0.090619 0.153074 -0.489850
-0.092942 0.152937 -0.489642
-0.095262 0.152802 -0.489435
-0.097577 0.152666 -0.489228
-0.100901 0.152395 -0.489902
-0.103206 0.152260 -0.489695
-0.105506 0.152125 -0.489489
-0.107802 0.151991 -0.489283
-0.110094 0.151857 -0.489077
-0.112382 0.151723 -0.488872
-0.115660 0.151455 -0.489542
-0.117937 0.151322 -0.489337
-0.120210 0.151189 -0.489132
-0.122479 0.151056 -0.488927
-0.124745 0.150923 -0.488723
-0.127983 0.150659 -0.489390
-0.130238 0.150527 -0.489186
-0.133459 0.150263 -0.489850
-0.135702 0.150132 -0.489647
-0.137942 0.150001 -0.489443
-0.141139 0.149740 -0.490105
-0.143368 0.149609 -0.489901
-0.145594 0.149479 -0.489698
-0.147815 0.149349 -0.489496
-0.150033 0.149220 -0.489293
-0.152247 0.149090 -0.489091
-0.155399 0.148832 -0.489750
-0.157603 0.148703 -0.489548
-0.159803 0.148575 -0.489346
-0.161999 0.148446 -0.489145
-0.164191 0.148318 -0.488944
-0.167307 0.148063 -0.489599
-0.169489 0.147935 -0.489399
-0.170746 0.147935 -0.488344
-0.172923 0.147808 -0.488145
-0.175097 0.147681 -0.487946
-0.177266 0.147554 -0.487747
-0.179433 0.147428 -0.487549
-0.182503 0.147175 -0.488202
-0.184660 0.147049 -0.488004
-0.186812 0.146923 -0.487806
-0.188961 0.146798 -0.487608
-0.191106 0.146673 -0.487411
-0.193248 0.146548 -0.487214
-0.195385 0.146423 -0.487018
-0.197520 0.146298 -0.486821
-0.199650 0.146174 -0.486625
-0.202661 0.145925 -0.487275
-0.204782 0.145801 -0.487079
-0.206899 0.145678 -0.486884
-0.209013 0.145554 -0.486689
-0.211995 0.145308 -0.487335
-0.214099 0.145186 -0.487140
-0.216200 0.145063 -0.486946
-0.219160 0.144818 -0.487590
-0.221251 0.144696 -0.487395
-0.223338 0.144575 -0.487201
-0.225422 0.144453 -0.487007
-0.227503 0.144332 -0.486813
-0.229580 0.144211 -0.486620
-0.231654 0.144090 -0.486427
-0.233724 0.143969 -0.486234
-0.235790 0.143848 -0.486042
-0.238693 0.143608 -0.486682
-0.240751 0.143488 -0.486490
-0.242805 0.143368 -0.486298
-0.244855 0.143249 -0.486107
-0.246902 0.143129 -0.485915
-0.248946 0.143010 -0.485725
-0.250986 0.142891 -0.485534
-0.253023 0.142773 -0.485344
-0.255057 0.142654 -0.485154
-0.257087 0.142536 -0.484964
-0.259114 0.142418 -0.484775
-0.261138 0.142300 -0.484586
-0.263158 0.142182 -0.484397
-0.265175 0.142064 -0.484208
-0.267188 0.141947 -0.484020
-0.269199 0.141830 -0.483832
-0.271206 0.141713 -0.483645
-0.273209 0.141596 -0.483458
-0.275210 0.141479 -0.483271
-0.276412 0.141479 -0.482262
-0.278408 0.141363 -0.482076
-0.280401 0.141247 -0.481891
-0.282391 0.141131 -0.481706
-0.283590 0.141131 -0.480699
-0.285575 0.141015 -0.480515
-0.286773 0.141015 -0.479510
-0.288755 0.140899 -0.479327
-0.290732 0.140784 -0.479144
-0.291929 0.140784 -0.478141
-0.293903 0.140668 -0.477959
-0.295098 0.140668 -0.476956
-0.297067 0.140553 -0.476776
-0.299034 0.140438 -0.476596
-0.300227 0.140438 -0.475594
-0.302957 0.140209 -0.476236
-0.304148 0.140209 -0.475237
-0.306104 0.140095 -0.475058
-0.308056 0.139981 -0.474880
-0.309246 0.139981 -0.473882
-0.311194 0.139867 -0.473705
-0.313140 0.139753 -0.473528
-0.313572 0.139867 -0.471710
-0.315515 0.139753 -0.471535
-0.316703 0.139753 -0.470539
-0.318642 0.139639 -0.470365
-0.319828 0.139639 -0.469369
-0.321764 0.139526 -0.469196
-0.322949 0.139526 -0.468201
-0.324880 0.139413 -0.468029
-0.326808 0.139300 -0.467858
-0.328733 0.139187 -0.467686
-0.329916 0.139187 -0.466694
