ply
format ascii 1.0
element vertex 1685
property float x
property float y
property float z
end_header
-0.477166 0.161155 -0.282307
-0.476869 0.161155 -0.280622
-0.476572 0.161155 -0.278937
-0.476275 0.161155 -0.277252
-0.474695 0.161300 -0.276114
-0.473112 0.161445 -0.274974
-0.472814 0.161445 -0.273286
-0.471228 0.161590 -0.272143
-0.470930 0.161590 -0.270453
-0.469341 0.161736 -0.269306
-0.467749 0.161882 -0.268157
-0.467450 0.161882 -0.266465
-0.465855 0.162028 -0.265312
-0.465556 0.162028 -0.263618
-0.463958 0.162174 -0.262461
-0.463659 0.162174 -0.260766
-0.462058 0.162321 -0.259606
-0.460453 0.162467 -0.258444
-0.458846 0.162615 -0.257280
-0.457236 0.162762 -0.256114
-0.455623 0.162910 -0.254946
-0.454007 0.163058 -0.253776
-0.452388 0.163206 -0.252603
-0.450766 0.163354 -0.251429
-0.447816 0.163652 -0.250785
-0.446185 0.163801 -0.249605
-0.444552 0.163951 -0.248424
-0.442915 0.164101 -0.247240
-0.441276 0.164251 -0.246054
-0.438292 0.164552 -0.245396
-0.436644 0.164703 -0.244206
-0.434993 0.164854 -0.243013
-0.431986 0.165157 -0.242347
-0.430326 0.165309 -0.241149
-0.427302 0.165614 -0.240478
-0.425634 0.165767 -0.239275
-0.422593 0.166073 -0.238599
-0.420915 0.166227 -0.237391
-0.417858 0.166535 -0.236710
-0.414789 0.166845 -0.236026
-0.411708 0.167155 -0.235339
-0.408616 0.167467 -0.234650
-0.404112 0.167937 -0.234490
-0.399582 0.168409 -0.234328
-0.395026 0.168884 -0.234166
-0.390445 0.169362 -0.234002
-0.391559 0.169202 -0.231698
-0.391247 0.169202 -0.229929
-0.390935 0.169202 -0.228160
-0.392048 0.169043 -0.225864
-0.391736 0.169043 -0.224096
-0.392847 0.168884 -0.221806
-0.392535 0.168884 -0.220040
-0.392224 0.168884 -0.218274
-0.393333 0.168726 -0.215991
-0.393022 0.168726 -0.214227
-0.392711 0.168726 -0.212463
-0.392400 0.168726 -0.210699
-0.393508 0.168567 -0.208425
-0.393197 0.168567 -0.206663
-0.392887 0.168567 -0.204900
-0.393993 0.168409 -0.202634
-0.393683 0.168409 -0.200873
-0.393372 0.168409 -0.199113
-0.393062 0.168409 -0.197352
-0.394167 0.168251 -0.195095
-0.393857 0.168251 -0.193336
-0.393547 0.168251 -0.191576
-0.393236 0.168251 -0.189817
-0.392926 0.168251 -0.188058
-0.394031 0.168094 -0.185812
-0.393721 0.168094 -0.184054
-0.393411 0.168094 -0.182297
-0.393101 0.168094 -0.180539
-0.394204 0.167937 -0.178302
-0.393895 0.167937 -0.176546
-0.393585 0.167937 -0.174790
-0.393275 0.167937 -0.173035
-0.392966 0.167937 -0.171279
-0.394068 0.167780 -0.169052
-0.393759 0.167780 -0.167298
-0.393449 0.167780 -0.165544
-0.393140 0.167780 -0.163790
-0.392831 0.167780 -0.162035
-0.393932 0.167623 -0.159820
-0.393623 0.167623 -0.158067
-0.393314 0.167623 -0.156314
-0.393005 0.167623 -0.154562
-0.392696 0.167623 -0.152809
-0.392387 0.167623 -0.151057
-0.392078 0.167623 -0.149304
-0.391769 0.167623 -0.147551
-0.391460 0.167623 -0.145799
-0.391151 0.167623 -0.144046
-0.390842 0.167623 -0.142294
-0.390533 0.167623 -0.140541
-0.390224 0.167623 -0.138788
-0.389915 0.167623 -0.137036
-0.389606 0.167623 -0.135283
-0.389297 0.167623 -0.133531
-0.388988 0.167623 -0.131778
-0.388679 0.167623 -0.130026
-0.389783 0.167467 -0.127842
-0.389474 0.167467 -0.126091
-0.389166 0.167467 -0.124340
-0.388857 0.167467 -0.122589
-0.388548 0.167467 -0.120838
-0.388239 0.167467 -0.119087
-0.387931 0.167467 -0.117336
-0.387622 0.167467 -0.115585
-0.387313 0.167467 -0.113834
-0.387004 0.167467 -0.112083
-0.386696 0.167467 -0.110332
-0.386387 0.167467 -0.108581
-0.386078 0.167467 -0.106830
-0.385769 0.167467 -0.105079
-0.385461 0.167467 -0.103328
-0.385152 0.167467 -0.101577
-0.384843 0.167467 -0.099826
-0.384534 0.167467 -0.098075
-0.384226 0.167467 -0.096324
-0.382498 0.167623 -0.094974
-0.382189 0.167623 -0.093221
-0.381880 0.167623 -0.091469
-0.381571 0.167623 -0.089716
-0.381262 0.167623 -0.087963
-0.379530 0.167780 -0.086604
-0.379221 0.167780 -0.084850
-0.378912 0.167780 -0.083095
-0.378602 0.167780 -0.081341
-0.378293 0.167780 -0.079587
-0.376557 0.167937 -0.078218
-0.376247 0.167937 -0.076462
-0.374507 0.168094 -0.075090
-0.374197 0.168094 -0.073332
-0.373888 0.168094 -0.071575
-0.373578 0.168094 -0.069817
-0.371834 0.168251 -0.068437
-0.371524 0.168251 -0.066678
-0.371213 0.168251 -0.064919
-0.370903 0.168251 -0.063160
-0.369155 0.168409 -0.061772
-0.368845 0.168409 -0.060011
-0.368534 0.168409 -0.058250
-0.368224 0.168409 -0.056489
-0.366472 0.168567 -0.055094
-0.366161 0.168567 -0.053332
-0.367292 0.168409 -0.051207
-0.365539 0.168567 -0.049807
-0.365229 0.168567 -0.048044
-0.364918 0.168567 -0.046282
-0.364607 0.168567 -0.044520
-0.364296 0.168567 -0.042757
-0.362539 0.168726 -0.041348
-0.362228 0.168726 -0.039584
-0.361917 0.168726 -0.037819
-0.361606 0.168726 -0.036055
-0.359844 0.168884 -0.034638
-0.359533 0.168884 -0.032873
-0.359221 0.168884 -0.031107
-0.358910 0.168884 -0.029341
-0.357144 0.169043 -0.027916
-0.356833 0.169043 -0.026149
-0.356521 0.169043 -0.024382
-0.354751 0.169202 -0.022951
-0.354439 0.169202 -0.021182
-0.352666 0.169362 -0.019747
-0.352354 0.169362 -0.017976
-0.350577 0.169522 -0.016537
-0.350264 0.169522 -0.014764
-0.348484 0.169682 -0.013320
-0.348171 0.169682 -0.011546
-0.346387 0.169842 -0.010098
-0.346074 0.169842 -0.008322
-0.344286 0.170003 -0.006870
-0.343972 0.170003 -0.005092
-0.342181 0.170164 -0.003635
-0.341867 0.170164 -0.001856
-0.340072 0.170326 -0.000395
-0.339758 0.170326 0.001386
-0.337959 0.170487 0.002852
-0.337645 0.170487 0.004634
-0.335842 0.170649 0.006105
-0.335527 0.170649 0.007889
-0.333721 0.170811 0.009364
-0.333406 0.170811 0.011149
-0.331596 0.170974 0.012629
-0.331281 0.170974 0.014416
-0.329467 0.171137 0.015900
-0.327650 0.171300 0.017387
-0.327334 0.171300 0.019178
-0.325513 0.171464 0.020669
-0.325197 0.171464 0.022462
-0.323372 0.171628 0.023957
-0.323055 0.171628 0.025752
-0.321227 0.171792 0.027252
-0.319395 0.171956 0.028755
-0.319078 0.171956 0.030553
-0.317242 0.172121 0.032061
-0.315402 0.172286 0.033571
-0.315085 0.172286 0.035373
-0.313242 0.172451 0.036888
-0.311395 0.172617 0.038406
-0.311077 0.172617 0.040211
-0.309226 0.172783 0.041734
-0.307372 0.172949 0.043259
-0.305514 0.173116 0.044788
-0.305195 0.173116 0.046598
-0.303333 0.173283 0.048131
-0.301468 0.173450 0.049668
-0.299599 0.173618 0.051207
-0.299279 0.173618 0.053022
-0.297407 0.173786 0.054566
-0.295530 0.173954 0.056113
-0.293651 0.174123 0.057663
-0.290201 0.174461 0.058948
-0.289880 0.174461 0.060772
-0.287989 0.174631 0.062331
-0.286094 0.174801 0.063893
-0.282617 0.175141 0.065195
-0.280712 0.175312 0.066764
-0.278803 0.175484 0.068337
-0.276890 0.175655 0.069912
-0.274974 0.175827 0.071491
-0.273053 0.175999 0.073072
-0.269527 0.176345 0.074401
-0.267596 0.176518 0.075991
-0.265661 0.176692 0.077583
-0.263722 0.176866 0.079178
-0.261779 0.177040 0.080777
-0.258210 0.177389 0.082129
-0.256256 0.177565 0.083735
-0.252665 0.177916 0.085097
-0.249059 0.178269 0.086464
-0.247087 0.178446 0.088083
-0.243460 0.178802 0.089460
-0.238157 0.179337 0.090599
-0.234494 0.179696 0.091988
-0.232492 0.179876 0.093625
-0.228806 0.180236 0.095024
-0.225106 0.180599 0.096429
-0.223084 0.180780 0.098079
-0.219361 0.181145 0.099494
-0.215623 0.181511 0.100915
-0.213581 0.181694 0.102578
-0.209821 0.182063 0.104009
-0.207767 0.182247 0.105680
-0.203983 0.182618 0.107122
-0.200183 0.182990 0.108570
-0.194624 0.183550 0.109794
-0.189032 0.184114 0.111026
-0.183404 0.184682 0.112265
-0.177742 0.185253 0.113511
-0.173834 0.185636 0.114993
-0.168113 0.186213 0.116255
-0.158729 0.187183 0.117071
-0.132557 0.189952 0.115827
-0.101736 0.193219 0.114072
0.173118 0.222643 0.082708
0.173528 0.222643 0.085034
0.176513 0.222919 0.087053
0.179506 0.223196 0.089077
0.179917 0.223196 0.091408
0.182917 0.223473 0.093440
0.185925 0.223751 0.095477
0.188940 0.224030 0.097518
0.189352 0.224030 0.099859
0.192376 0.224309 0.101908
0.195406 0.224589 0.103963
0.198445 0.224870 0.106023
0.198859 0.224870 0.108372
0.201905 0.225151 0.110440
0.204959 0.225433 0.112513
0.208021 0.225716 0.114592
0.211090 0.226000 0.116675
0.214167 0.226284 0.118764
0.214584 0.226284 0.121128
0.217669 0.226569 0.123225
0.220762 0.226855 0.125327
0.221180 0.226855 0.127697
0.224281 0.227141 0.129808
0.227390 0.227428 0.131924
0.230507 0.227716 0.134045
0.233632 0.228005 0.136172
0.236765 0.228294 0.138304
0.242633 0.228875 0.140193
0.243054 0.228875 0.142584
0.243476 0.228875 0.144975
0.243897 0.228875 0.147366
0.244319 0.228875 0.149756
0.244741 0.228875 0.152147
0.242432 0.228584 0.154768
0.242853 0.228584 0.157156
0.243274 0.228584 0.159544
0.243695 0.228584 0.161932
0.244116 0.228584 0.164320
0.244537 0.228584 0.166708
0.244958 0.228584 0.169095
0.245379 0.228584 0.171483
0.245800 0.228584 0.173871
0.248956 0.228875 0.176056
0.249378 0.228875 0.178447
0.249800 0.228875 0.180838
0.250221 0.228875 0.183229
0.250643 0.228875 0.185620
0.251064 0.228875 0.188011
0.251486 0.228875 0.190402
0.251907 0.228875 0.192793
0.252329 0.228875 0.195184
0.252751 0.228875 0.197575
0.253172 0.228875 0.199965
0.253594 0.228875 0.202356
0.254015 0.228875 0.204747
0.257186 0.229166 0.206975
0.257608 0.229166 0.209368
0.258030 0.229166 0.211762
0.258452 0.229166 0.214156
0.258874 0.229166 0.216550
0.259297 0.229166 0.218944
0.259719 0.229166 0.221338
0.260141 0.229166 0.223732
0.260563 0.229166 0.226126
0.260985 0.229166 0.228520
0.264169 0.229459 0.230780
0.264591 0.229459 0.233177
0.265014 0.229459 0.235574
0.265437 0.229459 0.237971
0.265859 0.229459 0.240368
0.266282 0.229459 0.242765
0.266705 0.229459 0.245162
0.267127 0.229459 0.247559
0.267550 0.229459 0.249956
0.267973 0.229459 0.252353
0.268395 0.229459 0.254750
0.271592 0.229752 0.257047
0.269240 0.229459 0.259544
0.272439 0.229752 0.261847
0.272862 0.229752 0.264247
0.276069 0.230045 0.266559
0.284887 0.230931 0.268705
0.299452 0.232423 0.270699
0.314205 0.233933 0.272720
-0.396389 0.170457 -0.425729
-0.417462 0.168039 -0.413185
-0.428314 0.166778 -0.405817
-0.432148 0.166309 -0.401984
-0.435960 0.165844 -0.398172
-0.439752 0.165381 -0.394381
-0.444876 0.164767 -0.389940
-0.448619 0.164310 -0.386196
-0.452340 0.163856 -0.382474
-0.454708 0.163554 -0.379427
-0.458396 0.163103 -0.375740
-0.463383 0.162507 -0.371427
-0.464397 0.162358 -0.369067
-0.466721 0.162062 -0.366073
-0.467730 0.161914 -0.363724
-0.470042 0.161620 -0.360747
-0.471045 0.161473 -0.358409
-0.473345 0.161180 -0.355450
-0.474341 0.161034 -0.353124
-0.475337 0.160888 -0.350802
-0.476330 0.160742 -0.348484
-0.477321 0.160597 -0.346170
-0.477022 0.160597 -0.344472
-0.478012 0.160452 -0.342164
-0.479000 0.160307 -0.339860
-0.478701 0.160307 -0.338166
-0.479688 0.160163 -0.335867
-0.479389 0.160163 -0.334175
-0.480375 0.160018 -0.331882
-0.480076 0.160018 -0.330191
-0.481060 0.159874 -0.327903
-0.480762 0.159874 -0.326214
-0.481744 0.159731 -0.323932
-0.482725 0.159587 -0.321655
-0.482427 0.159587 -0.319968
-0.483406 0.159444 -0.317696
-0.483109 0.159444 -0.316011
-0.484086 0.159301 -0.313745
-0.483790 0.159301 -0.312061
-0.483493 0.159301 -0.310377
-0.484469 0.159158 -0.308118
-0.484172 0.159158 -0.306436
-0.483876 0.159158 -0.304754
-0.483579 0.159158 -0.303072
-0.484554 0.159016 -0.300821
-0.484258 0.159016 -0.299140
-0.483962 0.159016 -0.297460
-0.483665 0.159016 -0.295779
-0.483369 0.159016 -0.294098
-0.483073 0.159016 -0.292418
-0.482776 0.159016 -0.290737
-0.481206 0.159158 -0.289614
-0.480910 0.159158 -0.287932
-0.479336 0.159301 -0.286806
-0.479040 0.159301 -0.285122
-0.478743 0.159301 -0.283439
-0.478446 0.159301 -0.281755
-0.478149 0.159301 -0.280071
-0.477852 0.159301 -0.278388
-0.477555 0.159301 -0.276704
-0.475978 0.159444 -0.275567
-0.474397 0.159587 -0.274427
-0.474100 0.159587 -0.272741
-0.472516 0.159731 -0.271598
-0.472219 0.159731 -0.269910
-0.470632 0.159874 -0.268763
-0.469043 0.160018 -0.267615
-0.468744 0.160018 -0.265924
-0.467152 0.160163 -0.264772
-0.466853 0.160163 -0.263079
-0.465258 0.160307 -0.261923
-0.464959 0.160307 -0.260229
-0.463360 0.160452 -0.259070
-0.461758 0.160597 -0.257909
-0.460154 0.160742 -0.256745
-0.458546 0.160888 -0.255580
-0.456936 0.161034 -0.254412
-0.455323 0.161180 -0.253242
-0.452388 0.161473 -0.252603
-0.450766 0.161620 -0.251429
-0.449142 0.161767 -0.250252
-0.447514 0.161914 -0.249073
-0.445883 0.162062 -0.247892
-0.444250 0.162210 -0.246709
-0.442613 0.162358 -0.245524
-0.440973 0.162507 -0.244337
-0.436644 0.162954 -0.244206
-0.434993 0.163103 -0.243013
-0.433339 0.163253 -0.241818
-0.430326 0.163554 -0.241149
-0.428663 0.163705 -0.239949
-0.425634 0.164007 -0.239275
-0.423962 0.164158 -0.238070
-0.420915 0.164462 -0.237391
-0.417858 0.164767 -0.236710
-0.414789 0.165073 -0.236026
-0.411708 0.165381 -0.235339
-0.408616 0.165689 -0.234650
-0.404112 0.166154 -0.234490
-0.399582 0.166621 -0.234328
-0.395026 0.167091 -0.234166
-0.391871 0.167406 -0.233467
-0.391559 0.167406 -0.231698
-0.392671 0.167249 -0.229398
-0.392359 0.167249 -0.227631
-0.392048 0.167249 -0.225864
-0.391736 0.167249 -0.224096
-0.392847 0.167091 -0.221806
-0.393955 0.166934 -0.219519
-0.393644 0.166934 -0.217755
-0.393333 0.166934 -0.215991
-0.393022 0.166934 -0.214227
-0.394130 0.166778 -0.211950
-0.393819 0.166778 -0.210188
-0.393508 0.166778 -0.208425
-0.394614 0.166621 -0.206156
-0.394304 0.166621 -0.204395
-0.393993 0.166621 -0.202634
-0.393683 0.166621 -0.200873
-0.394787 0.166465 -0.198613
-0.394477 0.166465 -0.196854
-0.394167 0.166465 -0.195095
-0.393857 0.166465 -0.193336
-0.393547 0.166465 -0.191576
-0.394650 0.166309 -0.189327
-0.394341 0.166309 -0.187569
-0.394031 0.166309 -0.185812
-0.395133 0.166154 -0.183570
-0.394823 0.166154 -0.181814
-0.394514 0.166154 -0.180058
-0.394204 0.166154 -0.178302
-0.393895 0.166154 -0.176546
-0.393585 0.166154 -0.174790
-0.394687 0.165999 -0.172561
-0.394377 0.165999 -0.170806
-0.394068 0.165999 -0.169052
-0.393759 0.165999 -0.167298
-0.393449 0.165999 -0.165544
-0.394550 0.165844 -0.163325
-0.394241 0.165844 -0.161572
-0.393932 0.165844 -0.159820
-0.393623 0.165844 -0.158067
-0.393314 0.165844 -0.156314
-0.394414 0.165689 -0.154106
-0.392696 0.165844 -0.152809
-0.392387 0.165844 -0.151057
-0.392078 0.165844 -0.149304
-0.391769 0.165844 -0.147551
-0.391460 0.165844 -0.145799
-0.391151 0.165844 -0.144046
-0.390842 0.165844 -0.142294
-0.390533 0.165844 -0.140541
-0.390224 0.165844 -0.138788
-0.389915 0.165844 -0.137036
-0.389606 0.165844 -0.135283
-0.390709 0.165689 -0.133094
-0.390401 0.165689 -0.131343
-0.390092 0.165689 -0.129592
-0.389783 0.165689 -0.127842
-0.389474 0.165689 -0.126091
-0.389166 0.165689 -0.124340
-0.388857 0.165689 -0.122589
-0.388548 0.165689 -0.120838
-0.388239 0.165689 -0.119087
-0.387931 0.165689 -0.117336
-0.387622 0.165689 -0.115585
-0.387313 0.165689 -0.113834
-0.387004 0.165689 -0.112083
-0.386696 0.165689 -0.110332
-0.386387 0.165689 -0.108581
-0.386078 0.165689 -0.106830
-0.385769 0.165689 -0.105079
-0.385461 0.165689 -0.103328
-0.385152 0.165689 -0.101577
-0.384843 0.165689 -0.099826
-0.384534 0.165689 -0.098075
-0.384226 0.165689 -0.096324
-0.383917 0.165689 -0.094573
-0.383608 0.165689 -0.092822
-0.381880 0.165844 -0.091469
-0.381571 0.165844 -0.089716
-0.381262 0.165844 -0.087963
-0.380953 0.165844 -0.086211
-0.379221 0.165999 -0.084850
-0.378912 0.165999 -0.083095
-0.378602 0.165999 -0.081341
-0.378293 0.165999 -0.079587
-0.376557 0.166154 -0.078218
-0.376247 0.166154 -0.076462
-0.375938 0.166154 -0.074707
-0.374197 0.166309 -0.073332
-0.373888 0.166309 -0.071575
-0.373578 0.166309 -0.069817
-0.373268 0.166309 -0.068060
-0.372958 0.166309 -0.066302
-0.371213 0.166465 -0.064919
-0.370903 0.166465 -0.063160
-0.370593 0.166465 -0.061400
-0.370283 0.166465 -0.059641
-0.368534 0.166621 -0.058250
-0.368224 0.166621 -0.056489
-0.367913 0.166621 -0.054729
-0.367603 0.166621 -0.052968
-0.367292 0.166621 -0.051207
-0.366982 0.166621 -0.049446
-0.366671 0.166621 -0.047686
-0.364918 0.166778 -0.046282
-0.364607 0.166778 -0.044520
-0.364296 0.166778 -0.042757
-0.363986 0.166778 -0.040995
-0.363675 0.166778 -0.039232
-0.361917 0.166934 -0.037819
-0.361606 0.166934 -0.036055
-0.361295 0.166934 -0.034291
-0.360984 0.166934 -0.032527
-0.359221 0.167091 -0.031107
-0.358910 0.167091 -0.029341
-0.358599 0.167091 -0.027575
-0.358287 0.167091 -0.025810
-0.356521 0.167249 -0.024382
-0.356209 0.167249 -0.022614
-0.354439 0.167406 -0.021182
-0.354127 0.167406 -0.019413
-0.352354 0.167564 -0.017976
-0.352042 0.167564 -0.016205
-0.350264 0.167722 -0.014764
-0.349952 0.167722 -0.012992
-0.348171 0.167881 -0.011546
-0.347858 0.167881 -0.009772
-0.346074 0.168039 -0.008322
-0.345761 0.168039 -0.006547
-0.343972 0.168198 -0.005092
-0.343659 0.168198 -0.003315
-0.341867 0.168358 -0.001856
-0.341553 0.168358 -0.000077
-0.339758 0.168517 0.001386
-0.339444 0.168517 0.003167
-0.337645 0.168677 0.004634
-0.337330 0.168677 0.006417
-0.335527 0.168838 0.007889
-0.335213 0.168838 0.009673
-0.333406 0.168998 0.011149
-0.333091 0.168998 0.012935
-0.331281 0.169159 0.014416
-0.330966 0.169159 0.016204
-0.329151 0.169320 0.017689
-0.328836 0.169320 0.019479
-0.327018 0.169482 0.020969
-0.325197 0.169643 0.022462
-0.324880 0.169643 0.024254
-0.323055 0.169806 0.025752
-0.321227 0.169968 0.027252
-0.320910 0.169968 0.029048
-0.319078 0.170131 0.030553
-0.317242 0.170294 0.032061
-0.316924 0.170294 0.033860
-0.315085 0.170457 0.035373
-0.314767 0.170457 0.037174
-0.312924 0.170621 0.038691
-0.311077 0.170785 0.040211
-0.309226 0.170949 0.041734
-0.308908 0.170949 0.043540
-0.307053 0.171113 0.045067
-0.305195 0.171278 0.046598
-0.303333 0.171444 0.048131
-0.301468 0.171609 0.049668
-0.301148 0.171609 0.051481
-0.300829 0.171609 0.053294
-0.298959 0.171775 0.054837
-0.297086 0.171941 0.056383
-0.293651 0.172274 0.057663
-0.291767 0.172442 0.059216
-0.289880 0.172609 0.060772
-0.287989 0.172777 0.062331
-0.286094 0.172945 0.063893
-0.282617 0.173282 0.065195
-0.282294 0.173282 0.067026
-0.280389 0.173451 0.068597
-0.278479 0.173621 0.070171
-0.276566 0.173790 0.071748
-0.273053 0.174131 0.073072
-0.271129 0.174302 0.074657
-0.269202 0.174473 0.076245
-0.267270 0.174644 0.077836
-0.263722 0.174988 0.079178
-0.261779 0.175161 0.080777
-0.259833 0.175333 0.082378
-0.256256 0.175680 0.083735
-0.254298 0.175854 0.085344
-0.250700 0.176202 0.086711
-0.247087 0.176552 0.088083
-0.245111 0.176728 0.089704
-0.241476 0.177080 0.091086
-0.236162 0.177611 0.092231
-0.234163 0.177788 0.093866
-0.230485 0.178145 0.095265
-0.226792 0.178502 0.096669
-0.223084 0.178862 0.098079
-0.221058 0.179042 0.099731
-0.217327 0.179403 0.101152
-0.213581 0.179766 0.102578
-0.211535 0.179948 0.104243
-0.207767 0.180313 0.105680
-0.203983 0.180679 0.107122
-0.201917 0.180863 0.108801
-0.196368 0.181417 0.110024
-0.190787 0.181974 0.111255
-0.186933 0.182347 0.112722
-0.181294 0.182910 0.113967
-0.175619 0.183476 0.115221
-0.169910 0.184046 0.116482
-0.165969 0.184428 0.117976
-0.149247 0.186165 0.117895
-0.119004 0.189337 0.116192
0.170551 0.220009 0.083020
0.170961 0.220009 0.085343
0.173939 0.220282 0.087360
0.174349 0.220282 0.089686
0.177335 0.220555 0.091711
0.180328 0.220828 0.093740
0.183329 0.221103 0.095774
0.183740 0.221103 0.098109
0.186749 0.221378 0.100152
0.189765 0.221653 0.102199
0.192789 0.221930 0.104252
0.195820 0.222207 0.106309
0.198859 0.222484 0.108372
0.199273 0.222484 0.110721
0.204959 0.223042 0.112513
0.205374 0.223042 0.114868
0.208436 0.223322 0.116950
0.208852 0.223322 0.119308
0.211923 0.223602 0.121397
0.215001 0.223884 0.123492
0.218086 0.224166 0.125592
0.221180 0.224448 0.127697
0.224281 0.224732 0.129808
0.227390 0.225016 0.131924
0.230507 0.225301 0.134045
0.230927 0.225301 0.136424
0.236765 0.225872 0.138304
0.237186 0.225872 0.140688
0.240327 0.226159 0.142829
0.240748 0.226159 0.145217
0.241169 0.226159 0.147605
0.241590 0.226159 0.149992
0.242011 0.226159 0.152380
0.239709 0.225872 0.154998
0.240129 0.225872 0.157382
0.240550 0.225872 0.159767
0.240970 0.225872 0.162152
0.241391 0.225872 0.164537
0.241811 0.225872 0.166922
0.242232 0.225872 0.169307
0.242652 0.225872 0.171691
0.243073 0.225872 0.174076
0.243493 0.225872 0.176461
0.243914 0.225872 0.178846
0.247063 0.226159 0.181035
0.247485 0.226159 0.183423
0.247906 0.226159 0.185811
0.248327 0.226159 0.188198
0.248748 0.226159 0.190586
0.249169 0.226159 0.192974
0.252329 0.226447 0.195184
0.252751 0.226447 0.197575
0.253172 0.226447 0.199965
0.253594 0.226447 0.202356
0.254015 0.226447 0.204747
0.254437 0.226447 0.207138
0.254859 0.226447 0.209529
0.255280 0.226447 0.211920
0.255702 0.226447 0.214311
0.256123 0.226447 0.216702
0.256545 0.226447 0.219093
0.256966 0.226447 0.221484
0.257388 0.226447 0.223875
0.257810 0.226447 0.226265
0.258231 0.226447 0.228656
0.261407 0.226735 0.230914
0.261829 0.226735 0.233308
0.262251 0.226735 0.235702
0.262673 0.226735 0.238096
0.263096 0.226735 0.240490
0.263518 0.226735 0.242884
0.263940 0.226735 0.245278
0.264362 0.226735 0.247672
0.267550 0.227025 0.249956
0.267973 0.227025 0.252353
0.268395 0.227025 0.254750
0.268818 0.227025 0.257147
0.269240 0.227025 0.259544
0.266895 0.226735 0.262035
0.270086 0.227025 0.264338
0.273285 0.227314 0.266647
0.276492 0.227605 0.268962
0.288126 0.228775 0.271034
0.302730 0.230255 0.273046
-0.410714 0.167026 -0.418516
-0.424458 0.165454 -0.409672
-0.431079 0.164679 -0.404432
-0.434898 0.164217 -0.400609
-0.438696 0.163758 -0.396808
-0.443829 0.163150 -0.392354
-0.447578 0.162697 -0.388601
-0.451306 0.162247 -0.384868
-0.455013 0.161799 -0.381155
-0.458700 0.161353 -0.377463
-0.461046 0.161057 -0.374440
-0.464699 0.160616 -0.370783
-0.467023 0.160323 -0.367785
-0.468031 0.160177 -0.365435
-0.470343 0.159885 -0.362455
-0.471346 0.159740 -0.360116
-0.473645 0.159450 -0.357154
-0.474642 0.159306 -0.354826
-0.475636 0.159161 -0.352502
-0.477920 0.158874 -0.349564
-0.477620 0.158874 -0.347867
-0.478610 0.158730 -0.345556
-0.479598 0.158587 -0.343249
-0.479299 0.158587 -0.341554
-0.480285 0.158444 -0.339253
-0.479986 0.158444 -0.337560
-0.480971 0.158301 -0.335264
-0.480673 0.158301 -0.333573
-0.481656 0.158159 -0.331283
-0.481358 0.158159 -0.329593
-0.482340 0.158016 -0.327309
-0.482042 0.158016 -0.325620
-0.483022 0.157874 -0.323341
-0.484000 0.157733 -0.321067
-0.483703 0.157733 -0.319381
-0.484680 0.157591 -0.317112
-0.484383 0.157591 -0.315428
-0.484086 0.157591 -0.313745
-0.485062 0.157450 -0.311482
-0.484766 0.157450 -0.309800
-0.484469 0.157450 -0.308118
-0.484172 0.157450 -0.306436
-0.485147 0.157309 -0.304182
-0.484851 0.157309 -0.302502
-0.484554 0.157309 -0.300821
-0.484258 0.157309 -0.299140
-0.485232 0.157168 -0.296895
-0.484936 0.157168 -0.295216
-0.484640 0.157168 -0.293537
-0.484343 0.157168 -0.291858
-0.482776 0.157309 -0.290737
-0.482480 0.157309 -0.289056
-0.482184 0.157309 -0.287376
-0.480613 0.157450 -0.286250
-0.480316 0.157450 -0.284568
-0.480020 0.157450 -0.282886
-0.479723 0.157450 -0.281203
-0.479427 0.157450 -0.279521
-0.477852 0.157591 -0.278388
-0.478833 0.157450 -0.276157
-0.477258 0.157591 -0.275020
-0.475680 0.157733 -0.273881
-0.475383 0.157733 -0.272196
-0.473802 0.157874 -0.271054
-0.473505 0.157874 -0.269367
-0.471921 0.158016 -0.268222
-0.470334 0.158159 -0.267074
-0.470036 0.158159 -0.265384
-0.468446 0.158301 -0.264233
-0.468148 0.158301 -0.262541
-0.466555 0.158444 -0.261386
-0.464959 0.158587 -0.260229
-0.464660 0.158587 -0.258535
-0.463061 0.158730 -0.257374
-0.461459 0.158874 -0.256211
-0.459854 0.159017 -0.255046
-0.456936 0.159306 -0.254412
-0.455323 0.159450 -0.253242
-0.453706 0.159595 -0.252071
-0.452087 0.159740 -0.250897
-0.450465 0.159885 -0.249721
-0.448840 0.160031 -0.248542
-0.447212 0.160177 -0.247362
-0.445581 0.160323 -0.246180
-0.442613 0.160616 -0.245524
-0.440973 0.160763 -0.244337
-0.437988 0.161057 -0.243676
-0.436340 0.161205 -0.242484
-0.433339 0.161501 -0.241818
-0.431681 0.161650 -0.240620
-0.428663 0.161948 -0.239949
-0.426997 0.162097 -0.238747
-0.425328 0.162247 -0.237542
-0.422287 0.162547 -0.236863
-0.419235 0.162848 -0.236181
-0.414789 0.163302 -0.236026
-0.411708 0.163606 -0.235339
-0.408616 0.163911 -0.234650
-0.404112 0.164371 -0.234490
-0.399582 0.164833 -0.234328
-0.395026 0.165298 -0.234166
-0.393294 0.165454 -0.232933
-0.392983 0.165454 -0.231166
-0.392671 0.165454 -0.229398
-0.392359 0.165454 -0.227631
-0.393470 0.165298 -0.225337
-0.393158 0.165298 -0.223571
-0.394266 0.165143 -0.221283
-0.393955 0.165143 -0.219519
-0.393644 0.165143 -0.217755
-0.394751 0.164988 -0.215475
-0.394440 0.164988 -0.213712
-0.394130 0.164988 -0.211950
-0.393819 0.164988 -0.210188
-0.394924 0.164833 -0.207916
-0.394614 0.164833 -0.206156
-0.394304 0.164833 -0.204395
-0.395408 0.164679 -0.202131
-0.395098 0.164679 -0.200372
-0.394787 0.164679 -0.198613
-0.395890 0.164525 -0.196357
-0.395580 0.164525 -0.194599
-0.395270 0.164525 -0.192842
-0.394960 0.164525 -0.191084
-0.394650 0.164525 -0.189327
-0.395752 0.164371 -0.187081
-0.395443 0.164371 -0.185326
-0.395133 0.164371 -0.183570
-0.394823 0.164371 -0.181814
-0.394514 0.164371 -0.180058
-0.395615 0.164217 -0.177823
-0.395305 0.164217 -0.176069
-0.394996 0.164217 -0.174315
-0.394687 0.164217 -0.172561
-0.394377 0.164217 -0.170806
-0.395477 0.164064 -0.168582
-0.395168 0.164064 -0.166830
-0.394859 0.164064 -0.165077
-0.394550 0.164064 -0.163325
-0.394241 0.164064 -0.161572
-0.393932 0.164064 -0.159820
-0.395032 0.163911 -0.157608
-0.394723 0.163911 -0.155857
-0.394414 0.163911 -0.154106
-0.394105 0.163911 -0.152355
-0.393797 0.163911 -0.150604
-0.393488 0.163911 -0.148853
-0.393179 0.163911 -0.147102
-0.392870 0.163911 -0.145351
-0.392562 0.163911 -0.143600
-0.392253 0.163911 -0.141849
-0.391944 0.163911 -0.140098
-0.391635 0.163911 -0.138347
-0.391327 0.163911 -0.136596
-0.391018 0.163911 -0.134845
-0.390709 0.163911 -0.133094
-0.390401 0.163911 -0.131343
-0.390092 0.163911 -0.129592
-0.391194 0.163758 -0.127411
-0.390885 0.163758 -0.125662
-0.390577 0.163758 -0.123912
-0.388857 0.163911 -0.122589
-0.388548 0.163911 -0.120838
-0.388239 0.163911 -0.119087
-0.387931 0.163911 -0.117336
-0.387622 0.163911 -0.115585
-0.387313 0.163911 -0.113834
-0.387004 0.163911 -0.112083
-0.386696 0.163911 -0.110332
-0.386387 0.163911 -0.108581
-0.386078 0.163911 -0.106830
-0.385769 0.163911 -0.105079
-0.385461 0.163911 -0.103328
-0.385152 0.163911 -0.101577
-0.386258 0.163758 -0.099422
-0.384534 0.163911 -0.098075
-0.384226 0.163911 -0.096324
-0.383917 0.163911 -0.094573
-0.383608 0.163911 -0.092822
-0.383299 0.163911 -0.091071
-0.381571 0.164064 -0.089716
-0.381262 0.164064 -0.087963
-0.380953 0.164064 -0.086211
-0.380644 0.164064 -0.084458
-0.380335 0.164064 -0.082706
-0.378602 0.164217 -0.081341
-0.378293 0.164217 -0.079587
-0.376557 0.164371 -0.078218
-0.376247 0.164371 -0.076462
-0.375938 0.164371 -0.074707
-0.375628 0.164371 -0.072951
-0.375318 0.164371 -0.071195
-0.373578 0.164525 -0.069817
-0.373268 0.164525 -0.068060
-0.372958 0.164525 -0.066302
-0.372648 0.164525 -0.064545
-0.370903 0.164679 -0.063160
-0.370593 0.164679 -0.061400
-0.370283 0.164679 -0.059641
-0.369973 0.164679 -0.057882
-0.369663 0.164679 -0.056123
-0.367913 0.164833 -0.054729
-0.367603 0.164833 -0.052968
-0.367292 0.164833 -0.051207
-0.366982 0.164833 -0.049446
-0.366671 0.164833 -0.047686
-0.366361 0.164833 -0.045925
-0.366051 0.164833 -0.044164
-0.364296 0.164988 -0.042757
-0.363986 0.164988 -0.040995
-0.363675 0.164988 -0.039232
-0.363364 0.164988 -0.037470
-0.361606 0.165143 -0.036055
-0.361295 0.165143 -0.034291
-0.360984 0.165143 -0.032527
-0.360673 0.165143 -0.030763
-0.360362 0.165143 -0.028999
-0.358599 0.165298 -0.027575
-0.358287 0.165298 -0.025810
-0.357976 0.165298 -0.024044
-0.356209 0.165454 -0.022614
-0.355898 0.165454 -0.020847
-0.354127 0.165610 -0.019413
-0.353816 0.165610 -0.017644
-0.353504 0.165610 -0.015875
-0.351729 0.165766 -0.014435
-0.351417 0.165766 -0.012664
-0.349639 0.165922 -0.011219
-0.349327 0.165922 -0.009447
-0.347545 0.166079 -0.007998
-0.347233 0.166079 -0.006224
-0.345447 0.166236 -0.004771
-0.345134 0.166236 -0.002995
-0.343345 0.166394 -0.001538
-0.343032 0.166394 0.000240
-0.341240 0.166551 0.001702
-0.339444 0.166709 0.003167
-0.339130 0.166709 0.004947
-0.337330 0.166867 0.006417
-0.337016 0.166867 0.008199
-0.336702 0.166867 0.009982
-0.334898 0.167026 0.011457
-0.334584 0.167026 0.013241
-0.332776 0.167185 0.014721
-0.330966 0.167344 0.016204
-0.330650 0.167344 0.017991
-0.328836 0.167503 0.019479
-0.327018 0.167663 0.020969
-0.326702 0.167663 0.022760
-0.324880 0.167823 0.024254
-0.324564 0.167823 0.026047
-0.322739 0.167984 0.027546
-0.320910 0.168144 0.029048
-0.320593 0.168144 0.030844
-0.318761 0.168305 0.032351
-0.316924 0.168466 0.033860
-0.316607 0.168466 0.035660
-0.314767 0.168628 0.037174
-0.312924 0.168790 0.038691
-0.312606 0.168790 0.040494
-0.310758 0.168952 0.042015
-0.308908 0.169115 0.043540
-0.307053 0.169277 0.045067
-0.305195 0.169441 0.046598
-0.304876 0.169441 0.048408
-0.303014 0.169604 0.049943
-0.301148 0.169768 0.051481
-0.300829 0.169768 0.053294
-0.298959 0.169932 0.054837
-0.297086 0.170096 0.056383
-0.295210 0.170261 0.057931
-0.293330 0.170426 0.059483
-0.289880 0.170757 0.060772
-0.287989 0.170923 0.062331
-0.286094 0.171089 0.063893
-0.284196 0.171256 0.065458
-0.282294 0.171423 0.067026
-0.280389 0.171590 0.068597
-0.278479 0.171758 0.070171
-0.276566 0.171926 0.071748
-0.274649 0.172094 0.073329
-0.272729 0.172263 0.074912
-0.270805 0.172432 0.076499
-0.267270 0.172770 0.077836
-0.265335 0.172940 0.079430
-0.263396 0.173111 0.081027
-0.259833 0.173452 0.082378
-0.257883 0.173623 0.083983
-0.254298 0.173967 0.085344
-0.252337 0.174139 0.086957
-0.248731 0.174485 0.088328
-0.245111 0.174832 0.089704
-0.243130 0.175006 0.091329
-0.237827 0.175530 0.092473
-0.234163 0.175881 0.093866
-0.232160 0.176057 0.095505
-0.228474 0.176410 0.096908
-0.224773 0.176765 0.098317
-0.222751 0.176943 0.099968
-0.219027 0.177299 0.101388
-0.215289 0.177658 0.102813
-0.213247 0.177837 0.104477
-0.209485 0.178198 0.105912
-0.205708 0.178560 0.107354
-0.201917 0.178923 0.108801
-0.199846 0.179105 0.110483
-0.194286 0.179654 0.111713
-0.188692 0.180206 0.112950
-0.184830 0.180576 0.114422
-0.179179 0.181134 0.115674
-0.175277 0.181508 0.117159
-0.169567 0.182072 0.118426
-0.162012 0.182829 0.119477
-0.135944 0.185528 0.118271
-0.105247 0.188712 0.116562
0.168399 0.217382 0.085652
0.168808 0.217382 0.087972
0.171780 0.217650 0.089990
0.174759 0.217920 0.092012
0.177745 0.218190 0.094039
0.178156 0.218190 0.096368
0.181150 0.218461 0.098403
0.184152 0.218732 0.100444
0.187161 0.219004 0.102489
0.190178 0.219277 0.104539
0.193202 0.219550 0.106595
0.196234 0.219824 0.108656
0.196647 0.219824 0.111002
0.199687 0.220099 0.113071
0.202735 0.220374 0.115144
0.203149 0.220374 0.117497
0.206205 0.220651 0.119579
0.209268 0.220927 0.121666
0.212339 0.221205 0.123758
0.215417 0.221483 0.125856
0.218504 0.221762 0.127959
0.221598 0.222042 0.130067
0.224700 0.222322 0.132181
0.227809 0.222603 0.134300
0.230927 0.222885 0.136424
0.234052 0.223167 0.138553
0.234472 0.223167 0.140935
0.234892 0.223167 0.143317
0.238027 0.223451 0.145458
0.238447 0.223451 0.147843
0.238868 0.223451 0.150228
0.239288 0.223451 0.152613
0.236992 0.223167 0.155226
0.237412 0.223167 0.157608
0.237832 0.223167 0.159990
0.238252 0.223167 0.162372
0.238672 0.223167 0.164754
0.239092 0.223167 0.167135
0.239512 0.223167 0.169517
0.239932 0.223167 0.171899
0.240352 0.223167 0.174281
0.240772 0.223167 0.176663
0.243914 0.223451 0.178846
0.244334 0.223451 0.181231
0.244755 0.223451 0.183616
0.245175 0.223451 0.186001
0.245596 0.223451 0.188385
0.246016 0.223451 0.190770
0.246437 0.223451 0.193155
0.249590 0.223735 0.195362
0.250011 0.223735 0.197750
0.250432 0.223735 0.200138
0.248119 0.223451 0.202695
0.248539 0.223451 0.205079
0.251695 0.223735 0.207301
0.252116 0.223735 0.209689
0.252537 0.223735 0.212077
0.252958 0.223735 0.214465
0.253379 0.223735 0.216853
0.253800 0.223735 0.219241
0.254221 0.223735 0.221629
0.254642 0.223735 0.224017
0.255063 0.223735 0.226404
0.255484 0.223735 0.228792
0.258653 0.224019 0.231047
0.259074 0.224019 0.233438
0.259496 0.224019 0.235829
0.259918 0.224019 0.238220
0.260339 0.224019 0.240611
0.260761 0.224019 0.243002
0.263940 0.224305 0.245278
0.264362 0.224305 0.247672
0.264784 0.224305 0.250066
0.265206 0.224305 0.252459
0.265628 0.224305 0.254853
0.266050 0.224305 0.257247
0.266473 0.224305 0.259641
0.264133 0.224019 0.262129
0.267317 0.224305 0.264429
0.270508 0.224591 0.266735
0.273708 0.224877 0.269047
0.279708 0.225453 0.271282
0.294201 0.226906 0.273289
0.314636 0.228971 0.275163
-0.401032 0.166320 -0.425347
-0.419179 0.164278 -0.414254
-0.430008 0.163045 -0.406884
-0.433834 0.162588 -0.403052
-0.437638 0.162133 -0.399240
-0.442780 0.161531 -0.394773
-0.446535 0.161082 -0.391009
-0.450269 0.160635 -0.387266
-0.453983 0.160191 -0.383544
-0.457676 0.159749 -0.379842
-0.461349 0.159310 -0.376160
-0.466316 0.158728 -0.371854
-0.467326 0.158584 -0.369498
-0.468333 0.158439 -0.367146
-0.470645 0.158151 -0.364163
-0.471646 0.158007 -0.361823
-0.473945 0.157720 -0.358857
-0.474942 0.157577 -0.356528
-0.477228 0.157292 -0.353580
-0.478219 0.157150 -0.351262
-0.479208 0.157008 -0.348947
-0.478909 0.157008 -0.347251
-0.479896 0.156866 -0.344943
-0.479598 0.156866 -0.343249
-0.480583 0.156725 -0.340946
-0.480285 0.156725 -0.339253
-0.481269 0.156584 -0.336956
-0.480971 0.156584 -0.335264
-0.481954 0.156443 -0.332973
-0.482935 0.156302 -0.330685
-0.482637 0.156302 -0.328997
-0.483617 0.156162 -0.326715
-0.483319 0.156162 -0.325028
-0.484298 0.156022 -0.322752
-0.485274 0.155882 -0.320479
-0.484977 0.155882 -0.318796
-0.485952 0.155742 -0.316529
-0.485655 0.155742 -0.314847
-0.485359 0.155742 -0.313165
-0.485062 0.155742 -0.311482
-0.486036 0.155603 -0.309224
-0.485740 0.155603 -0.307544
-0.485443 0.155603 -0.305863
-0.485147 0.155603 -0.304182
-0.486120 0.155463 -0.301933
-0.485824 0.155463 -0.300253
-0.485528 0.155463 -0.298574
-0.485232 0.155463 -0.296895
-0.486204 0.155324 -0.294654
-0.485908 0.155324 -0.292976
-0.484343 0.155463 -0.291858
-0.484047 0.155463 -0.290178
-0.483751 0.155463 -0.288499
-0.483455 0.155463 -0.286820
-0.481887 0.155603 -0.285695
-0.481591 0.155603 -0.284014
-0.481294 0.155603 -0.282334
-0.480998 0.155603 -0.280653
-0.479427 0.155742 -0.279521
-0.479130 0.155742 -0.277839
-0.478833 0.155742 -0.276157
-0.478537 0.155742 -0.274475
-0.478240 0.155742 -0.272793
-0.476664 0.155882 -0.271653
-0.475086 0.156022 -0.270511
-0.474789 0.156022 -0.268826
-0.473208 0.156162 -0.267681
-0.471623 0.156302 -0.266533
-0.471326 0.156302 -0.264845
-0.469738 0.156443 -0.263694
-0.469440 0.156443 -0.262005
-0.467850 0.156584 -0.260850
-0.466256 0.156725 -0.259693
-0.465958 0.156725 -0.258001
-0.464361 0.156866 -0.256841
-0.461459 0.157150 -0.256211
-0.459854 0.157292 -0.255046
-0.458246 0.157435 -0.253879
-0.456636 0.157577 -0.252710
-0.455022 0.157720 -0.251539
-0.453406 0.157864 -0.250366
-0.451786 0.158007 -0.249190
-0.450164 0.158151 -0.248013
-0.447212 0.158439 -0.247362
-0.445581 0.158584 -0.246180
-0.443947 0.158728 -0.244995
-0.442310 0.158874 -0.243808
-0.440670 0.159019 -0.242619
-0.436340 0.159456 -0.242484
-0.434689 0.159603 -0.241289
-0.431681 0.159896 -0.240620
-0.430021 0.160044 -0.239421
-0.428358 0.160191 -0.238219
-0.425328 0.160487 -0.237542
-0.422287 0.160784 -0.236863
-0.419235 0.161082 -0.236181
-0.416171 0.161381 -0.235497
-0.413096 0.161681 -0.234810
-0.408616 0.162133 -0.234650
-0.404112 0.162588 -0.234490
-0.399582 0.163045 -0.234328
-0.395026 0.163505 -0.234166
-0.393294 0.163659 -0.232933
-0.392983 0.163659 -0.231166
-0.394092 0.163505 -0.228868
-0.393781 0.163505 -0.227103
-0.393470 0.163505 -0.225337
-0.394578 0.163352 -0.223047
-0.394266 0.163352 -0.221283
-0.395373 0.163198 -0.219000
-0.395062 0.163198 -0.217237
-0.394751 0.163198 -0.215475
-0.395856 0.163045 -0.213199
-0.395545 0.163045 -0.211438
-0.395235 0.163045 -0.209677
-0.394924 0.163045 -0.207916
-0.396028 0.162893 -0.205649
-0.395718 0.162893 -0.203890
-0.395408 0.162893 -0.202131
-0.396510 0.162740 -0.199872
-0.396200 0.162740 -0.198114
-0.395890 0.162740 -0.196357
-0.395580 0.162740 -0.194599
-0.396681 0.162588 -0.192349
-0.396371 0.162588 -0.190593
-0.396062 0.162588 -0.188837
-0.395752 0.162588 -0.187081
-0.395443 0.162588 -0.185326
-0.395133 0.162588 -0.183570
-0.396233 0.162436 -0.181332
-0.395924 0.162436 -0.179578
-0.395615 0.162436 -0.177823
-0.395305 0.162436 -0.176069
-0.394996 0.162436 -0.174315
-0.396095 0.162284 -0.172088
-0.395786 0.162284 -0.170335
-0.395477 0.162284 -0.168582
-0.395168 0.162284 -0.166830
-0.394859 0.162284 -0.165077
-0.395958 0.162133 -0.162861
-0.395649 0.162133 -0.161110
-0.395340 0.162133 -0.159359
-0.395032 0.162133 -0.157608
-0.394723 0.162133 -0.155857
-0.394414 0.162133 -0.154106
-0.395512 0.161982 -0.151902
-0.393797 0.162133 -0.150604
-0.393488 0.162133 -0.148853
-0.393179 0.162133 -0.147102
-0.392870 0.162133 -0.145351
-0.392562 0.162133 -0.143600
-0.392253 0.162133 -0.141849
-0.391944 0.162133 -0.140098
-0.391635 0.162133 -0.138347
-0.391327 0.162133 -0.136596
-0.391018 0.162133 -0.134845
-0.392119 0.161982 -0.132659
-0.391811 0.161982 -0.130910
-0.391502 0.161982 -0.129160
-0.391194 0.161982 -0.127411
-0.390885 0.161982 -0.125662
-0.390577 0.161982 -0.123912
-0.390268 0.161982 -0.122163
-0.389960 0.161982 -0.120414
-0.389651 0.161982 -0.118664
-0.389343 0.161982 -0.116915
-0.389035 0.161982 -0.115166
-0.388726 0.161982 -0.113416
-0.388418 0.161982 -0.111667
-0.388109 0.161982 -0.109918
-0.387801 0.161982 -0.108168
-0.387492 0.161982 -0.106419
-0.387184 0.161982 -0.104670
-0.386875 0.161982 -0.102920
-0.386567 0.161982 -0.101171
-0.386258 0.161982 -0.099422
-0.385950 0.161982 -0.097672
-0.384226 0.162133 -0.096324
-0.383917 0.162133 -0.094573
-0.383608 0.162133 -0.092822
-0.383299 0.162133 -0.091071
-0.382991 0.162133 -0.089320
-0.382682 0.162133 -0.087569
-0.380953 0.162284 -0.086211
-0.380644 0.162284 -0.084458
-0.380335 0.162284 -0.082706
-0.380026 0.162284 -0.080953
-0.378293 0.162436 -0.079587
-0.377984 0.162436 -0.077833
-0.377674 0.162436 -0.076079
-0.375938 0.162588 -0.074707
-0.375628 0.162588 -0.072951
-0.375318 0.162588 -0.071195
-0.375009 0.162588 -0.069439
-0.373268 0.162740 -0.068060
-0.372958 0.162740 -0.066302
-0.372648 0.162740 -0.064545
-0.372338 0.162740 -0.062787
-0.372028 0.162740 -0.061030
-0.370283 0.162893 -0.059641
-0.369973 0.162893 -0.057882
-0.369663 0.162893 -0.056123
-0.369352 0.162893 -0.054364
-0.367603 0.163045 -0.052968
-0.368732 0.162893 -0.050846
-0.368422 0.162893 -0.049086
-0.366671 0.163045 -0.047686
-0.366361 0.163045 -0.045925
-0.366051 0.163045 -0.044164
-0.365740 0.163045 -0.042403
-0.363986 0.163198 -0.040995
-0.363675 0.163198 -0.039232
-0.363364 0.163198 -0.037470
-0.363053 0.163198 -0.035707
-0.361295 0.163352 -0.034291
-0.360984 0.163352 -0.032527
-0.360673 0.163352 -0.030763
-0.360362 0.163352 -0.028999
-0.358599 0.163505 -0.027575
-0.358287 0.163505 -0.025810
-0.356521 0.163659 -0.024382
-0.357665 0.163505 -0.022278
-0.355898 0.163659 -0.020847
-0.355586 0.163659 -0.019079
-0.353816 0.163813 -0.017644
-0.353504 0.163813 -0.015875
-0.351729 0.163968 -0.014435
-0.351417 0.163968 -0.012664
-0.349639 0.164123 -0.011219
-0.349327 0.164123 -0.009447
-0.347545 0.164278 -0.007998
-0.347233 0.164278 -0.006224
-0.345447 0.164433 -0.004771
-0.345134 0.164433 -0.002995
-0.343345 0.164589 -0.001538
-0.343032 0.164589 0.000240
-0.341240 0.164745 0.001702
-0.340926 0.164745 0.003481
-0.339130 0.164901 0.004947
-0.338816 0.164901 0.006728
-0.337016 0.165057 0.008199
-0.336702 0.165057 0.009982
-0.334898 0.165214 0.011457
-0.334584 0.165214 0.013241
-0.332776 0.165371 0.014721
-0.332461 0.165371 0.016507
-0.330650 0.165529 0.017991
-0.328836 0.165687 0.019479
-0.328520 0.165687 0.021268
-0.326702 0.165845 0.022760
-0.326386 0.165845 0.024551
-0.324564 0.166003 0.026047
-0.322739 0.166162 0.027546
-0.322423 0.166162 0.029340
-0.320593 0.166320 0.030844
-0.318761 0.166480 0.032351
-0.318444 0.166480 0.034149
-0.316607 0.166639 0.035660
-0.316290 0.166639 0.037459
-0.314450 0.166799 0.038975
-0.312606 0.166959 0.040494
-0.310758 0.167120 0.042015
-0.308908 0.167280 0.043540
-0.308589 0.167280 0.045346
-0.306734 0.167441 0.046876
-0.304876 0.167603 0.048408
-0.303014 0.167765 0.049943
-0.301148 0.167927 0.051481
-0.300829 0.167927 0.053294
-0.300509 0.167927 0.055107
-0.298639 0.168089 0.056652
-0.296766 0.168251 0.058199
-0.293330 0.168578 0.059483
-0.291446 0.168741 0.061038
-0.289558 0.168905 0.062596
-0.287667 0.169069 0.064156
-0.285772 0.169234 0.065720
-0.282294 0.169564 0.067026
-0.280389 0.169729 0.068597
-0.278479 0.169895 0.070171
-0.276566 0.170061 0.071748
-0.274649 0.170228 0.073329
-0.272729 0.170394 0.074912
-0.270805 0.170562 0.076499
-0.270480 0.170562 0.078340
-0.266945 0.170897 0.079681
-0.265009 0.171065 0.081277
-0.263070 0.171233 0.082876
-0.259506 0.171571 0.084231
-0.255929 0.171910 0.085591
-0.253971 0.172080 0.087202
-0.250372 0.172421 0.088572
-0.246758 0.172764 0.089948
-0.243130 0.173108 0.091329
-0.241146 0.173280 0.092957
-0.235831 0.173800 0.094107
-0.232160 0.174148 0.095505
-0.230153 0.174322 0.097147
-0.226459 0.174672 0.098555
-0.224440 0.174848 0.100205
-0.220724 0.175200 0.101623
-0.218693 0.175377 0.103281
-0.214954 0.175731 0.104710
-0.211200 0.176087 0.106144
-0.207431 0.176444 0.107585
-0.205372 0.176623 0.109260
-0.201580 0.176983 0.110711
-0.197771 0.177343 0.112168
-0.192200 0.177887 0.113405
-0.186593 0.178435 0.114648
-0.182723 0.178802 0.116125
-0.177059 0.179355 0.117384
-0.171360 0.179911 0.118650
-0.165626 0.180471 0.119924
-0.152567 0.181791 0.120312
-0.122444 0.184881 0.118653
0.163295 0.214496 0.086267
0.166252 0.214760 0.088277
0.169217 0.215026 0.090293
0.172189 0.215291 0.092313
0.175169 0.215558 0.094338
0.178156 0.215825 0.096368
0.178567 0.215825 0.098697
0.184152 0.216361 0.100444
0.184564 0.216361 0.102778
0.187573 0.216630 0.104827
0.190590 0.216900 0.106880
0.191003 0.216900 0.109220
0.194028 0.217171 0.111282
0.197061 0.217442 0.113348
0.200101 0.217714 0.115420
0.203149 0.217986 0.117497
0.206205 0.218259 0.119579
0.209268 0.218533 0.121666
0.212339 0.218808 0.123758
0.215417 0.219083 0.125856
0.218504 0.219359 0.127959
0.218921 0.219359 0.130326
0.222016 0.219635 0.132437
0.225118 0.219913 0.134553
0.228228 0.220191 0.136675
0.231346 0.220469 0.138803
0.231766 0.220469 0.141181
0.232185 0.220469 0.143560
0.232605 0.220469 0.145939
0.235732 0.220749 0.148081
0.236152 0.220749 0.150463
0.236572 0.220749 0.152844
0.234282 0.220469 0.155454
0.234702 0.220469 0.157833
0.235121 0.220469 0.160212
0.238252 0.220749 0.162372
0.238672 0.220749 0.164754
0.239092 0.220749 0.167135
0.239512 0.220749 0.169517
0.239932 0.220749 0.171899
0.240352 0.220749 0.174281
0.240772 0.220749 0.176663
0.241192 0.220749 0.179045
0.241612 0.220749 0.181426
0.242032 0.220749 0.183808
0.242452 0.220749 0.186190
0.242872 0.220749 0.188572
0.243292 0.220749 0.190954
0.243712 0.220749 0.193336
0.244132 0.220749 0.195717
0.244552 0.220749 0.198099
0.244972 0.220749 0.200481
0.248119 0.221029 0.202695
0.248539 0.221029 0.205079
0.248960 0.221029 0.207464
0.249380 0.221029 0.209849
0.249801 0.221029 0.212234
0.250221 0.221029 0.214619
0.250642 0.221029 0.217004
0.251062 0.221029 0.219389
0.251483 0.221029 0.221773
0.251904 0.221029 0.224158
0.255063 0.221310 0.226404
0.255484 0.221310 0.228792
0.255905 0.221310 0.231180
0.256326 0.221310 0.233568
0.256748 0.221310 0.235956
0.257169 0.221310 0.238344
0.260339 0.221591 0.240611
0.260761 0.221591 0.243002
0.261182 0.221591 0.245393
0.261604 0.221591 0.247784
0.262025 0.221591 0.250174
0.262447 0.221591 0.252565
0.262869 0.221591 0.254956
0.263290 0.221591 0.257347
0.263712 0.221591 0.259738
0.264133 0.221591 0.262129
0.264555 0.221591 0.264520
0.267739 0.221874 0.266823
0.270931 0.222157 0.269132
0.274131 0.222440 0.271447
0.285738 0.223582 0.273529
0.300308 0.225027 0.275555
-0.413860 0.163093 -0.418871
-0.426161 0.161712 -0.410739
-0.432767 0.160956 -0.405499
-0.436578 0.160505 -0.401677
-0.440368 0.160057 -0.397876
-0.445490 0.159463 -0.393422
-0.449231 0.159020 -0.389669
-0.452951 0.158580 -0.385937
-0.456650 0.158143 -0.382225
-0.460329 0.157708 -0.378533
-0.465305 0.157131 -0.374215
-0.466316 0.156988 -0.371854
-0.468635 0.156702 -0.368857
-0.470946 0.156416 -0.365871
-0.471947 0.156274 -0.363529
-0.474246 0.155991 -0.360561
-0.475242 0.155849 -0.358230
-0.477528 0.155567 -0.355279
-0.478518 0.155427 -0.352959
-0.479507 0.155286 -0.350643
-0.480494 0.155146 -0.348331
-0.480195 0.155146 -0.346637
-0.481180 0.155006 -0.344331
-0.480882 0.155006 -0.342638
-0.481866 0.154866 -0.340338
-0.481567 0.154866 -0.338647
-0.482550 0.154727 -0.336352
-0.482252 0.154727 -0.334662
-0.483233 0.154588 -0.332373
-0.484212 0.154449 -0.330088
-0.483914 0.154449 -0.328402
-0.484892 0.154310 -0.326122
-0.484595 0.154310 -0.324437
-0.485571 0.154172 -0.322163
-0.486545 0.154034 -0.319893
-0.486249 0.154034 -0.318211
-0.485952 0.154034 -0.316529
-0.485655 0.154034 -0.314847
-0.486629 0.153896 -0.312586
-0.486332 0.153896 -0.310905
-0.486036 0.153896 -0.309224
-0.485740 0.153896 -0.307544
-0.486712 0.153758 -0.305291
-0.486416 0.153758 -0.303612
-0.486120 0.153758 -0.301933
-0.485824 0.153758 -0.300253
-0.486795 0.153621 -0.298009
-0.486500 0.153621 -0.296332
-0.486204 0.153621 -0.294654
-0.485908 0.153621 -0.292976
-0.485612 0.153621 -0.291299
-0.485316 0.153621 -0.289621
-0.485021 0.153621 -0.287943
-0.484725 0.153621 -0.286265
-0.483159 0.153758 -0.285141
-0.482863 0.153758 -0.283462
-0.482567 0.153758 -0.281783
-0.480998 0.153896 -0.280653
-0.480702 0.153896 -0.278972
-0.480405 0.153896 -0.277292
-0.480109 0.153896 -0.275611
-0.479813 0.153896 -0.273930
-0.479516 0.153896 -0.272250
-0.477943 0.154034 -0.271110
-0.476368 0.154172 -0.269969
-0.476071 0.154172 -0.268286
-0.474492 0.154310 -0.267141
-0.474195 0.154310 -0.265456
-0.472613 0.154449 -0.264307
-0.471028 0.154588 -0.263157
-0.470730 0.154588 -0.261469
-0.469142 0.154727 -0.260315
-0.467552 0.154866 -0.259159
-0.465958 0.155006 -0.258001
-0.464361 0.155146 -0.256841
-0.462762 0.155286 -0.255678
-0.461160 0.155427 -0.254514
-0.459555 0.155567 -0.253348
-0.457947 0.155708 -0.252179
-0.456336 0.155849 -0.251008
-0.454722 0.155991 -0.249836
-0.451786 0.156274 -0.249190
-0.450164 0.156416 -0.248013
-0.448539 0.156559 -0.246833
-0.446910 0.156702 -0.245651
-0.445279 0.156844 -0.244467
-0.443645 0.156988 -0.243281
-0.440670 0.157275 -0.242619
-0.437685 0.157563 -0.241955
-0.434689 0.157853 -0.241289
-0.433034 0.157998 -0.240092
-0.431377 0.158143 -0.238893
-0.428358 0.158434 -0.238219
-0.425328 0.158727 -0.237542
-0.422287 0.159020 -0.236863
-0.419235 0.159315 -0.236181
-0.416171 0.159611 -0.235497
-0.413096 0.159908 -0.234810
-0.408616 0.160355 -0.234650
-0.404112 0.160805 -0.234490
-0.399582 0.161257 -0.234328
-0.393606 0.161865 -0.234700
-0.394715 0.161712 -0.232400
-0.394404 0.161712 -0.230634
-0.394092 0.161712 -0.228868
-0.395200 0.161560 -0.226576
-0.394889 0.161560 -0.224811
-0.394578 0.161560 -0.223047
-0.395683 0.161409 -0.220762
-0.395373 0.161409 -0.219000
-0.396477 0.161257 -0.216720
-0.396166 0.161257 -0.214960
-0.395856 0.161257 -0.213199
-0.395545 0.161257 -0.211438
-0.396648 0.161106 -0.209168
-0.396338 0.161106 -0.207409
-0.396028 0.161106 -0.205649
-0.395718 0.161106 -0.203890
-0.396820 0.160956 -0.201629
-0.396510 0.160956 -0.199872
-0.396200 0.160956 -0.198114
-0.397300 0.160805 -0.195861
-0.396991 0.160805 -0.194105
-0.396681 0.160805 -0.192349
-0.396371 0.160805 -0.190593
-0.396062 0.160805 -0.188837
-0.395752 0.160805 -0.187081
-0.396852 0.160655 -0.184840
-0.396543 0.160655 -0.183086
-0.396233 0.160655 -0.181332
-0.395924 0.160655 -0.179578
-0.395615 0.160655 -0.177823
-0.396713 0.160505 -0.175593
-0.396404 0.160505 -0.173840
-0.396095 0.160505 -0.172088
-0.395786 0.160505 -0.170335
-0.395477 0.160505 -0.168582
-0.396575 0.160355 -0.166363
-0.396267 0.160355 -0.164612
-0.395958 0.160355 -0.162861
-0.395649 0.160355 -0.161110
-0.395340 0.160355 -0.159359
-0.395032 0.160355 -0.157608
-0.396129 0.160206 -0.155400
-0.395821 0.160206 -0.153651
-0.395512 0.160206 -0.151902
