ply
format ascii 1.0
element vertex 1694
property float x
property float y
property float z
end_header
0.186605 0.292911 -0.086861
0.188384 0.292911 -0.085909
0.190912 0.291535 -0.086069
0.191942 0.292911 -0.084004
0.193721 0.292911 -0.083052
0.195501 0.292911 -0.082099
0.198036 0.291535 -0.082256
0.199817 0.291535 -0.081302
0.201598 0.291535 -0.080349
0.203380 0.291535 -0.079396
0.205161 0.291535 -0.078442
0.206942 0.291535 -0.077489
0.208723 0.291535 -0.076536
0.211275 0.290156 -0.076686
0.213058 0.290156 -0.075732
0.214841 0.290156 -0.074777
0.216624 0.290156 -0.073823
0.218407 0.290156 -0.072869
0.220190 0.290156 -0.071915
0.221973 0.290156 -0.070960
0.223756 0.290156 -0.070006
0.225539 0.290156 -0.069052
0.228112 0.288775 -0.069194
0.229897 0.288775 -0.068239
0.231681 0.288775 -0.067284
0.233466 0.288775 -0.066328
0.235251 0.288775 -0.065373
0.237837 0.287390 -0.065512
0.239624 0.287390 -0.064555
0.241410 0.287390 -0.063599
0.243197 0.287390 -0.062643
0.244984 0.287390 -0.061686
0.246771 0.287390 -0.060730
0.249371 0.286003 -0.060864
0.251160 0.286003 -0.059907
0.252949 0.286003 -0.058949
0.255559 0.284612 -0.059082
0.256526 0.286003 -0.057035
0.259140 0.284612 -0.057165
0.260930 0.284612 -0.056207
0.262721 0.284612 -0.055248
0.264511 0.284612 -0.054290
0.267136 0.283219 -0.054418
0.268929 0.283219 -0.053458
0.270721 0.283219 -0.052499
0.273356 0.281822 -0.052624
0.275150 0.281822 -0.051664
0.277792 0.280423 -0.051789
0.279589 0.280423 -0.050828
0.281385 0.280423 -0.049866
0.284036 0.279021 -0.049989
0.285834 0.279021 -0.049027
0.287633 0.279021 -0.048065
0.290294 0.277615 -0.048186
0.292094 0.277615 -0.047222
0.293894 0.277615 -0.046259
0.296564 0.276207 -0.046379
0.298366 0.276207 -0.045414
0.300168 0.276207 -0.044450
0.301970 0.276207 -0.043485
0.304652 0.274796 -0.043602
0.306456 0.274796 -0.042636
0.308260 0.274796 -0.041671
0.310952 0.273381 -0.041786
0.312758 0.273381 -0.040819
0.314564 0.273381 -0.039853
0.317265 0.271964 -0.039966
0.319073 0.271964 -0.038998
0.320881 0.271964 -0.038030
0.323591 0.270543 -0.038142
0.325401 0.270543 -0.037173
0.327211 0.270543 -0.036204
0.329932 0.269120 -0.036314
0.331743 0.269120 -0.035344
0.334472 0.267693 -0.035453
0.336285 0.267693 -0.034482
0.339022 0.266264 -0.034590
0.340837 0.266264 -0.033618
0.343581 0.264831 -0.033725
0.345399 0.264831 -0.032752
0.347217 0.264831 -0.031780
0.349970 0.263395 -0.031885
0.351790 0.263395 -0.030911
0.353609 0.263395 -0.029937
0.356373 0.261956 -0.030040
0.358195 0.261956 -0.029065
0.360967 0.260514 -0.029168
0.363744 0.259069 -0.029270
0.325362 0.319830 0.017014
0.325360 0.322461 0.019906
0.326227 0.323773 0.021813
0.326223 0.326387 0.024686
0.326219 0.328991 0.027548
0.327082 0.330289 0.029437
0.327076 0.332877 0.032281
0.327070 0.335454 0.035112
0.327065 0.338021 0.037933
0.327920 0.339301 0.039798
0.327913 0.341852 0.042600
0.328764 0.343124 0.044454
0.330475 0.343124 0.045370
0.332186 0.343124 0.046286
0.333032 0.344393 0.048135
0.334741 0.344393 0.049049
0.335584 0.345660 0.050894
0.337291 0.345660 0.051807
0.338131 0.346924 0.053647
0.339836 0.346924 0.054560
0.340673 0.348185 0.056395
0.342376 0.348185 0.057307
0.343209 0.349444 0.059137
0.344911 0.349444 0.060048
0.345741 0.350701 0.061874
0.347441 0.350701 0.062784
0.348267 0.351955 0.064605
0.349966 0.351955 0.065514
0.351664 0.351955 0.066423
0.353363 0.351955 0.067333
0.355061 0.351955 0.068242
0.355879 0.353206 0.070056
0.357576 0.353206 0.070964
0.359273 0.353206 0.071872
0.360969 0.353206 0.072780
0.362666 0.353206 0.073688
0.363475 0.354455 0.075495
0.366060 0.353206 0.075505
0.367757 0.353206 0.076413
0.369454 0.353206 0.077321
0.371151 0.353206 0.078230
0.372848 0.353206 0.079138
0.375444 0.351955 0.079151
0.377143 0.351955 0.080061
0.379747 0.350701 0.080075
0.381447 0.350701 0.080985
0.383147 0.350701 0.081895
0.384847 0.350701 0.082805
0.387462 0.349444 0.082822
0.389164 0.349444 0.083733
0.390866 0.349444 0.084644
0.392568 0.349444 0.085555
0.394270 0.349444 0.086466
0.396896 0.348185 0.086487
0.399527 0.346924 0.086508
0.402164 0.345660 0.086529
0.404806 0.344393 0.086551
0.406515 0.344393 0.087465
0.409165 0.343124 0.087487
0.411819 0.341852 0.087509
0.414479 0.340578 0.087532
0.416194 0.340578 0.088449
0.418861 0.339301 0.088472
0.421533 0.338021 0.088495
0.424212 0.336739 0.088519
0.425931 0.336739 0.089439
0.428616 0.335454 0.089463
0.432279 0.332877 0.088589
0.435956 0.330289 0.087711
0.440634 0.326387 0.085923
0.445341 0.322461 0.084124
0.449076 0.319830 0.083230
0.453833 0.315863 0.081413
0.458621 0.311872 0.079585
0.462414 0.309197 0.078674
0.466224 0.306511 0.077759
0.471085 0.302461 0.075906
-0.330289 0.228295 -0.431290
-0.329887 0.238803 -0.419543
-0.328454 0.241776 -0.415514
-0.326817 0.243257 -0.413012
-0.325184 0.244735 -0.410516
-0.323767 0.247682 -0.406523
-0.322143 0.249150 -0.404042
-0.320522 0.250616 -0.401566
-0.318904 0.252078 -0.399096
-0.317290 0.253537 -0.396631
-0.315679 0.254993 -0.394171
-0.314072 0.256446 -0.391717
-0.312468 0.257895 -0.389268
-0.311093 0.260785 -0.385360
-0.309498 0.262225 -0.382926
-0.307906 0.263662 -0.380497
-0.306318 0.265096 -0.378073
-0.304733 0.266527 -0.375654
-0.303383 0.269379 -0.371801
-0.302271 0.273635 -0.366536
-0.300933 0.276457 -0.362723
-0.299601 0.279267 -0.358926
-0.298040 0.280668 -0.356553
-0.296483 0.282066 -0.354186
-0.294928 0.283460 -0.351823
-0.293377 0.284852 -0.349466
-0.291830 0.286241 -0.347114
-0.290285 0.287626 -0.344766
-0.288744 0.289009 -0.342424
-0.287206 0.290389 -0.340086
-0.285671 0.291766 -0.337753
-0.284140 0.293140 -0.335426
-0.282612 0.294512 -0.333103
-0.281087 0.295880 -0.330785
-0.279565 0.297246 -0.328472
-0.277793 0.297246 -0.327524
-0.276276 0.298608 -0.325217
-0.274763 0.299968 -0.322914
-0.273252 0.301325 -0.320617
-0.271745 0.302679 -0.318324
-0.270241 0.304030 -0.316036
-0.268740 0.305378 -0.313753
-0.266979 0.305378 -0.312810
-0.265483 0.306724 -0.310533
-0.263990 0.308067 -0.308260
-0.262501 0.309407 -0.305992
-0.261014 0.310744 -0.303729
-0.259530 0.312079 -0.301471
-0.258050 0.313410 -0.299217
-0.256572 0.314739 -0.296968
-0.255098 0.316065 -0.294723
-0.253352 0.316065 -0.293789
-0.251882 0.317389 -0.291550
-0.250416 0.318709 -0.289315
-0.248952 0.320027 -0.287086
-0.247492 0.321343 -0.284861
-0.246035 0.322655 -0.282640
-0.244580 0.323965 -0.280424
-0.242845 0.323965 -0.279495
-0.241395 0.325272 -0.277285
-0.239948 0.326577 -0.275079
-0.238505 0.327878 -0.272878
-0.237064 0.329177 -0.270681
-0.235626 0.330474 -0.268489
-0.234191 0.331768 -0.266301
-0.232759 0.333059 -0.264117
-0.231330 0.334347 -0.261938
-0.229904 0.335633 -0.259764
-0.228481 0.336917 -0.257594
-0.227061 0.338197 -0.255428
-0.225345 0.338197 -0.254510
-0.223929 0.339475 -0.252349
-0.222516 0.340751 -0.250194
-0.221106 0.342024 -0.248042
-0.219396 0.342024 -0.247126
-0.217990 0.343294 -0.244980
-0.216588 0.344562 -0.242838
-0.215188 0.345827 -0.240701
-0.213483 0.345827 -0.239788
-0.212088 0.347089 -0.237656
-0.210695 0.348349 -0.235527
-0.209306 0.349607 -0.233404
-0.207919 0.350862 -0.231284
-0.206535 0.352114 -0.229169
-0.205154 0.353364 -0.227058
-0.203776 0.354612 -0.224951
-0.202400 0.355857 -0.222849
-0.200708 0.355857 -0.221943
-0.199657 0.358339 -0.218656
-0.197969 0.358339 -0.217753
-0.196280 0.358339 -0.216849
-0.194916 0.359577 -0.214761
-0.193230 0.359577 -0.213858
-0.191543 0.359577 -0.212955
-0.190185 0.360812 -0.210873
-0.188500 0.360812 -0.209972
-0.186815 0.360812 -0.209070
-0.185463 0.362044 -0.206993
-0.183780 0.362044 -0.206092
-0.182433 0.363274 -0.204021
-0.180751 0.363274 -0.203121
-0.179069 0.363274 -0.202221
-0.177728 0.364502 -0.200156
-0.176048 0.364502 -0.199257
-0.174711 0.365727 -0.197197
-0.173033 0.365727 -0.196298
-0.172045 0.368170 -0.193089
-0.170716 0.369388 -0.191041
-0.169042 0.369388 -0.190145
-0.167369 0.369388 -0.189249
-0.166046 0.370604 -0.187207
-0.164374 0.370604 -0.186313
-0.162703 0.370604 -0.185418
-0.161385 0.371817 -0.183382
-0.159715 0.371817 -0.182488
-0.158402 0.373027 -0.180456
-0.156734 0.373027 -0.179563
-0.155066 0.373027 -0.178670
-0.153759 0.374236 -0.176645
-0.152092 0.374236 -0.175753
-0.150789 0.375441 -0.173732
-0.149124 0.375441 -0.172841
-0.147459 0.375441 -0.171950
-0.146162 0.376645 -0.169935
-0.144499 0.376645 -0.169044
-0.142835 0.376645 -0.168154
-0.141172 0.376645 -0.167264
-0.139508 0.376645 -0.166373
-0.137845 0.376645 -0.165483
-0.136182 0.376645 -0.164593
-0.134518 0.376645 -0.163703
-0.132855 0.376645 -0.162812
-0.131573 0.377846 -0.160808
-0.129912 0.377846 -0.159919
-0.128250 0.377846 -0.159029
-0.126201 0.376645 -0.159251
-0.124538 0.376645 -0.158361
-0.122874 0.376645 -0.157470
-0.121211 0.376645 -0.156580
-0.119548 0.376645 -0.155690
-0.117884 0.376645 -0.154799
-0.116221 0.376645 -0.153909
-0.114557 0.376645 -0.153019
-0.112894 0.376645 -0.152128
-0.111231 0.376645 -0.151238
-0.109567 0.376645 -0.150348
-0.107904 0.376645 -0.149458
-0.106240 0.376645 -0.148567
-0.104577 0.376645 -0.147677
-0.102913 0.376645 -0.146787
-0.101250 0.376645 -0.145896
-0.099587 0.376645 -0.145006
-0.097508 0.375441 -0.145214
-0.095843 0.375441 -0.144323
-0.094596 0.376645 -0.142335
-0.092933 0.376645 -0.141445
-0.091270 0.376645 -0.140554
-0.089606 0.376645 -0.139664
-0.087943 0.376645 -0.138774
-0.086279 0.376645 -0.137884
-0.084187 0.375441 -0.138084
-0.082522 0.375441 -0.137193
-0.080857 0.375441 -0.136302
-0.079192 0.375441 -0.135411
-0.077527 0.375441 -0.134520
-0.075862 0.375441 -0.133629
-0.074197 0.375441 -0.132737
-0.072532 0.375441 -0.131846
-0.070867 0.375441 -0.130955
-0.069645 0.376645 -0.128980
-0.067982 0.376645 -0.128090
-0.066319 0.376645 -0.127200
-0.064655 0.376645 -0.126309
-0.062542 0.375441 -0.126499
-0.060877 0.375441 -0.125608
-0.059211 0.375441 -0.124717
-0.057546 0.375441 -0.123825
-0.055881 0.375441 -0.122934
-0.054216 0.375441 -0.122043
-0.052090 0.374236 -0.122229
-0.050424 0.374236 -0.121336
-0.048757 0.374236 -0.120444
-0.047090 0.374236 -0.119552
-0.044955 0.373027 -0.119736
-0.043287 0.373027 -0.118843
-0.041618 0.373027 -0.117950
-0.039950 0.373027 -0.117057
-0.037806 0.371817 -0.117238
-0.036136 0.371817 -0.116344
-0.034466 0.371817 -0.115450
-0.032796 0.371817 -0.114556
-0.030642 0.370604 -0.114735
-0.028971 0.370604 -0.113840
-0.027299 0.370604 -0.112945
-0.025627 0.370604 -0.112051
-0.023465 0.369388 -0.112227
-0.021297 0.368170 -0.112404
-0.018629 0.365727 -0.113656
-0.016950 0.365727 -0.112758
-0.014770 0.364502 -0.112936
-0.012586 0.363274 -0.113114
-0.010904 0.363274 -0.112214
-0.008714 0.362044 -0.112391
-0.007031 0.362044 -0.111490
-0.004834 0.360812 -0.111667
-0.002633 0.359577 -0.111845
-0.000947 0.359577 -0.110942
0.001260 0.358339 -0.111119
0.003472 0.357099 -0.111296
0.005162 0.357099 -0.110391
0.007379 0.355857 -0.110568
0.009071 0.355857 -0.109662
0.011295 0.354612 -0.109839
0.013523 0.353364 -0.110015
0.015218 0.353364 -0.109108
0.017452 0.352114 -0.109283
0.019691 0.350862 -0.109460
0.021935 0.349607 -0.109636
0.024182 0.348349 -0.109813
0.025884 0.348349 -0.108902
0.028139 0.347089 -0.109078
0.030397 0.345827 -0.109255
0.032661 0.344562 -0.109432
0.034368 0.344562 -0.108519
0.036637 0.343294 -0.108695
0.038911 0.342024 -0.108872
0.041190 0.340751 -0.109049
0.042903 0.340751 -0.108133
0.045188 0.339475 -0.108309
0.047478 0.338197 -0.108486
0.049772 0.336917 -0.108664
0.052071 0.335633 -0.108841
0.054375 0.334347 -0.109019
0.056096 0.334347 -0.108098
0.058407 0.333059 -0.108276
0.060722 0.331768 -0.108454
0.063041 0.330474 -0.108632
0.065366 0.329177 -0.108810
0.067094 0.329177 -0.107885
0.069425 0.327878 -0.108063
0.071761 0.326577 -0.108242
0.074102 0.325272 -0.108421
0.075835 0.325272 -0.107493
0.078182 0.323965 -0.107671
0.080535 0.322655 -0.107849
0.082892 0.321343 -0.108028
0.085253 0.320027 -0.108208
0.088247 0.317389 -0.109501
0.089992 0.317389 -0.108567
0.092368 0.316065 -0.108748
0.094749 0.314739 -0.108929
0.097776 0.312079 -0.110229
0.100170 0.310744 -0.110411
0.102570 0.309407 -0.110595
0.104974 0.308067 -0.110778
0.107383 0.306724 -0.110962
0.109798 0.305378 -0.111147
0.112218 0.304030 -0.111332
0.114642 0.302679 -0.111517
0.117739 0.299968 -0.112834
0.120848 0.297246 -0.114158
0.123294 0.295880 -0.114347
0.126425 0.293140 -0.115678
0.128203 0.293140 -0.114726
0.129980 0.293140 -0.113775
0.131757 0.293140 -0.112824
0.132848 0.294512 -0.110735
0.134623 0.294512 -0.109785
0.136399 0.294512 -0.108835
0.138174 0.294512 -0.107884
0.139950 0.294512 -0.106934
0.142421 0.293140 -0.107116
0.144199 0.293140 -0.106165
0.145976 0.293140 -0.105213
0.147753 0.293140 -0.104262
0.149531 0.293140 -0.103311
0.151308 0.293140 -0.102360
0.153085 0.293140 -0.101408
0.154863 0.293140 -0.100457
0.156640 0.293140 -0.099506
0.158417 0.293140 -0.098554
0.160195 0.293140 -0.097603
0.161972 0.293140 -0.096652
0.163750 0.293140 -0.095701
0.165527 0.293140 -0.094749
0.167304 0.293140 -0.093798
0.169082 0.293140 -0.092847
0.170859 0.293140 -0.091895
0.172636 0.293140 -0.090944
0.175145 0.291766 -0.091109
0.176924 0.291766 -0.090157
0.178703 0.291766 -0.089205
0.180483 0.291766 -0.088252
0.182262 0.291766 -0.087300
0.184041 0.291766 -0.086348
0.185820 0.291766 -0.085396
0.187599 0.291766 -0.084443
0.189379 0.291766 -0.083491
0.191158 0.291766 -0.082539
0.192937 0.291766 -0.081586
0.194716 0.291766 -0.080634
0.196496 0.291766 -0.079682
0.198275 0.291766 -0.078729
0.200813 0.290389 -0.078882
0.202594 0.290389 -0.077929
0.204375 0.290389 -0.076975
0.206157 0.290389 -0.076022
0.207938 0.290389 -0.075069
0.209719 0.290389 -0.074115
0.211500 0.290389 -0.073162
0.214055 0.289009 -0.073309
0.215838 0.289009 -0.072355
0.217621 0.289009 -0.071400
0.219404 0.289009 -0.070446
0.221187 0.289009 -0.069492
0.222970 0.289009 -0.068537
0.224753 0.289009 -0.067583
0.226536 0.289009 -0.066629
0.228319 0.289009 -0.065674
0.230895 0.287626 -0.065814
0.232679 0.287626 -0.064858
0.234464 0.287626 -0.063903
0.236249 0.287626 -0.062948
0.238034 0.287626 -0.061992
0.239819 0.287626 -0.061037
0.241604 0.287626 -0.060082
0.244196 0.286241 -0.060215
0.245983 0.286241 -0.059258
0.247770 0.286241 -0.058302
0.249556 0.286241 -0.057346
0.252160 0.284852 -0.057476
0.253949 0.284852 -0.056519
0.255737 0.284852 -0.055562
0.257526 0.284852 -0.054604
0.260141 0.283460 -0.054732
0.261931 0.283460 -0.053774
0.263722 0.283460 -0.052815
0.265513 0.283460 -0.051857
0.268139 0.282066 -0.051982
0.269931 0.282066 -0.051022
0.272565 0.280668 -0.051147
0.274359 0.280668 -0.050186
0.276154 0.280668 -0.049226
0.278797 0.279267 -0.049348
0.280593 0.279267 -0.048387
0.282389 0.279267 -0.047425
0.285042 0.277864 -0.047546
0.286840 0.277864 -0.046583
0.289500 0.276457 -0.046703
0.291300 0.276457 -0.045740
0.293100 0.276457 -0.044776
0.294900 0.276457 -0.043813
0.297572 0.275048 -0.043930
0.299374 0.275048 -0.042965
0.301176 0.275048 -0.042001
0.303857 0.273635 -0.042116
0.305661 0.273635 -0.041150
0.307465 0.273635 -0.040185
0.309269 0.273635 -0.039219
0.311962 0.272220 -0.039332
0.313768 0.272220 -0.038365
0.315573 0.272220 -0.037399
0.318276 0.270801 -0.037509
0.320084 0.270801 -0.036541
0.321891 0.270801 -0.035574
0.324603 0.269379 -0.035682
0.326413 0.269379 -0.034714
0.328223 0.269379 -0.033745
0.330945 0.267955 -0.033852
0.332756 0.267955 -0.032882
0.334568 0.267955 -0.031913
0.337300 0.266527 -0.032018
0.339113 0.266527 -0.031047
0.341853 0.265096 -0.031151
0.343668 0.265096 -0.030179
0.346415 0.263662 -0.030283
0.348233 0.263662 -0.029310
0.350988 0.262225 -0.029412
0.352807 0.262225 -0.028438
0.354627 0.262225 -0.027464
0.356446 0.262225 -0.026491
0.322848 0.316065 0.014613
0.322851 0.318709 0.017516
0.322854 0.321343 0.020408
0.323724 0.322655 0.022314
0.323726 0.325272 0.025186
0.323727 0.327878 0.028047
0.323728 0.330474 0.030896
0.324591 0.331768 0.032778
0.324591 0.334347 0.035609
0.324590 0.336917 0.038428
0.325448 0.338197 0.040293
0.326304 0.339475 0.042153
0.327158 0.340751 0.044010
0.328010 0.342024 0.045863
0.328861 0.343294 0.047713
0.329710 0.344562 0.049558
0.331417 0.344562 0.050472
0.333124 0.344562 0.051386
0.333968 0.345827 0.053226
0.335674 0.345827 0.054139
0.336514 0.347089 0.055974
0.338218 0.347089 0.056886
0.339922 0.347089 0.057798
0.340757 0.348349 0.059628
0.342459 0.348349 0.060539
0.343291 0.349607 0.062364
0.344121 0.350862 0.064186
0.345820 0.350862 0.065095
0.347518 0.350862 0.066004
0.349217 0.350862 0.066913
0.350040 0.352114 0.068729
0.351737 0.352114 0.069637
0.353434 0.352114 0.070545
0.355131 0.352114 0.071453
0.355947 0.353364 0.073262
0.357643 0.353364 0.074169
0.359338 0.353364 0.075077
0.360149 0.354612 0.076880
0.361843 0.354612 0.077786
0.364423 0.353364 0.077799
0.365230 0.354612 0.079599
0.367814 0.353364 0.079613
0.369509 0.353364 0.080521
0.371204 0.353364 0.081428
0.372899 0.353364 0.082335
0.375493 0.352114 0.082352
0.377190 0.352114 0.083260
0.378887 0.352114 0.084168
0.381490 0.350862 0.084187
0.383188 0.350862 0.085096
0.384887 0.350862 0.086005
0.386586 0.350862 0.086914
0.388284 0.350862 0.087824
0.390899 0.349607 0.087846
0.392599 0.349607 0.088756
0.394300 0.349607 0.089666
0.396000 0.349607 0.090576
0.398625 0.348349 0.090601
0.401256 0.347089 0.090626
0.403892 0.345827 0.090652
0.405597 0.345827 0.091564
0.408240 0.344562 0.091591
0.410889 0.343294 0.091617
0.413542 0.342024 0.091643
0.416202 0.340751 0.091669
0.417914 0.340751 0.092586
0.420580 0.339475 0.092613
0.423252 0.338197 0.092641
0.424968 0.338197 0.093559
0.428612 0.335633 0.092696
0.432270 0.333059 0.091829
0.435944 0.330474 0.090958
0.440617 0.326577 0.089182
0.445319 0.322655 0.087395
0.449050 0.320027 0.086508
0.453803 0.316065 0.084704
0.458585 0.312079 0.082888
0.462374 0.309407 0.081985
0.467208 0.305378 0.080151
0.474152 0.298608 0.076438
-0.332555 0.237612 -0.419009
-0.330910 0.239101 -0.416498
-0.329476 0.242070 -0.412480
-0.327840 0.243549 -0.409984
-0.326418 0.246499 -0.405993
-0.324790 0.247969 -0.403512
-0.323166 0.249435 -0.401037
-0.321545 0.250899 -0.398567
-0.319928 0.252359 -0.396103
-0.318315 0.253816 -0.393644
-0.316705 0.255270 -0.391190
-0.315099 0.256721 -0.388741
-0.313496 0.258169 -0.386298
-0.311896 0.259613 -0.383860
-0.310525 0.262493 -0.379973
-0.308934 0.263928 -0.377550
-0.307346 0.265360 -0.375131
-0.305990 0.268215 -0.371280
-0.305099 0.273889 -0.364590
-0.303527 0.275300 -0.362203
-0.302189 0.278112 -0.358408
-0.300626 0.279514 -0.356036
-0.299065 0.280913 -0.353669
-0.297508 0.282309 -0.351307
-0.295955 0.283702 -0.348950
-0.294404 0.285091 -0.346598
-0.292857 0.286478 -0.344251
-0.291313 0.287862 -0.341909
-0.289772 0.289244 -0.339572
-0.288235 0.290622 -0.337240
-0.286701 0.291997 -0.334913
-0.285170 0.293370 -0.332591
-0.283394 0.293370 -0.331641
-0.281869 0.294739 -0.329324
-0.280346 0.296106 -0.327013
-0.278826 0.297470 -0.324706
-0.277310 0.298831 -0.322404
-0.275797 0.300189 -0.320107
-0.274287 0.301544 -0.317815
-0.272780 0.302896 -0.315528
-0.271277 0.304246 -0.313245
-0.269516 0.304246 -0.312303
-0.268018 0.305593 -0.310026
-0.266522 0.306937 -0.307754
-0.265030 0.308278 -0.305486
-0.263540 0.309616 -0.303223
-0.262054 0.310952 -0.300966
-0.260571 0.312285 -0.298712
-0.258821 0.312285 -0.297776
-0.257343 0.313615 -0.295528
-0.255868 0.314942 -0.293285
-0.254396 0.316267 -0.291047
-0.252927 0.317589 -0.288813
-0.251460 0.318908 -0.286584
-0.249997 0.320224 -0.284359
-0.248537 0.321538 -0.282139
-0.247080 0.322849 -0.279924
-0.245345 0.322849 -0.278995
-0.243893 0.324157 -0.276785
-0.242444 0.325463 -0.274580
-0.240997 0.326766 -0.272379
-0.239554 0.328066 -0.270183
-0.238114 0.329363 -0.267991
-0.236676 0.330658 -0.265803
-0.235242 0.331951 -0.263620
-0.233810 0.333240 -0.261442
-0.232382 0.334527 -0.259268
-0.230956 0.335812 -0.257099
-0.229238 0.335812 -0.256179
-0.227817 0.337093 -0.254015
-0.226399 0.338373 -0.251855
-0.224984 0.339649 -0.249700
-0.223571 0.340923 -0.247549
-0.221860 0.340923 -0.246633
-0.220453 0.342195 -0.244487
-0.219048 0.343464 -0.242346
-0.217340 0.343464 -0.241432
-0.215940 0.344730 -0.239296
-0.214542 0.345994 -0.237164
-0.213148 0.347255 -0.235037
-0.211756 0.348513 -0.232913
-0.210367 0.349769 -0.230794
-0.209292 0.352274 -0.227476
-0.207597 0.352274 -0.226569
-0.206216 0.353523 -0.224463
-0.204838 0.354769 -0.222361
-0.203462 0.356012 -0.220263
-0.202090 0.357253 -0.218170
-0.200402 0.357253 -0.217266
-0.199033 0.358492 -0.215177
-0.197347 0.358492 -0.214275
-0.195660 0.358492 -0.213372
-0.194298 0.359728 -0.211289
-0.192613 0.359728 -0.210387
-0.190928 0.359728 -0.209486
-0.189572 0.360961 -0.207409
-0.187889 0.360961 -0.206508
-0.186205 0.360961 -0.205607
-0.184856 0.362193 -0.203536
-0.183174 0.362193 -0.202636
-0.181828 0.363421 -0.200571
-0.180149 0.363421 -0.199672
-0.178469 0.363421 -0.198772
-0.177129 0.364648 -0.196713
-0.175451 0.364648 -0.195814
-0.174458 0.367093 -0.192606
-0.173127 0.368312 -0.190558
-0.171453 0.368312 -0.189662
-0.170126 0.369528 -0.187620
-0.168454 0.369528 -0.186725
-0.166783 0.369528 -0.185830
-0.165462 0.370742 -0.183794
-0.163792 0.370742 -0.182900
-0.162122 0.370742 -0.182006
-0.160806 0.371954 -0.179975
-0.159138 0.371954 -0.179082
-0.157827 0.373163 -0.177056
-0.156160 0.373163 -0.176164
-0.154493 0.373163 -0.175272
-0.153188 0.374370 -0.173252
-0.151523 0.374370 -0.172361
-0.150222 0.375575 -0.170345
-0.148193 0.374370 -0.170578
-0.146895 0.375575 -0.168565
-0.145232 0.375575 -0.167674
-0.143569 0.375575 -0.166784
-0.141905 0.375575 -0.165894
-0.140615 0.376777 -0.163887
-0.138953 0.376777 -0.162997
-0.137291 0.376777 -0.162108
-0.135630 0.376777 -0.161218
-0.133968 0.376777 -0.160329
-0.132306 0.376777 -0.159440
-0.130644 0.376777 -0.158550
-0.128983 0.376777 -0.157661
-0.127321 0.376777 -0.156771
-0.125659 0.376777 -0.155882
-0.123997 0.376777 -0.154992
-0.122335 0.376777 -0.154103
-0.120674 0.376777 -0.153213
-0.118617 0.375575 -0.153429
-0.116954 0.375575 -0.152539
-0.115291 0.375575 -0.151649
-0.113627 0.375575 -0.150758
-0.111964 0.375575 -0.149868
-0.110300 0.375575 -0.148978
-0.108637 0.375575 -0.148088
-0.106974 0.375575 -0.147197
-0.105310 0.375575 -0.146307
-0.103647 0.375575 -0.145417
-0.101983 0.375575 -0.144526
-0.100320 0.375575 -0.143636
-0.098657 0.375575 -0.142746
-0.096993 0.375575 -0.141855
-0.095747 0.376777 -0.139872
-0.094085 0.376777 -0.138983
-0.092003 0.375575 -0.139184
-0.090340 0.375575 -0.138294
-0.088676 0.375575 -0.137404
-0.087013 0.375575 -0.136513
-0.085349 0.375575 -0.135623
-0.083686 0.375575 -0.134733
-0.082022 0.375575 -0.133843
-0.080359 0.375575 -0.132952
-0.078696 0.375575 -0.132062
-0.077032 0.375575 -0.131172
-0.075369 0.375575 -0.130281
-0.073705 0.375575 -0.129391
-0.072042 0.375575 -0.128501
-0.070379 0.375575 -0.127610
-0.068715 0.375575 -0.126720
-0.067052 0.375575 -0.125830
-0.065388 0.375575 -0.124939
-0.063725 0.375575 -0.124049
-0.062062 0.375575 -0.123159
-0.060398 0.375575 -0.122269
-0.058735 0.375575 -0.121378
-0.056615 0.374370 -0.121563
-0.054950 0.374370 -0.120672
-0.053285 0.374370 -0.119780
-0.051158 0.373163 -0.119964
-0.049492 0.373163 -0.119072
-0.047825 0.373163 -0.118180
-0.046158 0.373163 -0.117287
-0.044022 0.371954 -0.117468
-0.042354 0.371954 -0.116576
-0.040686 0.371954 -0.115683
-0.039017 0.371954 -0.114790
-0.037349 0.371954 -0.113897
-0.035202 0.370742 -0.114075
-0.033532 0.370742 -0.113181
-0.031862 0.370742 -0.112287
-0.030192 0.370742 -0.111393
-0.028036 0.369528 -0.111568
-0.026364 0.369528 -0.110674
-0.024202 0.368312 -0.110849
-0.022036 0.367093 -0.111024
-0.019369 0.364648 -0.112274
-0.017690 0.364648 -0.111376
-0.015511 0.363421 -0.111552
-0.013831 0.363421 -0.110653
-0.011646 0.362193 -0.110829
-0.009456 0.360961 -0.111005
-0.007773 0.360961 -0.110104
-0.005577 0.359728 -0.110280
-0.003892 0.359728 -0.109378
-0.001690 0.358492 -0.109553
0.000516 0.357253 -0.109728
0.002204 0.357253 -0.108824
0.004417 0.356012 -0.108999
0.006634 0.354769 -0.109175
0.008325 0.354769 -0.108269
0.010548 0.353523 -0.108444
0.012776 0.352274 -0.108619
0.014471 0.352274 -0.107711
0.016704 0.351023 -0.107886
0.018401 0.351023 -0.106978
0.020641 0.349769 -0.107151
0.022885 0.348513 -0.107326
0.025134 0.347255 -0.107500
0.027388 0.345994 -0.107675
0.029091 0.345994 -0.106763
0.031351 0.344730 -0.106938
0.033615 0.343464 -0.107112
0.035884 0.342195 -0.107287
0.037593 0.342195 -0.106373
0.039868 0.340923 -0.106547
0.042148 0.339649 -0.106722
0.044432 0.338373 -0.106897
0.046721 0.337093 -0.107073
0.048437 0.337093 -0.106155
0.050733 0.335812 -0.106330
0.053033 0.334527 -0.106505
0.055337 0.333240 -0.106681
0.057647 0.331951 -0.106857
0.059370 0.331951 -0.105935
0.061686 0.330658 -0.106110
0.064007 0.329363 -0.106286
0.066332 0.328066 -0.106462
0.068663 0.326766 -0.106639
0.070998 0.325463 -0.106816
0.072729 0.325463 -0.105889
0.075071 0.324157 -0.106065
0.077417 0.322849 -0.106242
0.079769 0.321538 -0.106419
0.082125 0.320224 -0.106596
0.083864 0.320224 -0.105666
0.086227 0.318908 -0.105842
0.089223 0.316267 -0.107131
0.091598 0.314942 -0.107310
0.093344 0.314942 -0.106375
0.096364 0.312285 -0.107668
0.098755 0.310952 -0.107849
0.101151 0.309616 -0.108029
0.103551 0.308278 -0.108210
0.105956 0.306937 -0.108391
0.108367 0.305593 -0.108572
0.110782 0.304246 -0.108754
0.113203 0.302896 -0.108937
0.116293 0.300189 -0.110248
0.118727 0.298831 -0.110432
0.121166 0.297470 -0.110617
0.124286 0.294739 -0.111937
0.126739 0.293370 -0.112124
0.128514 0.293370 -0.111173
0.130290 0.293370 -0.110223
0.131381 0.294739 -0.108140
0.133154 0.294739 -0.107190
0.134928 0.294739 -0.106241
0.137392 0.293370 -0.106422
0.139167 0.293370 -0.105472
0.140942 0.293370 -0.104521
0.142718 0.293370 -0.103571
0.144493 0.293370 -0.102621
0.146269 0.293370 -0.101671
0.148044 0.293370 -0.100720
0.149820 0.293370 -0.099770
0.151595 0.293370 -0.098820
0.154079 0.291997 -0.098993
0.155857 0.291997 -0.098042
0.157634 0.291997 -0.097091
0.159411 0.291997 -0.096139
0.161189 0.291997 -0.095188
0.162966 0.291997 -0.094237
0.164743 0.291997 -0.093285
0.166521 0.291997 -0.092334
0.168298 0.291997 -0.091383
0.170075 0.291997 -0.090431
0.171853 0.291997 -0.089480
0.173630 0.291997 -0.088529
0.175407 0.291997 -0.087578
0.177185 0.291997 -0.086626
0.178962 0.291997 -0.085675
0.180739 0.291997 -0.084724
0.183257 0.290622 -0.084882
0.185036 0.290622 -0.083930
0.186815 0.290622 -0.082978
0.188594 0.290622 -0.082025
0.189626 0.291997 -0.079967
0.192153 0.290622 -0.080121
0.193932 0.290622 -0.079169
0.195711 0.290622 -0.078216
0.197490 0.290622 -0.077264
0.199270 0.290622 -0.076312
0.201049 0.290622 -0.075359
0.203590 0.289244 -0.075508
0.205371 0.289244 -0.074555
0.207153 0.289244 -0.073602
0.208934 0.289244 -0.072649
0.210715 0.289244 -0.071695
0.212496 0.289244 -0.070742
0.214277 0.289244 -0.069789
0.216835 0.287862 -0.069932
0.218618 0.287862 -0.068977
0.220401 0.287862 -0.068023
0.222184 0.287862 -0.067069
0.223967 0.287862 -0.066115
0.225750 0.287862 -0.065160
0.227533 0.287862 -0.064206
0.229316 0.287862 -0.063252
0.231099 0.287862 -0.062297
0.233677 0.286478 -0.062433
0.235462 0.286478 -0.061477
0.237247 0.286478 -0.060522
0.239032 0.286478 -0.059567
0.240817 0.286478 -0.058612
0.242602 0.286478 -0.057656
0.244387 0.286478 -0.056701
0.246982 0.285091 -0.056831
0.248769 0.285091 -0.055874
0.251372 0.283702 -0.056003
0.253160 0.283702 -0.055046
0.254949 0.283702 -0.054088
0.256738 0.283702 -0.053131
0.258526 0.283702 -0.052174
0.260315 0.283702 -0.051216
0.262933 0.282309 -0.051340
0.264723 0.282309 -0.050382
0.267349 0.280913 -0.050505
0.269141 0.280913 -0.049546
0.270933 0.280913 -0.048587
0.273568 0.279514 -0.048708
0.275363 0.279514 -0.047748
0.277157 0.279514 -0.046787
0.279801 0.278112 -0.046907
0.281597 0.278112 -0.045946
0.284249 0.276707 -0.046065
0.286047 0.276707 -0.045102
0.287845 0.276707 -0.044140
0.290507 0.275300 -0.044257
0.292307 0.275300 -0.043294
0.294107 0.275300 -0.042330
0.295907 0.275300 -0.041367
0.298580 0.273889 -0.041481
0.300382 0.273889 -0.040517
0.302184 0.273889 -0.039552
0.304866 0.272475 -0.039665
0.306670 0.272475 -0.038699
0.308474 0.272475 -0.037734
0.311166 0.271058 -0.037844
0.312971 0.271058 -0.036878
0.314777 0.271058 -0.035911
0.316583 0.271058 -0.034945
0.319287 0.269638 -0.035053
0.321094 0.269638 -0.034085
0.322902 0.269638 -0.033117
0.325615 0.268215 -0.033223
0.327425 0.268215 -0.032255
0.329235 0.268215 -0.031286
0.331958 0.266789 -0.031390
0.333769 0.266789 -0.030420
0.335581 0.266789 -0.029451
0.338314 0.265360 -0.029553
0.340127 0.265360 -0.028582
0.341941 0.265360 -0.027612
0.344683 0.263928 -0.027712
0.347432 0.262493 -0.027813
0.349249 0.262493 -0.026840
0.352005 0.261055 -0.026940
0.319454 0.313615 0.013193
0.320332 0.314942 0.015116
0.320341 0.317589 0.018019
0.320349 0.320224 0.020909
0.320357 0.322849 0.023788
0.321228 0.324157 0.025686
0.321234 0.326766 0.028546
0.321241 0.329363 0.031394
0.322106 0.330658 0.033275
0.322111 0.333240 0.036105
0.322973 0.334527 0.037976
0.323833 0.335812 0.039843
0.324691 0.337093 0.041706
0.324691 0.339649 0.044504
0.325546 0.340923 0.046357
0.326399 0.342195 0.048206
0.327250 0.343464 0.050051
0.328957 0.343464 0.050965
0.329805 0.344730 0.052805
0.330652 0.345994 0.054642
0.332356 0.345994 0.055554
0.334059 0.345994 0.056466
0.335763 0.345994 0.057378
0.336603 0.347255 0.059208
0.338305 0.347255 0.060119
0.339141 0.348513 0.061945
0.340841 0.348513 0.062855
0.341674 0.349769 0.064676
0.342505 0.351023 0.066493
0.344201 0.351023 0.067401
0.345898 0.351023 0.068310
0.347595 0.351023 0.069218
0.349292 0.351023 0.070126
0.350115 0.352274 0.071936
0.351810 0.352274 0.072844
0.353505 0.352274 0.073751
0.354322 0.353523 0.075556
0.356016 0.353523 0.076462
0.357709 0.353523 0.077368
0.359403 0.353523 0.078275
0.361096 0.353523 0.079181
0.362790 0.353523 0.080088
0.364483 0.353523 0.080994
0.366177 0.353523 0.081900
0.367870 0.353523 0.082807
0.369564 0.353523 0.083713
0.371257 0.353523 0.084620
0.372951 0.353523 0.085526
0.374644 0.353523 0.086432
0.377237 0.352274 0.086453
0.378932 0.352274 0.087361
0.380628 0.352274 0.088268
0.382323 0.352274 0.089175
0.384926 0.351023 0.089199
0.386623 0.351023 0.090107
0.388320 0.351023 0.091015
0.390017 0.351023 0.091924
0.392631 0.349769 0.091950
0.394330 0.349769 0.092859
0.396028 0.349769 0.093768
0.397727 0.349769 0.094677
0.400351 0.348513 0.094707
0.402981 0.347255 0.094736
0.405616 0.345994 0.094765
0.408256 0.344730 0.094795
0.409962 0.344730 0.095707
0.412609 0.343464 0.095738
0.415262 0.342195 0.095768
0.417920 0.340923 0.095799
0.419631 0.340923 0.096714
0.422296 0.339649 0.096746
0.424967 0.338373 0.096777
0.427643 0.337093 0.096809
0.432262 0.333240 0.095062
0.436910 0.329363 0.093304
0.440600 0.326766 0.092435
0.445297 0.322849 0.090660
0.450024 0.318908 0.088874
0.453772 0.316267 0.087988
0.458549 0.312285 0.086185
0.463356 0.308278 0.084370
0.467163 0.305593 0.083467
-0.335021 0.234927 -0.419999
-0.333575 0.237912 -0.415965
-0.331930 0.239399 -0.413459
-0.330496 0.242364 -0.409452
-0.329068 0.245316 -0.405463
-0.327437 0.246787 -0.402982
-0.325810 0.248255 -0.400508
-0.324187 0.249720 -0.398038
-0.322567 0.251181 -0.395575
-0.320951 0.252639 -0.393116
-0.319338 0.254095 -0.390663
-0.317729 0.255547 -0.388215
-0.316123 0.256996 -0.385772
-0.314520 0.258441 -0.383335
-0.312922 0.259884 -0.380903
-0.311550 0.262760 -0.377026
-0.309959 0.264194 -0.374608
-0.308823 0.268475 -0.369322
-0.307695 0.272730 -0.364070
-0.306120 0.274142 -0.361684
-0.304778 0.276957 -0.357890
-0.303211 0.278360 -0.355518
-0.301648 0.279760 -0.353152
-0.300088 0.281157 -0.350791
-0.298532 0.282551 -0.348434
-0.296979 0.283942 -0.346083
-0.295429 0.285330 -0.343737
-0.293882 0.286716 -0.341395
-0.292339 0.288098 -0.339059
-0.290799 0.289477 -0.336727
-0.289019 0.289477 -0.335775
-0.287484 0.290854 -0.333449
-0.285953 0.292228 -0.331129
-0.284424 0.293598 -0.328813
-0.282899 0.294966 -0.326502
-0.281377 0.296331 -0.324196
-0.279858 0.297693 -0.321894
-0.278342 0.299053 -0.319598
-0.276829 0.300409 -0.317306
-0.275065 0.300409 -0.316362
-0.273557 0.301763 -0.314076
-0.272053 0.303113 -0.311795
-0.270552 0.304461 -0.309518
-0.269053 0.305807 -0.307247
-0.267558 0.307149 -0.304980
-0.266066 0.308489 -0.302718
-0.264313 0.308489 -0.301779
-0.262826 0.309825 -0.299523
-0.261342 0.311159 -0.297271
-0.259861 0.312491 -0.295024
-0.258384 0.313819 -0.292781
-0.256909 0.315145 -0.290543
-0.255437 0.316468 -0.288310
-0.253968 0.317788 -0.286082
-0.252503 0.319106 -0.283858
-0.250764 0.319106 -0.282927
-0.249303 0.320420 -0.280708
-0.247845 0.321733 -0.278494
-0.246391 0.323042 -0.276285
-0.244939 0.324349 -0.274080
-0.243490 0.325653 -0.271880
-0.242044 0.326954 -0.269684
-0.240316 0.326954 -0.268759
-0.238875 0.328253 -0.266569
-0.237436 0.329549 -0.264383
-0.236290 0.332133 -0.260946
-0.234859 0.333421 -0.258772
-0.233139 0.333421 -0.257852
-0.231713 0.334707 -0.255684
-0.230289 0.335990 -0.253520
-0.228869 0.337270 -0.251361
-0.227451 0.338548 -0.249206
-0.226036 0.339823 -0.247055
-0.224325 0.339823 -0.246140
-0.222915 0.341095 -0.243994
-0.221507 0.342365 -0.241854
-0.219800 0.342365 -0.240940
-0.218397 0.343633 -0.238804
-0.216997 0.344898 -0.236673
-0.215600 0.346160 -0.234546
-0.214206 0.347420 -0.232423
-0.212814 0.348677 -0.230304
-0.211425 0.349931 -0.228190
-0.210349 0.352433 -0.224881
-0.208656 0.352433 -0.223975
-0.207275 0.353680 -0.221873
-0.205898 0.354925 -0.219776
-0.204837 0.357407 -0.216496
-0.202834 0.356167 -0.216779
-0.201464 0.357407 -0.214691
-0.199777 0.357407 -0.213788
-0.198090 0.357407 -0.212885
-0.196726 0.358644 -0.210803
-0.195041 0.358644 -0.209901
-0.193681 0.359879 -0.207824
-0.191998 0.359879 -0.206923
-0.190314 0.359879 -0.206022
-0.188960 0.361111 -0.203951
-0.187279 0.361111 -0.203051
-0.185929 0.362341 -0.200985
-0.184249 0.362341 -0.200086
-0.182569 0.362341 -0.199187
-0.181226 0.363568 -0.197127
-0.179547 0.363568 -0.196229
-0.177869 0.363568 -0.195330
-0.176871 0.366015 -0.192122
-0.175197 0.366015 -0.191226
-0.173864 0.367235 -0.189180
-0.172535 0.368453 -0.187138
-0.170863 0.368453 -0.186243
-0.169538 0.369668 -0.184206
-0.167868 0.369668 -0.183312
-0.166198 0.369668 -0.182418
-0.164878 0.370881 -0.180387
-0.163210 0.370881 -0.179494
-0.161895 0.372091 -0.177468
-0.160228 0.372091 -0.176575
-0.158562 0.372091 -0.175683
-0.157252 0.373299 -0.173663
-0.155587 0.373299 -0.172772
-0.153922 0.373299 -0.171880
-0.152619 0.374505 -0.169866
-0.150955 0.374505 -0.168975
-0.149292 0.374505 -0.168085
-0.147629 0.374505 -0.167195
-0.146333 0.375708 -0.165186
-0.144671 0.375708 -0.164297
-0.143009 0.375708 -0.163407
-0.141347 0.375708 -0.162518
-0.139686 0.375708 -0.161629
-0.138399 0.376909 -0.159628
-0.136739 0.376909 -0.158739
-0.135079 0.376909 -0.157851
-0.133419 0.376909 -0.156962
-0.131758 0.376909 -0.156073
-0.130098 0.376909 -0.155185
-0.128438 0.376909 -0.154296
-0.126778 0.376909 -0.153408
-0.125118 0.376909 -0.152519
-0.123068 0.375708 -0.152734
-0.121406 0.375708 -0.151845
-0.119744 0.375708 -0.150955
-0.118083 0.375708 -0.150066
-0.116421 0.375708 -0.149176
-0.114759 0.375708 -0.148287
-0.113097 0.375708 -0.147398
-0.111436 0.375708 -0.146508
-0.109774 0.375708 -0.145619
-0.108112 0.375708 -0.144729
-0.106450 0.375708 -0.143840
-0.104789 0.375708 -0.142950
-0.103127 0.375708 -0.142061
-0.101465 0.375708 -0.141172
-0.099803 0.375708 -0.140282
-0.098141 0.375708 -0.139393
-0.096480 0.375708 -0.138503
-0.094818 0.375708 -0.137614
-0.093156 0.375708 -0.136724
-0.091494 0.375708 -0.135835
-0.089833 0.375708 -0.134946
-0.088171 0.375708 -0.134056
-0.086509 0.375708 -0.133167
-0.084847 0.375708 -0.132277
-0.083186 0.375708 -0.131388
-0.081524 0.375708 -0.130498
-0.079862 0.375708 -0.129609
-0.078200 0.375708 -0.128720
-0.076539 0.375708 -0.127830
-0.074439 0.374505 -0.128021
-0.072775 0.374505 -0.127131
-0.071112 0.374505 -0.126240
-0.069449 0.374505 -0.125350
-0.068230 0.375708 -0.123383
-0.066568 0.375708 -0.122493
-0.064906 0.375708 -0.121604
-0.063244 0.375708 -0.120715
-0.061131 0.374505 -0.120898
-0.059468 0.374505 -0.120008
-0.057805 0.374505 -0.119118
-0.055684 0.373299 -0.119300
-0.054019 0.373299 -0.118409
-0.052354 0.373299 -0.117518
-0.050689 0.373299 -0.116627
-0.048560 0.372091 -0.116807
-0.046893 0.372091 -0.115915
-0.045226 0.372091 -0.115023
-0.043560 0.372091 -0.114131
-0.041893 0.372091 -0.113239
-0.039753 0.370881 -0.113416
-0.038084 0.370881 -0.112523
-0.036416 0.370881 -0.111630
-0.034748 0.370881 -0.110737
-0.032598 0.369668 -0.110911
-0.030444 0.368453 -0.111086
-0.028773 0.368453 -0.110192
-0.027101 0.368453 -0.109297
-0.024940 0.367235 -0.109471
-0.023267 0.367235 -0.108575
-0.021099 0.366015 -0.108748
-0.018430 0.363568 -0.109993
-0.016252 0.362341 -0.110168
-0.014572 0.362341 -0.109269
-0.012387 0.361111 -0.109444
-0.010705 0.361111 -0.108544
-0.008515 0.359879 -0.108717
-0.006320 0.358644 -0.108892
-0.004635 0.358644 -0.107990
-0.002434 0.357407 -0.108163
-0.000228 0.356167 -0.108337
0.001460 0.356167 -0.107434
0.003672 0.354925 -0.107607
0.005362 0.354925 -0.106703
0.007580 0.353680 -0.106876
0.009802 0.352433 -0.107049
0.011495 0.352433 -0.106142
0.013724 0.351184 -0.106315
0.015956 0.349931 -0.106488
0.017653 0.349931 -0.105580
0.019892 0.348677 -0.105752
0.021591 0.348677 -0.104843
0.024384 0.346160 -0.106098
0.026086 0.346160 -0.105187
0.028340 0.344898 -0.105360
0.030599 0.343633 -0.105533
0.032863 0.342365 -0.105706
0.034570 0.342365 -0.104793
0.036840 0.341095 -0.104965
0.039114 0.339823 -0.105138
0.041393 0.338548 -0.105312
0.043105 0.338548 -0.104395
0.045391 0.337270 -0.104568
0.047681 0.335990 -0.104741
0.049975 0.334707 -0.104915
0.051693 0.334707 -0.103996
0.053994 0.333421 -0.104169
0.056300 0.332133 -0.104342
0.058610 0.330842 -0.104516
0.060926 0.329549 -0.104690
0.063246 0.328253 -0.104864
0.064972 0.328253 -0.103940
0.067299 0.326954 -0.104114
0.069630 0.325653 -0.104288
0.071966 0.324349 -0.104462
0.074307 0.323042 -0.104637
0.076040 0.323042 -0.103709
0.078388 0.321733 -0.103884
0.080740 0.320420 -0.104058
0.083097 0.319106 -0.104233
0.085459 0.317788 -0.104409
0.087826 0.316468 -0.104584
0.090198 0.315145 -0.104760
0.091942 0.315145 -0.103827
0.094956 0.312491 -0.105114
0.097343 0.311159 -0.105291
0.099734 0.309825 -0.105468
0.102131 0.308489 -0.105646
0.104532 0.307149 -0.105825
0.106939 0.305807 -0.106003
0.109350 0.304461 -0.106182
0.111767 0.303113 -0.106362
0.114189 0.301763 -0.106542
0.117281 0.299053 -0.107848
0.119716 0.297693 -0.108029
0.122156 0.296331 -0.108212
0.124601 0.294966 -0.108394
0.127051 0.293598 -0.108577
0.128825 0.293598 -0.107628
0.130599 0.293598 -0.106679
0.133058 0.292228 -0.106860
0.134833 0.292228 -0.105910
0.136609 0.292228 -0.104960
0.138384 0.292228 -0.104009
0.140160 0.292228 -0.103059
0.141935 0.292228 -0.102109
0.143711 0.292228 -0.101159
0.145486 0.292228 -0.100208
0.147262 0.292228 -0.099258
0.149037 0.292228 -0.098308
0.150813 0.292228 -0.097357
0.152588 0.292228 -0.096407
0.154364 0.292228 -0.095457
0.156139 0.292228 -0.094507
0.157914 0.292228 -0.093556
0.159690 0.292228 -0.092606
0.161465 0.292228 -0.091656
0.163241 0.292228 -0.090705
0.165737 0.290854 -0.090870
0.167514 0.290854 -0.089919
0.169292 0.290854 -0.088968
0.171069 0.290854 -0.088016
0.172846 0.290854 -0.087065
0.174624 0.290854 -0.086114
0.176401 0.290854 -0.085162
0.178179 0.290854 -0.084211
0.179956 0.290854 -0.083260
0.181733 0.290854 -0.082309
0.183511 0.290854 -0.081357
0.185288 0.290854 -0.080406
0.187065 0.290854 -0.079455
0.188843 0.290854 -0.078503
0.190620 0.290854 -0.077552
0.193148 0.289477 -0.077703
0.194927 0.289477 -0.076751
0.196706 0.289477 -0.075799
0.198485 0.289477 -0.074846
0.200265 0.289477 -0.073894
0.202044 0.289477 -0.072942
0.203823 0.289477 -0.071989
0.206367 0.288098 -0.072135
0.208148 0.288098 -0.071182
0.209930 0.288098 -0.070228
0.211711 0.288098 -0.069275
0.213492 0.288098 -0.068322
0.215273 0.288098 -0.067368
0.217054 0.288098 -0.066415
0.218835 0.288098 -0.065462
0.220616 0.288098 -0.064508
0.223181 0.286716 -0.064646
0.224964 0.286716 -0.063692
0.226747 0.286716 -0.062737
0.228530 0.286716 -0.061783
0.230313 0.286716 -0.060829
0.232096 0.286716 -0.059875
0.233879 0.286716 -0.058920
0.236460 0.285330 -0.059052
0.238245 0.285330 -0.058097
0.240030 0.285330 -0.057141
0.241815 0.285330 -0.056186
0.243600 0.285330 -0.055231
0.245385 0.285330 -0.054275
0.247169 0.285330 -0.053320
0.249768 0.283942 -0.053446
0.251555 0.283942 -0.052490
0.254160 0.282551 -0.052615
0.255128 0.283942 -0.050577
0.257738 0.282551 -0.050701
0.259526 0.282551 -0.049743
0.262143 0.281157 -0.049866
0.263934 0.281157 -0.048907
0.265724 0.281157 -0.047949
0.268351 0.279760 -0.048070
0.270143 0.279760 -0.047110
0.271936 0.279760 -0.046151
0.274572 0.278360 -0.046270
0.276366 0.278360 -0.045310
0.279009 0.276957 -0.045428
0.280805 0.276957 -0.044466
0.282602 0.276957 -0.043505
0.285255 0.275551 -0.043621
0.287053 0.275551 -0.042659
0.288851 0.275551 -0.041696
0.291513 0.274142 -0.041811
0.293313 0.274142 -0.040848
0.295113 0.274142 -0.039884
0.296913 0.274142 -0.038921
0.299587 0.272730 -0.039032
0.301389 0.272730 -0.038068
0.303191 0.272730 -0.037103
0.305874 0.271315 -0.037213
0.307678 0.271315 -0.036248
0.309482 0.271315 -0.035282
0.312175 0.269896 -0.035390
0.313981 0.269896 -0.034424
0.315787 0.269896 -0.033457
0.318490 0.268475 -0.033564
0.320298 0.268475 -0.032596
0.322105 0.268475 -0.031628
0.323913 0.268475 -0.030661
0.326627 0.267051 -0.030764
0.328437 0.267051 -0.029795
0.330247 0.267051 -0.028827
0.332971 0.265624 -0.028928
0.334782 0.265624 -0.027959
0.336594 0.265624 -0.026989
0.339328 0.264194 -0.027089
0.341141 0.264194 -0.026118
0.342955 0.264194 -0.025147
0.345699 0.262760 -0.025245
0.316920 0.309825 0.010777
0.316936 0.312491 0.013697
0.316951 0.315145 0.016605
0.317830 0.316468 0.018521
0.317843 0.319106 0.021411
0.317857 0.321733 0.024288
0.318730 0.323042 0.026186
0.318742 0.325653 0.029045
0.318753 0.328253 0.031892
0.319621 0.329549 0.033773
0.320487 0.330842 0.035650
0.320495 0.333421 0.038472
0.321358 0.334707 0.040338
0.322219 0.335990 0.042201
0.323078 0.337270 0.044059
0.323936 0.338548 0.045914
0.324791 0.339823 0.047766
0.325645 0.341095 0.049613
0.326498 0.342365 0.051457
0.327348 0.343633 0.053297
0.329054 0.343633 0.054210
0.329901 0.344898 0.056045
0.330746 0.346160 0.057877
0.332448 0.346160 0.058788
0.334150 0.346160 0.059699
0.334990 0.347420 0.061525
0.336691 0.347420 0.062435
0.337528 0.348677 0.064257
0.339226 0.348677 0.065166
0.340060 0.349931 0.066983
0.340891 0.351184 0.068796
0.342587 0.351184 0.069703
0.344282 0.351184 0.070611
0.345977 0.351184 0.071518
0.347672 0.351184 0.072425
0.348495 0.352433 0.074231
0.350189 0.352433 0.075138
0.351882 0.352433 0.076044
0.353576 0.352433 0.076950
0.355269 0.352433 0.077857
0.356963 0.352433 0.078763
0.357776 0.353680 0.080561
0.359468 0.353680 0.081467
0.361160 0.353680 0.082372
0.362851 0.353680 0.083278
0.364543 0.353680 0.084183
0.366235 0.353680 0.085089
0.367927 0.353680 0.085994
0.369618 0.353680 0.086900
0.371310 0.353680 0.087805
0.373002 0.353680 0.088711
0.374694 0.353680 0.089616
0.376385 0.353680 0.090522
0.378978 0.352433 0.090546
0.380671 0.352433 0.091453
0.382365 0.352433 0.092359
0.384058 0.352433 0.093266
0.385752 0.352433 0.094172
0.388356 0.351184 0.094201
0.390051 0.351184 0.095108
0.391747 0.351184 0.096015
0.393442 0.351184 0.096923
0.396057 0.349931 0.096954
0.397753 0.349931 0.097862
0.399450 0.349931 0.098770
0.402074 0.348677 0.098804
0.404703 0.347420 0.098837
0.407337 0.346160 0.098871
0.409039 0.346160 0.099782
0.411680 0.344898 0.099816
0.414326 0.343633 0.099851
0.416978 0.342365 0.099885
0.418685 0.342365 0.100799
0.421344 0.341095 0.100834
0.424009 0.339823 0.100870
0.427640 0.337270 0.100024
0.432254 0.333421 0.098289
0.436896 0.329549 0.096542
0.440583 0.326954 0.095681
0.445276 0.323042 0.093918
0.449997 0.319106 0.092143
0.453741 0.316468 0.091266
0.458513 0.312491 0.089474
0.463315 0.308489 0.087671
0.472281 0.299053 0.082161
-0.337292 0.230735 -0.422522
-0.336240 0.236722 -0.415431
-0.334592 0.238211 -0.412927
-0.333152 0.241178 -0.408921
-0.331718 0.244133 -0.404932
-0.330085 0.245605 -0.402453
-0.328455 0.247074 -0.399978
-0.326829 0.248540 -0.397510
-0.325206 0.250003 -0.395046
-0.323587 0.251463 -0.392588
-0.321971 0.252919 -0.390136
-0.320359 0.254373 -0.387688
-0.318750 0.255823 -0.385246
-0.317145 0.257270 -0.382809
-0.315543 0.258714 -0.380378
-0.313945 0.260155 -0.377952
-0.312572 0.263027 -0.374085
-0.311428 0.267312 -0.368801
-0.310291 0.271570 -0.363550
-0.308714 0.272984 -0.361165
-0.307366 0.275801 -0.357372
-0.305797 0.277205 -0.355001
-0.304231 0.278607 -0.352635
-0.302668 0.280005 -0.350274
-0.301109 0.281400 -0.347918
-0.299553 0.282793 -0.345568
-0.298000 0.284182 -0.343222
-0.296215 0.284182 -0.342267
-0.294668 0.285569 -0.339927
-0.293124 0.286952 -0.337592
-0.291583 0.288333 -0.335262
-0.290045 0.289711 -0.332937
-0.288511 0.291086 -0.330617
-0.286979 0.292457 -0.328301
-0.285451 0.293827 -0.325991
-0.283927 0.295193 -0.323685
-0.282405 0.296556 -0.321384
-0.280637 0.296556 -0.320438
-0.279120 0.297917 -0.318143
-0.277607 0.299274 -0.315853
-0.276097 0.300629 -0.313568
-0.274590 0.301981 -0.311287
-0.273086 0.303330 -0.309011
-0.271585 0.304676 -0.306740
-0.269828 0.304676 -0.305800
-0.268332 0.306020 -0.303534
-0.266839 0.307361 -0.301274
-0.265350 0.308699 -0.299018
-0.263863 0.310034 -0.296766
-0.262380 0.311366 -0.294520
-0.260899 0.312696 -0.292278
-0.259422 0.314023 -0.290040
-0.257948 0.315347 -0.287808
-0.256205 0.315347 -0.286875
-0.254736 0.316668 -0.284648
-0.253269 0.317987 -0.282425
-0.251806 0.319303 -0.280207
-0.250346 0.320616 -0.277994
-0.248888 0.321927 -0.275785
-0.247434 0.323235 -0.273581
-0.245702 0.323235 -0.272654
-0.244253 0.324540 -0.270455
-0.242806 0.325843 -0.268261
-0.241362 0.327142 -0.266071
-0.239921 0.328440 -0.263885
-0.238484 0.329734 -0.261705
-0.237049 0.331026 -0.259528
-0.235617 0.332315 -0.257356
-0.234188 0.333602 -0.255188
-0.232762 0.334886 -0.253025
-0.231338 0.336168 -0.250866
-0.229918 0.337446 -0.248712
-0.228206 0.337446 -0.247795
-0.226790 0.338723 -0.245646
-0.225377 0.339996 -0.243502
-0.223967 0.341267 -0.241361
-0.222260 0.341267 -0.240447
-0.220855 0.342536 -0.238312
-0.219452 0.343802 -0.236181
-0.218052 0.345065 -0.234055
-0.216655 0.346326 -0.231933
-0.215261 0.347584 -0.229815
-0.213870 0.348840 -0.227701
-0.212789 0.351344 -0.224393
-0.211405 0.352592 -0.222291
-0.209713 0.352592 -0.221385
-0.208333 0.353838 -0.219288
-0.206955 0.355081 -0.217196
-0.205581 0.356322 -0.215107
-0.203894 0.356322 -0.214204
-0.202207 0.356322 -0.213302
-0.200839 0.357560 -0.211219
-0.199154 0.357560 -0.210317
-0.197469 0.357560 -0.209416
-0.196106 0.358796 -0.207339
-0.194423 0.358796 -0.206438
-0.193065 0.360029 -0.204367
-0.191383 0.360029 -0.203467
-0.189702 0.360029 -0.202566
-0.188350 0.361260 -0.200501
-0.186670 0.361260 -0.199602
-0.185322 0.362488 -0.197541
-0.183644 0.362488 -0.196643
-0.181965 0.362488 -0.195745
-0.180960 0.364938 -0.192536
-0.179285 0.364938 -0.191639
-0.177610 0.364938 -0.190743
-0.176275 0.366159 -0.188697
-0.174943 0.367378 -0.186656
-0.173272 0.367378 -0.185761
-0.171944 0.368594 -0.183724
-0.170274 0.368594 -0.182830
-0.168951 0.369808 -0.180799
-0.167282 0.369808 -0.179906
-0.165614 0.369808 -0.179013
-0.164296 0.371019 -0.176987
-0.162630 0.371019 -0.176095
-0.160963 0.371019 -0.175203
-0.159651 0.372228 -0.173183
-0.157986 0.372228 -0.172291
-0.156321 0.372228 -0.171400
-0.155016 0.373435 -0.169386
-0.153352 0.373435 -0.168495
-0.151689 0.373435 -0.167605
-0.150025 0.373435 -0.166715
-0.148727 0.374639 -0.164707
-0.147065 0.374639 -0.163818
-0.145404 0.374639 -0.162928
-0.143742 0.374639 -0.162039
-0.142080 0.374639 -0.161149
-0.140418 0.374639 -0.160260
-0.139131 0.375841 -0.158260
-0.137471 0.375841 -0.157372
-0.135811 0.375841 -0.156483
-0.134150 0.375841 -0.155595
-0.132490 0.375841 -0.154706
-0.130830 0.375841 -0.153818
-0.129170 0.375841 -0.152929
-0.127510 0.375841 -0.152040
-0.125850 0.375841 -0.151152
-0.124190 0.375841 -0.150263
-0.122529 0.375841 -0.149375
-0.120869 0.375841 -0.148486
-0.119209 0.375841 -0.147598
