ply
format ascii 1.0
element vertex 1674
property float x
property float y
property float z
end_header
0.379995 -0.229992 0.311033
0.378166 -0.227463 0.304232
0.376849 -0.225336 0.298362
0.374451 -0.222328 0.290424
0.372565 -0.219721 0.283414
0.370114 -0.216646 0.275298
0.368185 -0.213981 0.268132
0.366235 -0.211288 0.260891
0.234526 -0.102836 0.005412
0.236985 -0.103494 0.005834
0.238637 -0.103494 0.004712
0.241090 -0.104150 0.005134
0.242740 -0.104150 0.004014
0.244391 -0.104150 0.002893
0.246041 -0.104150 0.001773
0.247692 -0.104150 0.000652
0.249342 -0.104150 -0.000468
0.250993 -0.104150 -0.001588
0.252643 -0.104150 -0.002709
0.254294 -0.104150 -0.003829
0.255944 -0.104150 -0.004950
0.257595 -0.104150 -0.006070
0.259245 -0.104150 -0.007191
0.260896 -0.104150 -0.008311
0.262546 -0.104150 -0.009432
0.263421 -0.103494 -0.012112
0.265073 -0.103494 -0.013234
0.266725 -0.103494 -0.014355
0.268377 -0.103494 -0.015477
0.270030 -0.103494 -0.016599
0.271682 -0.103494 -0.017720
0.273334 -0.103494 -0.018842
0.274986 -0.103494 -0.019963
0.276639 -0.103494 -0.021085
0.278291 -0.103494 -0.022207
0.279943 -0.103494 -0.023328
0.281595 -0.103494 -0.024450
0.282491 -0.102836 -0.027149
0.284145 -0.102836 -0.028272
0.285799 -0.102836 -0.029395
0.287453 -0.102836 -0.030517
0.289107 -0.102836 -0.031640
0.290761 -0.102836 -0.032763
0.292414 -0.102836 -0.033886
0.294068 -0.102836 -0.035009
0.295722 -0.102836 -0.036131
0.296633 -0.102177 -0.038846
0.298289 -0.102177 -0.039969
0.299945 -0.102177 -0.041093
0.300861 -0.101517 -0.043816
0.302519 -0.101517 -0.044941
0.304176 -0.101517 -0.046066
0.305834 -0.101517 -0.047191
0.306757 -0.100855 -0.049922
0.308416 -0.100855 -0.051049
0.310075 -0.100855 -0.052175
0.311004 -0.100192 -0.054915
0.313394 -0.100855 -0.054428
0.315053 -0.100855 -0.055554
0.315987 -0.100192 -0.058297
0.316923 -0.099527 -0.061046
0.318586 -0.099527 -0.062175
0.319526 -0.098861 -0.064930
0.321190 -0.098861 -0.066060
0.322134 -0.098194 -0.068823
0.323800 -0.098194 -0.069954
0.324747 -0.097525 -0.072724
0.326415 -0.097525 -0.073856
0.327366 -0.096855 -0.076633
0.329036 -0.096855 -0.077767
0.330706 -0.096855 -0.078900
0.331662 -0.096183 -0.081685
0.333334 -0.096183 -0.082820
0.334294 -0.095510 -0.085612
0.335967 -0.095510 -0.086748
0.336932 -0.094836 -0.089547
0.338607 -0.094836 -0.090684
0.339575 -0.094160 -0.093491
0.341251 -0.094160 -0.094629
0.342223 -0.093483 -0.097442
0.343902 -0.093483 -0.098582
0.344878 -0.092804 -0.101403
0.347259 -0.093483 -0.100861
0.348238 -0.092804 -0.103684
0.349220 -0.092124 -0.106513
0.350902 -0.092124 -0.107655
0.351887 -0.091442 -0.110492
0.353571 -0.091442 -0.111635
0.354560 -0.090759 -0.114478
0.356246 -0.090759 -0.115623
0.357239 -0.090075 -0.118474
0.358234 -0.089389 -0.121331
0.359923 -0.089389 -0.122477
0.360922 -0.088701 -0.125342
0.362613 -0.088701 -0.126490
0.363616 -0.088012 -0.129362
0.365309 -0.088012 -0.130511
0.366316 -0.087322 -0.133390
0.367326 -0.086630 -0.136275
0.368337 -0.085937 -0.139167
0.370035 -0.085937 -0.140320
0.370366 -0.084546 -0.144968
0.371384 -0.083848 -0.147879
0.372404 -0.083148 -0.150795
0.373426 -0.082448 -0.153718
0.375134 -0.082448 -0.154877
0.375478 -0.081041 -0.159582
0.375823 -0.079629 -0.164308
0.375483 -0.077499 -0.170851
0.373759 -0.073918 -0.181069
0.371317 -0.069569 -0.193242
0.367424 -0.063679 -0.209328
0.296581 0.012418 -0.403235
0.298537 0.012418 -0.404563
0.300494 0.012418 -0.405891
0.302450 0.012418 -0.407219
0.303537 0.013340 -0.410890
0.305495 0.013340 -0.412220
0.307454 0.013340 -0.413549
0.309413 0.013340 -0.414879
0.311372 0.013340 -0.416209
0.312471 0.014265 -0.419895
0.314432 0.014265 -0.421227
0.316394 0.014265 -0.422558
0.318355 0.014265 -0.423890
0.319464 0.015192 -0.427590
0.321428 0.015192 -0.428923
0.324239 0.014265 -0.427884
0.325355 0.015192 -0.431590
0.327319 0.015192 -0.432923
0.329283 0.015192 -0.434256
0.331247 0.015192 -0.435589
0.333211 0.015192 -0.436922
0.334339 0.016121 -0.440643
0.336305 0.016121 -0.441978
0.339102 0.015192 -0.440922
0.340238 0.016121 -0.444648
0.341377 0.017052 -0.448383
0.343345 0.017052 -0.449720
0.344489 0.017986 -0.453466
0.346460 0.017986 -0.454804
0.347610 0.018922 -0.458561
0.348762 0.019861 -0.462328
0.350738 0.019861 -0.463670
0.351895 0.020802 -0.467447
0.353056 0.021745 -0.471235
0.355037 0.021745 -0.472579
0.356203 0.022691 -0.476378
-0.318224 0.004758 0.030499
-0.305008 -0.001523 0.041570
-0.296735 -0.005065 0.047255
-0.290106 -0.007699 0.051159
-0.283524 -0.010313 0.055034
-0.276990 -0.012909 0.058882
-0.272029 -0.014629 0.061004
-0.265575 -0.017194 0.064807
-0.262179 -0.018045 0.065217
-0.255790 -0.020586 0.068987
-0.250933 -0.022270 0.071062
-0.246098 -0.023946 0.073128
-0.241286 -0.025614 0.075184
-0.237958 -0.026445 0.075577
-0.233182 -0.028101 0.077620
-0.228429 -0.029750 0.079653
-0.225136 -0.030571 0.080038
-0.220417 -0.032208 0.082059
-0.215721 -0.033837 0.084070
-0.212462 -0.034649 0.084448
-0.209210 -0.035459 0.084825
-0.204562 -0.037073 0.086821
-0.201330 -0.037878 0.087194
-0.198107 -0.038680 0.087566
-0.194890 -0.039481 0.087938
-0.191682 -0.040280 0.088308
-0.188480 -0.041077 0.088678
-0.185286 -0.041872 0.089047
-0.182099 -0.042665 0.089415
-0.178920 -0.043457 0.089782
-0.175747 -0.044246 0.090148
-0.171234 -0.045820 0.092107
-0.168081 -0.046604 0.092469
-0.166274 -0.046604 0.091242
-0.163131 -0.047387 0.091605
-0.161326 -0.047387 0.090380
-0.158192 -0.048168 0.090744
-0.156389 -0.048168 0.089520
-0.153264 -0.048947 0.089884
-0.150146 -0.049724 0.090247
-0.147036 -0.050499 0.090610
-0.145239 -0.050499 0.089390
-0.142137 -0.051273 0.089753
-0.139043 -0.052045 0.090116
-0.137250 -0.052045 0.088899
-0.134164 -0.052815 0.089261
-0.132374 -0.052815 0.088046
-0.129297 -0.053583 0.088409
-0.126228 -0.054350 0.088772
-0.124441 -0.054350 0.087559
-0.121380 -0.055115 0.087922
-0.118327 -0.055878 0.088284
-0.116544 -0.055878 0.087074
-0.113499 -0.056639 0.087437
-0.111719 -0.056639 0.086228
-0.108682 -0.057399 0.086592
-0.105653 -0.058157 0.086954
-0.103877 -0.058157 0.085748
-0.100856 -0.058914 0.086111
-0.099082 -0.058914 0.084907
-0.096070 -0.059668 0.085270
-0.094297 -0.059668 0.084067
-0.091294 -0.060421 0.084431
-0.089524 -0.060421 0.083229
-0.086530 -0.061172 0.083594
-0.084761 -0.061172 0.082393
-0.081775 -0.061922 0.082759
-0.080009 -0.061922 0.081559
-0.077032 -0.062670 0.081925
-0.075267 -0.062670 0.080727
-0.072299 -0.063416 0.081094
-0.070536 -0.063416 0.079897
-0.068773 -0.063416 0.078700
-0.067011 -0.063416 0.077504
-0.064055 -0.064161 0.077873
-0.062294 -0.064161 0.076678
-0.060533 -0.064161 0.075483
-0.057588 -0.064904 0.075854
-0.055829 -0.064904 0.074660
-0.052892 -0.065645 0.075032
-0.051135 -0.065645 0.073839
-0.048207 -0.066385 0.074212
-0.046452 -0.066385 0.073020
-0.044697 -0.066385 0.071829
-0.041779 -0.067123 0.072203
-0.040026 -0.067123 0.071013
-0.037116 -0.067859 0.071388
-0.035365 -0.067859 0.070199
-0.032464 -0.068594 0.070574
-0.030715 -0.068594 0.069387
-0.027822 -0.069327 0.069762
-0.026075 -0.069327 0.068576
-0.024328 -0.069327 0.067390
-0.021445 -0.070059 0.067768
-0.019700 -0.070059 0.066583
-0.016825 -0.070789 0.066961
-0.015082 -0.070789 0.065777
-0.012216 -0.071517 0.066156
-0.010474 -0.071517 0.064974
-0.008733 -0.071517 0.063792
-0.005877 -0.072244 0.064172
-0.004137 -0.072244 0.062991
-0.001289 -0.072969 0.063371
0.000448 -0.072969 0.062192
0.003288 -0.073693 0.062573
0.005024 -0.073693 0.061394
0.007855 -0.074415 0.061776
0.009589 -0.074415 0.060599
0.011323 -0.074415 0.059422
0.014144 -0.075135 0.059805
0.015876 -0.075135 0.058630
0.018690 -0.075854 0.059013
0.020420 -0.075854 0.057839
0.024299 -0.077287 0.059778
0.026025 -0.077287 0.058606
0.027751 -0.077287 0.057434
0.030543 -0.078001 0.057818
0.032267 -0.078001 0.056647
0.035051 -0.078713 0.057031
0.036773 -0.078713 0.055862
0.038495 -0.078713 0.054693
0.041269 -0.079424 0.055079
0.042990 -0.079424 0.053911
0.044710 -0.079424 0.052743
0.047474 -0.080134 0.053130
0.049193 -0.080134 0.051964
0.051949 -0.080842 0.052352
0.053666 -0.080842 0.051186
0.055382 -0.080842 0.050021
0.058129 -0.081548 0.050410
0.059844 -0.081548 0.049246
0.062583 -0.082253 0.049636
0.064296 -0.082253 0.048473
0.066009 -0.082253 0.047310
0.068738 -0.082956 0.047702
0.070449 -0.082956 0.046540
0.073170 -0.083658 0.046933
0.075886 -0.084358 0.047324
0.077593 -0.084358 0.046165
0.079301 -0.084358 0.045006
0.082007 -0.085057 0.045398
0.308276 -0.242511 0.394224
0.315214 -0.246478 0.402172
0.321491 -0.249994 0.409130
0.324955 -0.251540 0.411713
0.328398 -0.253077 0.414279
0.331280 -0.254223 0.415978
0.334683 -0.255742 0.418516
0.337535 -0.256875 0.420197
0.340373 -0.258003 0.421869
0.342674 -0.258752 0.422697
0.344445 -0.259126 0.422687
0.346734 -0.259871 0.423512
0.348498 -0.260243 0.423501
0.350775 -0.260985 0.424322
0.352531 -0.261355 0.424311
0.355308 -0.262462 0.425958
0.357055 -0.262829 0.425945
0.359306 -0.263563 0.426758
0.361047 -0.263929 0.426745
0.362784 -0.264295 0.426732
0.365020 -0.265024 0.427541
0.366750 -0.265388 0.427527
0.368478 -0.265751 0.427513
0.369708 -0.265751 0.426678
0.370938 -0.265751 0.425843
0.372661 -0.266114 0.425831
0.373890 -0.266114 0.424997
0.375609 -0.266476 0.424985
0.376837 -0.266476 0.424151
0.378553 -0.266837 0.424140
0.379780 -0.266837 0.423307
0.381493 -0.267198 0.423296
0.382719 -0.267198 0.422464
0.384428 -0.267559 0.422454
0.385653 -0.267559 0.421622
0.386397 -0.267198 0.419967
0.387623 -0.267198 0.419135
0.388369 -0.266837 0.417476
0.389596 -0.266837 0.416643
0.390345 -0.266476 0.414981
0.391573 -0.266476 0.414148
0.392324 -0.266114 0.412483
0.393553 -0.266114 0.411649
0.394781 -0.266114 0.410814
0.395535 -0.265751 0.409146
0.396290 -0.265388 0.407474
0.397521 -0.265388 0.406639
0.398278 -0.265024 0.404964
0.399036 -0.264660 0.403287
0.400269 -0.264660 0.402450
0.400082 -0.263563 0.399078
0.399895 -0.262462 0.395690
0.399229 -0.260985 0.391429
0.398559 -0.259499 0.387142
0.396921 -0.257252 0.381085
0.395753 -0.255363 0.375851
0.394086 -0.253077 0.369686
0.392896 -0.251154 0.364360
0.391201 -0.248828 0.358086
0.389490 -0.246478 0.351750
0.388265 -0.244502 0.346278
0.386524 -0.242111 0.339828
0.385276 -0.240100 0.334258
0.383504 -0.237664 0.327690
0.382232 -0.235616 0.322018
0.380429 -0.233136 0.315329
0.379133 -0.231051 0.309554
0.377826 -0.228948 0.303731
0.375976 -0.226401 0.296859
0.374107 -0.223828 0.289918
0.371678 -0.220793 0.281882
0.369767 -0.218163 0.274786
0.367836 -0.215505 0.267617
0.365329 -0.212370 0.259314
0.234102 -0.104687 0.004787
0.235756 -0.104687 0.003664
0.237410 -0.104687 0.002541
0.239866 -0.105342 0.002966
0.241518 -0.105342 0.001845
0.243170 -0.105342 0.000723
0.244822 -0.105342 -0.000399
0.246475 -0.105342 -0.001520
0.248127 -0.105342 -0.002642
0.249779 -0.105342 -0.003764
0.251431 -0.105342 -0.004885
0.253084 -0.105342 -0.006007
0.254736 -0.105342 -0.007128
0.255603 -0.104687 -0.009809
0.257257 -0.104687 -0.010932
0.258911 -0.104687 -0.012055
0.260565 -0.104687 -0.013178
0.262219 -0.104687 -0.014301
0.263873 -0.104687 -0.015423
0.265527 -0.104687 -0.016546
0.267181 -0.104687 -0.017669
0.268835 -0.104687 -0.018792
0.270489 -0.104687 -0.019914
0.272143 -0.104687 -0.021037
0.273797 -0.104687 -0.022160
0.275451 -0.104687 -0.023283
0.277105 -0.104687 -0.024406
0.278759 -0.104687 -0.025528
0.280413 -0.104687 -0.026651
0.282066 -0.104687 -0.027774
0.283720 -0.104687 -0.028897
0.284619 -0.104030 -0.031603
0.286275 -0.104030 -0.032727
0.287930 -0.104030 -0.033851
0.289586 -0.104030 -0.034975
0.291242 -0.104030 -0.036099
0.292897 -0.104030 -0.037223
0.294553 -0.104030 -0.038347
0.296209 -0.104030 -0.039471
0.297121 -0.103371 -0.042192
0.298779 -0.103371 -0.043317
0.300436 -0.103371 -0.044442
0.301354 -0.102711 -0.047170
0.303013 -0.102711 -0.048297
0.304672 -0.102711 -0.049423
0.305596 -0.102050 -0.052160
0.307257 -0.102050 -0.053287
0.309650 -0.102711 -0.052802
0.310578 -0.102050 -0.055542
0.311509 -0.101388 -0.058288
0.312441 -0.100724 -0.061040
0.314106 -0.100724 -0.062170
0.315770 -0.100724 -0.063300
0.316708 -0.100058 -0.066059
0.318374 -0.100058 -0.067190
0.319316 -0.099392 -0.069957
0.320984 -0.099392 -0.071090
0.321929 -0.098723 -0.073864
0.323599 -0.098723 -0.074997
0.324548 -0.098054 -0.077778
0.326219 -0.098054 -0.078913
0.327891 -0.098054 -0.080047
0.328846 -0.097383 -0.082837
0.330519 -0.097383 -0.083972
0.331477 -0.096710 -0.086769
0.333152 -0.096710 -0.087906
0.334114 -0.096036 -0.090709
0.335791 -0.096036 -0.091848
0.336757 -0.095361 -0.094658
0.338436 -0.095361 -0.095798
0.339406 -0.094684 -0.098616
0.341086 -0.094684 -0.099756
0.342060 -0.094006 -0.102581
0.344447 -0.094684 -0.102038
0.345424 -0.094006 -0.104865
0.346404 -0.093327 -0.107699
0.348087 -0.093327 -0.108842
0.349071 -0.092646 -0.111682
0.350756 -0.092646 -0.112827
0.351744 -0.091963 -0.115675
0.353431 -0.091963 -0.116820
0.354422 -0.091279 -0.119675
0.355415 -0.090594 -0.122537
0.357106 -0.090594 -0.123685
0.358104 -0.089907 -0.126554
0.359797 -0.089907 -0.127703
0.360798 -0.089218 -0.130579
0.362492 -0.089218 -0.131729
0.363497 -0.088529 -0.134613
0.365194 -0.088529 -0.135765
0.366203 -0.087837 -0.138656
0.367214 -0.087144 -0.141553
0.368228 -0.086450 -0.144456
0.369243 -0.085754 -0.147366
0.370261 -0.085057 -0.150282
0.371281 -0.084358 -0.153204
0.372303 -0.083658 -0.156133
0.373328 -0.082956 -0.159067
0.373668 -0.081548 -0.163792
0.374010 -0.080134 -0.168537
0.373664 -0.078001 -0.175108
0.369830 -0.072244 -0.190876
0.366639 -0.067123 -0.205050
0.294122 0.010228 -0.402646
0.296079 0.010228 -0.403974
0.298035 0.010228 -0.405302
0.299992 0.010228 -0.406630
0.301948 0.010228 -0.407958
0.303034 0.011148 -0.411630
0.304993 0.011148 -0.412960
0.306952 0.011148 -0.414290
0.308911 0.011148 -0.415619
0.310870 0.011148 -0.416949
0.311968 0.012070 -0.420636
0.313929 0.012070 -0.421968
0.315891 0.012070 -0.423299
0.317852 0.012070 -0.424631
0.319814 0.012070 -0.425962
0.320924 0.012994 -0.429665
0.322888 0.012994 -0.430998
0.324852 0.012994 -0.432332
0.326815 0.012994 -0.433665
0.328779 0.012994 -0.434998
0.330743 0.012994 -0.436331
0.331869 0.013920 -0.440051
0.333835 0.013920 -0.441386
0.335801 0.013920 -0.442721
0.338598 0.012994 -0.441663
0.339734 0.013920 -0.445390
0.340872 0.014849 -0.449127
0.342840 0.014849 -0.450463
0.343984 0.015780 -0.454211
0.345955 0.015780 -0.455549
0.347104 0.016714 -0.459307
0.349077 0.016714 -0.460647
0.350231 0.017650 -0.464416
0.351388 0.018588 -0.468195
0.353366 0.018588 -0.469538
0.354529 0.019528 -0.473328
0.355694 0.020471 -0.477127
-0.325264 0.006212 0.022592
-0.307101 -0.002790 0.039085
-0.297227 -0.007209 0.046531
-0.290596 -0.009835 0.050437
-0.285567 -0.011575 0.052595
-0.279017 -0.014170 0.056456
-0.272514 -0.016746 0.060289
-0.267576 -0.018453 0.062402
-0.262662 -0.020152 0.064506
-0.257771 -0.021842 0.066599
-0.251413 -0.024364 0.070355
-0.248057 -0.025200 0.070756
-0.243235 -0.026867 0.072820
-0.239901 -0.027698 0.073216
-0.235115 -0.029353 0.075267
-0.231803 -0.030178 0.075659
-0.227052 -0.031821 0.077697
-0.222324 -0.033457 0.079725
-0.217618 -0.035086 0.081744
-0.214353 -0.035897 0.082125
-0.209681 -0.037514 0.084132
-0.206437 -0.038320 0.084509
-0.203200 -0.039124 0.084885
-0.198576 -0.040726 0.086876
-0.195359 -0.041524 0.087248
-0.192149 -0.042320 0.087619
-0.188947 -0.043115 0.087990
-0.185753 -0.043908 0.088359
-0.183933 -0.043908 0.087124
-0.180748 -0.044699 0.087495
-0.176212 -0.046275 0.089463
-0.173047 -0.047061 0.089830
-0.169889 -0.047844 0.090195
-0.166738 -0.048626 0.090560
-0.164931 -0.048626 0.089333
-0.161789 -0.049407 0.089698
-0.159984 -0.049407 0.088473
-0.156851 -0.050185 0.088839
-0.153726 -0.050962 0.089204
-0.150608 -0.051737 0.089568
-0.148809 -0.051737 0.088347
-0.145700 -0.052510 0.088711
-0.143903 -0.052510 0.087492
-0.140803 -0.053281 0.087857
-0.137710 -0.054051 0.088221
-0.135917 -0.054051 0.087004
-0.132833 -0.054818 0.087369
-0.129756 -0.055585 0.087734
-0.127967 -0.055585 0.086519
-0.124899 -0.056349 0.086884
-0.123113 -0.056349 0.085671
-0.120054 -0.057112 0.086036
-0.117001 -0.057873 0.086401
-0.115219 -0.057873 0.085191
-0.112175 -0.058632 0.085556
-0.109139 -0.059389 0.085920
-0.107360 -0.059389 0.084713
-0.104332 -0.060145 0.085077
-0.102556 -0.060145 0.083871
-0.099537 -0.060899 0.084236
-0.097762 -0.060899 0.083032
-0.094752 -0.061652 0.083397
-0.092980 -0.061652 0.082194
-0.089978 -0.062402 0.082560
-0.088208 -0.062402 0.081359
-0.085215 -0.063152 0.081725
-0.083446 -0.063152 0.080525
-0.080462 -0.063899 0.080892
-0.078695 -0.063899 0.079693
-0.075720 -0.064645 0.080061
-0.073955 -0.064645 0.078863
-0.070988 -0.065389 0.079231
-0.070426 -0.064645 0.076467
-0.067463 -0.065389 0.076838
-0.065700 -0.065389 0.075641
-0.062746 -0.066131 0.076013
-0.060985 -0.066131 0.074818
-0.059224 -0.066131 0.073622
-0.056280 -0.066872 0.073996
-0.054522 -0.066872 0.072802
-0.051586 -0.067611 0.073176
-0.049829 -0.067611 0.071983
-0.048072 -0.067611 0.070790
-0.045147 -0.068349 0.071166
-0.043392 -0.068349 0.069975
-0.040476 -0.069085 0.070351
-0.038723 -0.069085 0.069161
-0.035815 -0.069819 0.069538
-0.034064 -0.069819 0.068349
-0.031164 -0.070551 0.068726
-0.029415 -0.070551 0.067539
-0.026523 -0.071282 0.067916
-0.024776 -0.071282 0.066730
-0.023029 -0.071282 0.065544
-0.020147 -0.072012 0.065924
-0.018402 -0.072012 0.064739
-0.015529 -0.072740 0.065119
-0.013786 -0.072740 0.063935
-0.012043 -0.072740 0.062752
-0.009180 -0.073466 0.063134
-0.007438 -0.073466 0.061952
-0.004584 -0.074190 0.062334
-0.002844 -0.074190 0.061153
0.000002 -0.074913 0.061535
0.001740 -0.074913 0.060356
0.004578 -0.075635 0.060739
0.006314 -0.075635 0.059561
0.009144 -0.076355 0.059944
0.010878 -0.076355 0.058767
0.012612 -0.076355 0.057590
0.015432 -0.077073 0.057975
0.017164 -0.077073 0.056800
0.019976 -0.077790 0.057185
0.021706 -0.077790 0.056011
0.023436 -0.077790 0.054837
0.027308 -0.079218 0.056782
0.029035 -0.079218 0.055610
0.031825 -0.079930 0.055996
0.033549 -0.079930 0.054825
0.036331 -0.080641 0.055212
0.038054 -0.080641 0.054042
0.039776 -0.080641 0.052873
0.041498 -0.080641 0.051704
0.044269 -0.081350 0.052093
0.045989 -0.081350 0.050925
0.048752 -0.082057 0.051314
0.050471 -0.082057 0.050148
0.052189 -0.082057 0.048981
0.054942 -0.082763 0.049372
0.056659 -0.082763 0.048207
0.059404 -0.083467 0.048598
0.061119 -0.083467 0.047434
0.062834 -0.083467 0.046270
0.065569 -0.084170 0.046663
0.067282 -0.084170 0.045500
0.070010 -0.084871 0.045894
0.072732 -0.085571 0.046287
0.074441 -0.085571 0.045126
0.076151 -0.085571 0.043966
0.078863 -0.086269 0.044360
0.080570 -0.086269 0.043201
0.310220 -0.245546 0.397282
0.317120 -0.249475 0.405180
0.322815 -0.252574 0.411235
0.325722 -0.253726 0.412949
0.329156 -0.255253 0.415507
0.332569 -0.256770 0.418049
0.335428 -0.257902 0.419731
0.338802 -0.259402 0.422246
0.341105 -0.260149 0.423073
0.343401 -0.260893 0.423898
0.345169 -0.261265 0.423887
0.346934 -0.261635 0.423875
0.349214 -0.262375 0.424696
0.350972 -0.262744 0.424685
0.353751 -0.263848 0.426331
0.355500 -0.264214 0.426318
0.357754 -0.264946 0.427130
0.359495 -0.265311 0.427117
0.361738 -0.266039 0.427926
0.363472 -0.266402 0.427912
0.365204 -0.266765 0.427898
0.367430 -0.267489 0.428703
0.368659 -0.267489 0.427869
0.369888 -0.267489 0.427035
0.371611 -0.267850 0.427021
0.372839 -0.267850 0.426188
0.374558 -0.268210 0.426175
0.375785 -0.268210 0.425342
0.377500 -0.268570 0.425330
0.378726 -0.268570 0.424498
0.380438 -0.268930 0.424486
0.381663 -0.268930 0.423654
0.383371 -0.269288 0.423643
0.384596 -0.269288 0.422812
0.385820 -0.269288 0.421981
0.386564 -0.268930 0.420328
0.387789 -0.268930 0.419496
0.388535 -0.268570 0.417839
0.389761 -0.268570 0.417007
0.390987 -0.268570 0.416175
0.391736 -0.268210 0.414514
0.392963 -0.268210 0.413681
0.393714 -0.267850 0.412017
0.394942 -0.267850 0.411183
0.395695 -0.267489 0.409516
0.396924 -0.267489 0.408682
0.397679 -0.267127 0.407011
0.398436 -0.266765 0.405338
0.399667 -0.266765 0.404503
0.399953 -0.266039 0.401984
0.399765 -0.264946 0.398611
0.400052 -0.264214 0.396074
0.398910 -0.262375 0.390960
0.397759 -0.260521 0.385806
0.396116 -0.258278 0.379738
0.394944 -0.256391 0.374494
0.393272 -0.254108 0.368318
0.392078 -0.252189 0.362983
0.390378 -0.249865 0.356697
0.389161 -0.247911 0.351267
0.387432 -0.245546 0.344867
0.386192 -0.243557 0.339340
0.384432 -0.241148 0.332824
0.383170 -0.239123 0.327197
0.381379 -0.236671 0.320561
0.380092 -0.234609 0.314832
0.378269 -0.232111 0.308073
0.376957 -0.230011 0.302239
0.374567 -0.227041 0.294351
0.373226 -0.224898 0.288399
0.371332 -0.222302 0.281373
0.369419 -0.219679 0.274274
0.366935 -0.216585 0.266054
0.364977 -0.213903 0.258797
0.232868 -0.105883 0.002614
0.234524 -0.105883 0.001490
0.236985 -0.106538 0.001916
0.238639 -0.106538 0.000794
0.240293 -0.106538 -0.000329
0.241947 -0.106538 -0.001452
0.243601 -0.106538 -0.002575
0.244458 -0.105883 -0.005254
0.246113 -0.105883 -0.006378
0.247769 -0.105883 -0.007502
0.249425 -0.105883 -0.008626
0.251080 -0.105883 -0.009750
0.252736 -0.105883 -0.010874
0.254392 -0.105883 -0.011998
0.256048 -0.105883 -0.013122
0.257703 -0.105883 -0.014246
0.259359 -0.105883 -0.015370
0.261015 -0.105883 -0.016493
0.262670 -0.105883 -0.017617
0.264326 -0.105883 -0.018741
0.265982 -0.105883 -0.019865
0.267637 -0.105883 -0.020989
0.269293 -0.105883 -0.022113
0.270949 -0.105883 -0.023237
0.272604 -0.105883 -0.024361
0.274260 -0.105883 -0.025485
0.275916 -0.105883 -0.026609
0.277572 -0.105883 -0.027733
0.279227 -0.105883 -0.028857
0.280883 -0.105883 -0.029981
0.282539 -0.105883 -0.031105
0.284194 -0.105883 -0.032229
0.285850 -0.105883 -0.033353
0.286752 -0.105226 -0.036067
0.288409 -0.105226 -0.037192
0.290067 -0.105226 -0.038317
0.291724 -0.105226 -0.039442
0.293381 -0.105226 -0.040567
0.295039 -0.105226 -0.041693
0.296696 -0.105226 -0.042818
0.297610 -0.104568 -0.045545
0.299269 -0.104568 -0.046671
0.301668 -0.105226 -0.046193
0.302588 -0.104568 -0.048924
0.304247 -0.104568 -0.050050
0.305170 -0.103909 -0.052787
0.306831 -0.103909 -0.053915
0.307757 -0.103248 -0.056659
0.309420 -0.103248 -0.057788
0.309616 -0.101923 -0.062165
0.311282 -0.101923 -0.063296
0.312948 -0.101923 -0.064427
0.313884 -0.101258 -0.067191
0.315552 -0.101258 -0.068323
0.316492 -0.100592 -0.071094
0.318162 -0.100592 -0.072228
0.319105 -0.099924 -0.075006
0.320776 -0.099924 -0.076140
0.322448 -0.099924 -0.077275
0.323397 -0.099255 -0.080061
0.325070 -0.099255 -0.081197
0.326023 -0.098585 -0.083991
0.327698 -0.098585 -0.085128
0.328654 -0.097913 -0.087928
0.331048 -0.098585 -0.087402
0.331291 -0.097240 -0.091874
0.332970 -0.097240 -0.093014
0.333934 -0.096565 -0.095828
0.335614 -0.096565 -0.096969
0.336582 -0.095889 -0.099791
0.338264 -0.095889 -0.100933
0.339236 -0.095211 -0.103762
0.340920 -0.095211 -0.104905
0.342604 -0.095211 -0.106049
0.343581 -0.094532 -0.108886
0.345267 -0.094532 -0.110031
0.346248 -0.093851 -0.112876
0.347936 -0.093851 -0.114021
0.348921 -0.093170 -0.116873
0.350610 -0.093170 -0.118020
0.351600 -0.092486 -0.120880
0.352591 -0.091801 -0.123746
0.354284 -0.091801 -0.124895
0.355279 -0.091115 -0.127768
0.356974 -0.091115 -0.128918
0.357973 -0.090427 -0.131799
0.359669 -0.090427 -0.132951
0.360672 -0.089738 -0.135839
0.362371 -0.089738 -0.136991
0.363378 -0.089047 -0.139887
0.364387 -0.088355 -0.142788
0.365399 -0.087661 -0.145696
0.366412 -0.086966 -0.148610
0.368118 -0.086966 -0.149768
0.369136 -0.086269 -0.152690
0.370155 -0.085571 -0.155618
0.371177 -0.084871 -0.158552
0.372202 -0.084170 -0.161493
0.372540 -0.082763 -0.166228
0.372189 -0.080641 -0.172784
0.369048 -0.075635 -0.186680
0.365858 -0.070551 -0.200790
0.291664 0.008039 -0.402057
0.293620 0.008039 -0.403385
0.295577 0.008039 -0.404713
0.297534 0.008039 -0.406041
0.299490 0.008039 -0.407369
0.300573 0.008956 -0.411040
0.302532 0.008956 -0.412370
0.304491 0.008956 -0.413700
0.306450 0.008956 -0.415030
0.308409 0.008956 -0.416360
0.309504 0.009875 -0.420046
0.311465 0.009875 -0.421377
0.313426 0.009875 -0.422709
0.315388 0.009875 -0.424040
0.317349 0.009875 -0.425372
0.318457 0.010796 -0.429074
0.320420 0.010796 -0.430407
0.322384 0.010796 -0.431740
0.324348 0.010796 -0.433074
0.326312 0.010796 -0.434407
0.328276 0.010796 -0.435740
0.329398 0.011720 -0.439459
0.331364 0.011720 -0.440794
0.333331 0.011720 -0.442129
0.335297 0.011720 -0.443464
0.337263 0.011720 -0.444799
0.339229 0.011720 -0.446133
0.340367 0.012646 -0.449871
0.342335 0.012646 -0.451207
0.343478 0.013575 -0.454955
0.345449 0.013575 -0.456294
0.346597 0.014505 -0.460053
0.348571 0.014505 -0.461392
0.349724 0.015438 -0.465163
0.351700 0.015438 -0.466504
0.352859 0.016374 -0.470286
0.354021 0.017311 -0.474076
0.355185 0.018251 -0.477877
-0.307596 -0.004948 0.038356
-0.300887 -0.007598 0.042316
-0.292654 -0.011101 0.047984
-0.286055 -0.013707 0.051875
-0.281049 -0.015433 0.054024
-0.274531 -0.018008 0.057870
-0.269583 -0.019714 0.059992
-0.264657 -0.021412 0.062104
-0.259756 -0.023102 0.064205
-0.254877 -0.024784 0.066297
-0.250022 -0.026457 0.068378
-0.245189 -0.028123 0.070450
-0.241849 -0.028953 0.070850
-0.237053 -0.030608 0.072909
-0.232279 -0.032254 0.074958
-0.228973 -0.033075 0.075350
-0.224235 -0.034710 0.077386
-0.219519 -0.036337 0.079413
-0.214825 -0.037957 0.081430
-0.211567 -0.038764 0.081811
-0.208316 -0.039569 0.082191
-0.203669 -0.041174 0.084193
-0.200439 -0.041973 0.084569
-0.197217 -0.042771 0.084944
-0.194001 -0.043567 0.085319
-0.190793 -0.044361 0.085692
-0.187593 -0.045153 0.086065
-0.184400 -0.045944 0.086437
-0.181214 -0.046732 0.086808
-0.176677 -0.048304 0.088778
-0.173511 -0.049087 0.089145
-0.170353 -0.049869 0.089512
-0.168544 -0.049869 0.088284
-0.165394 -0.050648 0.088650
-0.163587 -0.050648 0.087424
-0.160447 -0.051426 0.087791
-0.157314 -0.052202 0.088158
-0.155511 -0.052202 0.086934
-0.152387 -0.052977 0.087301
-0.149270 -0.053749 0.087667
-0.147472 -0.053749 0.086446
-0.144364 -0.054520 0.086813
-0.141263 -0.055289 0.087179
-0.139469 -0.055289 0.085961
-0.136377 -0.056057 0.086327
-0.133292 -0.056822 0.086693
-0.131502 -0.056822 0.085477
-0.128426 -0.057586 0.085844
-0.126638 -0.057586 0.084630
-0.123571 -0.058348 0.084996
-0.120511 -0.059109 0.085362
-0.118727 -0.059109 0.084151
-0.115676 -0.059867 0.084517
-0.112632 -0.060624 0.084883
-0.110852 -0.060624 0.083674
-0.107816 -0.061380 0.084041
-0.106038 -0.061380 0.082833
-0.103012 -0.062133 0.083200
-0.101235 -0.062133 0.081994
-0.098218 -0.062885 0.082361
-0.096443 -0.062885 0.081157
-0.093434 -0.063635 0.081525
-0.091662 -0.063635 0.080321
-0.088662 -0.064384 0.080690
-0.085668 -0.065131 0.081057
-0.083900 -0.065131 0.079857
-0.082131 -0.065131 0.078656
-0.079148 -0.065876 0.079025
-0.077382 -0.065876 0.077826
-0.074408 -0.066619 0.078196
-0.072643 -0.066619 0.076998
-0.070878 -0.066619 0.075800
-0.069114 -0.066619 0.074602
-0.066152 -0.067361 0.074975
-0.064390 -0.067361 0.073779
-0.062627 -0.067361 0.072582
-0.059676 -0.068102 0.072957
-0.057915 -0.068102 0.071762
-0.054973 -0.068840 0.072137
-0.053214 -0.068840 0.070943
-0.050280 -0.069577 0.071319
-0.048523 -0.069577 0.070127
-0.046766 -0.069577 0.068934
-0.043843 -0.070312 0.069312
-0.042088 -0.070312 0.068121
-0.039172 -0.071046 0.068499
-0.037420 -0.071046 0.067309
-0.034513 -0.071778 0.067687
-0.032762 -0.071778 0.066499
-0.029863 -0.072509 0.066878
-0.028114 -0.072509 0.065691
-0.026365 -0.072509 0.064503
-0.023477 -0.073238 0.064884
-0.021730 -0.073238 0.063698
-0.018850 -0.073965 0.064080
-0.017105 -0.073965 0.062895
-0.014233 -0.074690 0.063277
-0.012490 -0.074690 0.062093
-0.010747 -0.074690 0.060910
-0.007885 -0.075414 0.061294
-0.006144 -0.075414 0.060112
-0.003290 -0.076137 0.060496
-0.001551 -0.076137 0.059315
0.001294 -0.076858 0.059699
0.003032 -0.076858 0.058520
0.005869 -0.077577 0.058905
0.007604 -0.077577 0.057727
0.009340 -0.077577 0.056548
0.012167 -0.078295 0.056935
0.013901 -0.078295 0.055758
0.016720 -0.079011 0.056145
0.018451 -0.079011 0.054970
0.021262 -0.079725 0.055357
0.022992 -0.079725 0.054183
0.024722 -0.079725 0.053009
0.028592 -0.081150 0.054958
0.030318 -0.081150 0.053786
0.033107 -0.081860 0.054174
0.034831 -0.081860 0.053004
0.036555 -0.081860 0.051833
0.038279 -0.081860 0.050663
0.041056 -0.082568 0.051053
0.042779 -0.082568 0.049884
0.045548 -0.083275 0.050275
0.047269 -0.083275 0.049107
0.048989 -0.083275 0.047939
0.051748 -0.083980 0.048332
0.053467 -0.083980 0.047165
0.056219 -0.084684 0.047558
0.057935 -0.084684 0.046393
0.059652 -0.084684 0.045227
0.062394 -0.085386 0.045622
0.064109 -0.085386 0.044458
0.066843 -0.086087 0.044853
0.068556 -0.086087 0.043690
0.071282 -0.086786 0.044086
0.072994 -0.086786 0.042924
0.075712 -0.087484 0.043320
0.077421 -0.087484 0.042160
0.305177 -0.244604 0.392344
0.312151 -0.248561 0.400320
0.319014 -0.252453 0.408168
0.323585 -0.254759 0.412473
0.326486 -0.255904 0.414182
0.329913 -0.257422 0.416731
0.333318 -0.258930 0.419265
0.336170 -0.260054 0.420942
0.339537 -0.261546 0.423449
0.341835 -0.262288 0.424273
0.343604 -0.262658 0.424261
0.345891 -0.263397 0.425083
0.347653 -0.263765 0.425070
0.349928 -0.264501 0.425888
0.352195 -0.265234 0.426703
0.353945 -0.265599 0.426690
0.356201 -0.266329 0.427502
0.357944 -0.266693 0.427488
0.360189 -0.267419 0.428297
0.361924 -0.267781 0.428283
0.364158 -0.268504 0.429089
0.365886 -0.268864 0.429073
0.367612 -0.269224 0.429058
0.368840 -0.269224 0.428225
0.370562 -0.269583 0.428210
0.371789 -0.269583 0.427377
0.373508 -0.269942 0.427364
0.374734 -0.269942 0.426531
0.376449 -0.270301 0.426518
0.377674 -0.270301 0.425686
0.379385 -0.270658 0.425674
0.380609 -0.270658 0.424843
0.382317 -0.271015 0.424831
0.383540 -0.271015 0.424001
0.384763 -0.271015 0.423170
0.385986 -0.271015 0.422340
0.387210 -0.271015 0.421510
0.387954 -0.270658 0.419857
0.389178 -0.270658 0.419026
0.389925 -0.270301 0.417370
0.391150 -0.270301 0.416538
0.391898 -0.269942 0.414879
0.393124 -0.269942 0.414047
0.394350 -0.269942 0.413214
0.395102 -0.269583 0.411551
0.395855 -0.269224 0.409886
0.397083 -0.269224 0.409052
0.397838 -0.268864 0.407383
0.398594 -0.268504 0.405712
0.399824 -0.268504 0.404877
0.399636 -0.267419 0.401518
0.399923 -0.266693 0.398991
0.399735 -0.265599 0.395606
0.398592 -0.263765 0.390491
0.396958 -0.261546 0.384468
0.395794 -0.259680 0.379264
0.394133 -0.257422 0.373136
0.392948 -0.255523 0.367841
0.391258 -0.253225 0.361603
0.390050 -0.251292 0.356215
0.388332 -0.248953 0.349865
0.386597 -0.246590 0.343453
0.385353 -0.244604 0.337916
0.383587 -0.242199 0.331388
0.382320 -0.240177 0.325750
0.380523 -0.237728 0.319102
0.379232 -0.235668 0.313362
0.377929 -0.233591 0.307574
0.376086 -0.231076 0.300745
0.374225 -0.228536 0.293846
0.372344 -0.225969 0.286877
0.370987 -0.223810 0.280863
0.368524 -0.220757 0.272725
0.366585 -0.218111 0.265539
0.364626 -0.215437 0.258279
0.231632 -0.107081 0.000436
0.233289 -0.107081 -0.000689
0.234946 -0.107081 -0.001814
0.236604 -0.107081 -0.002939
0.238261 -0.107081 -0.004064
0.239919 -0.107081 -0.005189
0.241576 -0.107081 -0.006314
0.243234 -0.107081 -0.007440
0.244891 -0.107081 -0.008565
0.246548 -0.107081 -0.009690
0.248206 -0.107081 -0.010815
0.249863 -0.107081 -0.011940
0.251521 -0.107081 -0.013065
0.253178 -0.107081 -0.014190
0.254836 -0.107081 -0.015316
0.256493 -0.107081 -0.016441
0.258150 -0.107081 -0.017566
0.259808 -0.107081 -0.018691
0.261465 -0.107081 -0.019816
0.263123 -0.107081 -0.020941
0.264780 -0.107081 -0.022066
0.266437 -0.107081 -0.023192
0.268095 -0.107081 -0.024317
0.269752 -0.107081 -0.025442
0.271410 -0.107081 -0.026567
0.273067 -0.107081 -0.027692
0.274725 -0.107081 -0.028817
0.276382 -0.107081 -0.029942
0.278039 -0.107081 -0.031067
0.279697 -0.107081 -0.032193
0.281354 -0.107081 -0.033318
0.283012 -0.107081 -0.034443
0.284669 -0.107081 -0.035568
0.285571 -0.106425 -0.038287
0.287230 -0.106425 -0.039414
0.288889 -0.106425 -0.040540
0.290548 -0.106425 -0.041666
0.292207 -0.106425 -0.042793
0.293866 -0.106425 -0.043919
0.295525 -0.106425 -0.045045
0.297185 -0.106425 -0.046171
0.298844 -0.106425 -0.047298
0.299761 -0.105768 -0.050032
0.301422 -0.105768 -0.051160
0.302343 -0.105109 -0.053901
0.304005 -0.105109 -0.055030
0.304930 -0.104449 -0.057778
0.306594 -0.104449 -0.058908
0.308259 -0.104449 -0.060038
0.308453 -0.103125 -0.064424
0.310121 -0.103125 -0.065557
0.311055 -0.102460 -0.068325
0.312724 -0.102460 -0.069458
0.313662 -0.101795 -0.072233
0.315333 -0.101795 -0.073368
0.316275 -0.101128 -0.076150
0.317948 -0.101128 -0.077286
0.319621 -0.101128 -0.078422
0.320568 -0.100459 -0.081212
0.322243 -0.100459 -0.082349
0.323194 -0.099789 -0.085147
0.324871 -0.099789 -0.086285
0.326547 -0.099789 -0.087423
0.328224 -0.099789 -0.088562
0.329182 -0.099118 -0.091369
0.330142 -0.098445 -0.094182
0.331105 -0.097771 -0.097001
0.332787 -0.097771 -0.098143
0.333753 -0.097095 -0.100969
0.335436 -0.097095 -0.102112
0.336406 -0.096418 -0.104946
0.338092 -0.096418 -0.106090
0.339066 -0.095740 -0.108931
0.340753 -0.095740 -0.110077
0.342441 -0.095740 -0.111222
0.343420 -0.095060 -0.114071
0.345109 -0.095060 -0.115218
0.346093 -0.094379 -0.118075
0.347784 -0.094379 -0.119223
0.348771 -0.093696 -0.122087
0.350464 -0.093696 -0.123236
0.351455 -0.093011 -0.126107
0.352448 -0.092326 -0.128985
0.354145 -0.092326 -0.130137
0.355142 -0.091638 -0.133021
0.356840 -0.091638 -0.134174
0.357841 -0.090950 -0.137067
0.359542 -0.090950 -0.138221
0.360547 -0.090259 -0.141121
0.361554 -0.089568 -0.144027
0.363258 -0.089568 -0.145183
0.364269 -0.088875 -0.148097
0.365283 -0.088180 -0.151017
0.366298 -0.087484 -0.153943
0.367316 -0.086786 -0.156876
0.368336 -0.086087 -0.159814
0.369359 -0.085386 -0.162760
0.371074 -0.085386 -0.163924
0.370718 -0.083275 -0.170466
0.368269 -0.079011 -0.182503
0.365080 -0.073965 -0.196550
0.289206 0.005849 -0.401468
0.291162 0.005849 -0.402796
0.293119 0.005849 -0.404124
0.295075 0.005849 -0.405452
0.297032 0.005849 -0.406780
0.298988 0.005849 -0.408109
0.300070 0.006763 -0.411780
0.302029 0.006763 -0.413110
0.303988 0.006763 -0.414440
0.305947 0.006763 -0.415770
0.307039 0.007680 -0.419456
0.309000 0.007680 -0.420787
0.310962 0.007680 -0.422119
0.312923 0.007680 -0.423450
0.314885 0.007680 -0.424782
0.315989 0.008599 -0.428483
0.317953 0.008599 -0.429816
0.319917 0.008599 -0.431149
0.321880 0.008599 -0.432482
0.323844 0.008599 -0.433816
0.324961 0.009520 -0.437533
0.326927 0.009520 -0.438868
0.328894 0.009520 -0.440202
0.330860 0.009520 -0.441537
0.332826 0.009520 -0.442872
0.334792 0.009520 -0.444207
0.336759 0.009520 -0.445541
0.338725 0.009520 -0.446876
0.339862 0.010443 -0.450615
0.341830 0.010443 -0.451951
0.342973 0.011369 -0.455700
0.344944 0.011369 -0.457038
0.346091 0.012297 -0.460798
0.348065 0.012297 -0.462138
0.349217 0.013227 -0.465909
0.351194 0.013227 -0.467251
0.352352 0.014159 -0.471033
0.354330 0.014159 -0.472376
0.354676 0.016032 -0.478626
-0.312916 -0.004444 0.032323
-0.302970 -0.008869 0.039838
-0.294717 -0.012370 0.045524
-0.288103 -0.014975 0.049429
-0.281536 -0.017560 0.053306
-0.276553 -0.019273 0.055446
-0.271593 -0.020978 0.057576
-0.266658 -0.022675 0.059696
-0.261745 -0.024364 0.061806
-0.256856 -0.026045 0.063906
-0.251990 -0.027718 0.065995
-0.247147 -0.029383 0.068075
-0.242327 -0.031040 0.070145
-0.238994 -0.031865 0.070545
-0.234210 -0.033511 0.072602
-0.229449 -0.035149 0.074649
-0.224709 -0.036779 0.076687
-0.219992 -0.038401 0.078716
-0.216720 -0.039210 0.079101
-0.212038 -0.040821 0.081116
-0.208787 -0.041624 0.081497
-0.205543 -0.042425 0.081878
-0.200909 -0.044021 0.083878
-0.197685 -0.044816 0.084254
-0.194469 -0.045610 0.084629
-0.191261 -0.046402 0.085003
-0.188060 -0.047192 0.085377
-0.184866 -0.047980 0.085750
-0.181680 -0.048766 0.086121
-0.178501 -0.049550 0.086492
-0.175329 -0.050333 0.086862
-0.170817 -0.051893 0.088828
-0.169008 -0.051893 0.087600
-0.167199 -0.051893 0.086372
-0.164051 -0.052671 0.086741
-0.160910 -0.053446 0.087109
-0.159105 -0.053446 0.085884
-0.155973 -0.054220 0.086253
-0.154171 -0.054220 0.085029
-0.151048 -0.054992 0.085398
-0.147933 -0.055762 0.085767
-0.144825 -0.056531 0.086134
-0.143028 -0.056531 0.084915
-0.139929 -0.057297 0.085283
-0.136837 -0.058063 0.085650
-0.135044 -0.058063 0.084433
-0.131961 -0.058826 0.084801
-0.130171 -0.058826 0.083585
-0.127096 -0.059587 0.083954
-0.124029 -0.060347 0.084321
-0.122243 -0.060347 0.083109
-0.119184 -0.061106 0.083477
-0.116133 -0.061862 0.083844
-0.114351 -0.061862 0.082634
-0.111308 -0.062617 0.083002
-0.109528 -0.062617 0.081793
-0.106494 -0.063370 0.082161
-0.104716 -0.063370 0.080954
-0.101691 -0.064121 0.081323
-0.099914 -0.064121 0.080117
-0.096898 -0.064871 0.080486
-0.095124 -0.064871 0.079282
-0.092116 -0.065619 0.079652
-0.090344 -0.065619 0.078448
-0.087345 -0.066365 0.078819
-0.085575 -0.066365 0.077617
-0.082585 -0.067110 0.077988
-0.080816 -0.067110 0.076787
-0.077835 -0.067853 0.077159
-0.076068 -0.067853 0.075959
-0.073096 -0.068594 0.076331
-0.072535 -0.067853 0.073561
-0.069566 -0.068594 0.073936
-0.067802 -0.068594 0.072738
-0.066037 -0.068594 0.071540
-0.063079 -0.069334 0.071916
-0.061316 -0.069334 0.070720
-0.058367 -0.070072 0.071097
-0.056606 -0.070072 0.069901
-0.053665 -0.070808 0.070279
-0.051906 -0.070808 0.069085
-0.050148 -0.070808 0.067891
-0.047217 -0.071543 0.068270
-0.045460 -0.071543 0.067078
-0.042538 -0.072276 0.067458
-0.040783 -0.072276 0.066266
-0.037869 -0.073008 0.066647
-0.036116 -0.073008 0.065457
-0.033211 -0.073738 0.065837
-0.031460 -0.073738 0.064649
-0.029709 -0.073738 0.063460
-0.026814 -0.074466 0.063843
-0.025065 -0.074466 0.062655
-0.022178 -0.075193 0.063038
-0.020431 -0.075193 0.061852
-0.017552 -0.075918 0.062236
-0.015807 -0.075918 0.061051
-0.014062 -0.075918 0.059866
-0.011194 -0.076641 0.060251
-0.009450 -0.076641 0.059068
-0.006590 -0.077363 0.059454
-0.004849 -0.077363 0.058272
-0.001997 -0.078083 0.058658
-0.000258 -0.078083 0.057477
0.002586 -0.078802 0.057863
0.004324 -0.078802 0.056684
0.006061 -0.078802 0.055504
0.008895 -0.079519 0.055893
0.010630 -0.079519 0.054715
0.013456 -0.080235 0.055103
0.015190 -0.080235 0.053926
0.018007 -0.080949 0.054315
0.019739 -0.080949 0.053140
0.021471 -0.080949 0.051964
0.024278 -0.081661 0.052355
0.026008 -0.081661 0.051181
0.029875 -0.083081 0.053134
0.031601 -0.083081 0.051962
0.033327 -0.083081 0.050791
0.035054 -0.083081 0.049619
0.037837 -0.083789 0.050011
0.039561 -0.083789 0.048841
0.042337 -0.084495 0.049233
0.044059 -0.084495 0.048064
0.045782 -0.084495 0.046895
0.048548 -0.085200 0.047289
0.050268 -0.085200 0.046121
0.053026 -0.085903 0.046516
0.054745 -0.085903 0.045349
0.056463 -0.085903 0.044182
0.059212 -0.086605 0.044579
0.060928 -0.086605 0.043413
0.063669 -0.087305 0.043810
0.065384 -0.087305 0.042646
0.067099 -0.087305 0.041482
0.069830 -0.088004 0.041880
0.072555 -0.088701 0.042278
0.074266 -0.088701 0.041116
0.076983 -0.089397 0.041514
0.307134 -0.247637 0.395413
0.314070 -0.251556 0.403339
0.320896 -0.255412 0.411138
0.324354 -0.256938 0.413708
0.327790 -0.258453 0.416261
0.330667 -0.259584 0.417952
0.334064 -0.261083 0.420478
0.336910 -0.262200 0.422150
0.340269 -0.263683 0.424648
0.342039 -0.264052 0.424636
0.344329 -0.264788 0.425457
0.346092 -0.265156 0.425444
0.348369 -0.265889 0.426262
0.350639 -0.266620 0.427076
0.352902 -0.267348 0.427888
0.354649 -0.267711 0.427874
0.356393 -0.268074 0.427860
0.358640 -0.268798 0.428668
0.360377 -0.269159 0.428654
0.362612 -0.269880 0.429459
0.364342 -0.270239 0.429443
0.366566 -0.270956 0.430246
0.367793 -0.270956 0.429413
0.369515 -0.271314 0.429397
0.370741 -0.271314 0.428565
0.372459 -0.271671 0.428550
0.373684 -0.271671 0.427719
0.375398 -0.272028 0.427705
0.376623 -0.272028 0.426874
0.378333 -0.272384 0.426860
0.379557 -0.272384 0.426030
0.381264 -0.272740 0.426017
0.382486 -0.272740 0.425187
0.384190 -0.273095 0.425175
0.385411 -0.273095 0.424346
0.386153 -0.272740 0.422698
0.387375 -0.272740 0.421868
0.388119 -0.272384 0.420217
0.389342 -0.272384 0.419387
0.390566 -0.272384 0.418556
0.391313 -0.272028 0.416901
0.392537 -0.272028 0.416070
0.393286 -0.271671 0.414412
0.394511 -0.271671 0.413580
0.395262 -0.271314 0.411919
0.396488 -0.271314 0.411087
0.397241 -0.270956 0.409422
0.397996 -0.270598 0.407754
0.399224 -0.270598 0.406921
0.399508 -0.269880 0.404412
0.399794 -0.269159 0.401895
0.399606 -0.268074 0.398525
0.399418 -0.266984 0.395138
0.397794 -0.264788 0.389162
0.396156 -0.262572 0.383128
0.394988 -0.260709 0.377915
0.393322 -0.258453 0.371775
0.392132 -0.256557 0.366470
0.390437 -0.254262 0.360221
0.389225 -0.252332 0.354823
0.387501 -0.249996 0.348461
0.386266 -0.248032 0.342967
0.384512 -0.245653 0.336490
0.383254 -0.243653 0.330897
0.381469 -0.241232 0.324301
0.380187 -0.239195 0.318606
0.378371 -0.236729 0.311889
0.377063 -0.234655 0.306090
0.375214 -0.232143 0.299248
0.373347 -0.229606 0.292336
0.371460 -0.227043 0.285353
0.370098 -0.224887 0.279328
0.368177 -0.222275 0.272213
0.366235 -0.219636 0.265024
0.228733 -0.108282 -0.000619
0.230393 -0.108282 -0.001746
0.232052 -0.108282 -0.002872
0.233711 -0.108282 -0.003998
0.235370 -0.108282 -0.005125
0.237029 -0.108282 -0.006251
0.238688 -0.108282 -0.007377
0.240348 -0.108282 -0.008504
0.241203 -0.107626 -0.011197
0.242864 -0.107626 -0.012325
0.244525 -0.107626 -0.013452
0.246186 -0.107626 -0.014580
0.248643 -0.108282 -0.014135
0.250303 -0.108282 -0.015262
0.251962 -0.108282 -0.016388
0.253621 -0.108282 -0.017514
0.255280 -0.108282 -0.018640
0.256939 -0.108282 -0.019767
0.258598 -0.108282 -0.020893
0.260258 -0.108282 -0.022019
0.261917 -0.108282 -0.023146
0.263576 -0.108282 -0.024272
0.265235 -0.108282 -0.025398
0.266894 -0.108282 -0.026525
0.268553 -0.108282 -0.027651
0.270213 -0.108282 -0.028777
0.271872 -0.108282 -0.029904
0.273531 -0.108282 -0.031030
0.275190 -0.108282 -0.032156
0.276849 -0.108282 -0.033283
0.278508 -0.108282 -0.034409
0.280167 -0.108282 -0.035535
0.281065 -0.107626 -0.038257
0.282726 -0.107626 -0.039385
0.284387 -0.107626 -0.040512
0.286048 -0.107626 -0.041640
0.287709 -0.107626 -0.042767
0.289370 -0.107626 -0.043895
0.291030 -0.107626 -0.045022
0.292691 -0.107626 -0.046150
0.294352 -0.107626 -0.047277
0.296013 -0.107626 -0.048405
0.296928 -0.106970 -0.051143
0.298591 -0.106970 -0.052272
0.299510 -0.106311 -0.055017
0.301174 -0.106311 -0.056147
0.302097 -0.105652 -0.058899
0.303763 -0.105652 -0.060031
0.305429 -0.105652 -0.061162
0.306357 -0.104991 -0.063922
0.307287 -0.104329 -0.066689
0.308219 -0.103665 -0.069461
0.309891 -0.103665 -0.070595
0.310826 -0.103000 -0.073375
0.312499 -0.103000 -0.074511
0.313439 -0.102333 -0.077297
0.315114 -0.102333 -0.078434
0.316789 -0.102333 -0.079571
0.317734 -0.101666 -0.082366
0.319410 -0.101666 -0.083504
0.320359 -0.100996 -0.086306
0.322038 -0.100996 -0.087445
0.323716 -0.100996 -0.088585
0.325395 -0.100996 -0.089724
0.326351 -0.100326 -0.092535
0.328031 -0.100326 -0.093676
0.328269 -0.098980 -0.098176
0.329953 -0.098980 -0.099319
0.330917 -0.098305 -0.102150
0.332603 -0.098305 -0.103294
0.333571 -0.097628 -0.106132
0.335258 -0.097628 -0.107278
0.336230 -0.096950 -0.110123
0.337919 -0.096950 -0.111269
0.339608 -0.096950 -0.112416
0.340586 -0.096271 -0.115270
0.342277 -0.096271 -0.116418
0.343258 -0.095590 -0.119279
0.344951 -0.095590 -0.120428
0.345936 -0.094908 -0.123296
0.347631 -0.094908 -0.124447
0.348620 -0.094224 -0.127323
0.349611 -0.093539 -0.130204
0.351310 -0.093539 -0.131357
0.352305 -0.092852 -0.134247
0.354005 -0.092852 -0.135401
0.355004 -0.092164 -0.138298
0.356706 -0.092164 -0.139453
0.357709 -0.091474 -0.142357
0.358715 -0.090783 -0.145268
0.360420 -0.090783 -0.146426
0.361430 -0.090091 -0.149344
0.362441 -0.089397 -0.152268
0.363455 -0.088701 -0.155199
0.364471 -0.088004 -0.158136
0.365489 -0.087305 -0.161079
0.367204 -0.087305 -0.162243
0.368226 -0.086605 -0.165194
0.369251 -0.085903 -0.168152
0.366795 -0.081661 -0.180161
0.363598 -0.076641 -0.194174
0.360351 -0.071543 -0.208405
0.288704 0.003660 -0.402207
0.290660 0.003660 -0.403535
0.292617 0.003660 -0.404863
0.294573 0.003660 -0.406192
0.295650 0.004571 -0.409861
0.297609 0.004571 -0.411191
0.299568 0.004571 -0.412520
0.301527 0.004571 -0.413850
0.302613 0.005485 -0.417534
0.304575 0.005485 -0.418865
0.306536 0.005485 -0.420197
0.308497 0.005485 -0.421528
0.310459 0.005485 -0.422860
0.312420 0.005485 -0.424191
0.313522 0.006401 -0.427892
0.315485 0.006401 -0.429225
0.317449 0.006401 -0.430558
0.319413 0.006401 -0.431891
0.321377 0.006401 -0.433224
0.323341 0.006401 -0.434557
0.324457 0.007319 -0.438276
0.326423 0.007319 -0.439610
0.328389 0.007319 -0.440945
0.330356 0.007319 -0.442280
0.332322 0.007319 -0.443615
0.334288 0.007319 -0.444950
0.336254 0.007319 -0.446284
0.338221 0.007319 -0.447619
0.339357 0.008240 -0.451358
0.340496 0.009163 -0.455107
0.342467 0.009163 -0.456445
0.343611 0.010088 -0.460204
0.345585 0.010088 -0.461544
0.347559 0.010088 -0.462884
0.348711 0.011015 -0.466656
0.350687 0.011015 -0.467997
0.351844 0.011945 -0.471781
0.353004 0.012877 -0.475573
0.354168 0.013812 -0.479376
-0.323173 -0.001243 0.020859
-0.303463 -0.011021 0.039111
-0.296785 -0.013643 0.043058
-0.290156 -0.016245 0.046977
-0.283574 -0.018829 0.050867
-0.278580 -0.020541 0.053016
-0.272078 -0.023094 0.056862
-0.268663 -0.023941 0.057283
-0.263740 -0.025629 0.059401
-0.258840 -0.027309 0.061509
-0.252471 -0.029814 0.065288
-0.249110 -0.030645 0.065695
-0.244280 -0.032301 0.067773
-0.240941 -0.033126 0.068175
-0.236147 -0.034771 0.070241
-0.231375 -0.036407 0.072296
-0.226626 -0.038036 0.074342
-0.221898 -0.039658 0.076378
-0.218620 -0.040466 0.076766
-0.213928 -0.042076 0.078790
-0.209258 -0.043679 0.080804
-0.206014 -0.044477 0.081185
-0.202777 -0.045274 0.081565
-0.199548 -0.046069 0.081944
-0.196326 -0.046862 0.082322
-0.193112 -0.047653 0.082700
-0.189905 -0.048442 0.083076
-0.186706 -0.049230 0.083452
-0.182146 -0.050800 0.085435
-0.178967 -0.051582 0.085807
-0.175794 -0.052362 0.086177
-0.172629 -0.053141 0.086548
-0.170818 -0.053141 0.085318
-0.167663 -0.053918 0.085689
-0.164514 -0.054693 0.086058
-0.162707 -0.054693 0.084832
-0.159568 -0.055466 0.085202
-0.157763 -0.055466 0.083977
-0.154633 -0.056237 0.084348
-0.151510 -0.057007 0.084718
-0.148394 -0.057775 0.085087
-0.146596 -0.057775 0.083866
-0.143489 -0.058541 0.084236
-0.140389 -0.059306 0.084605
-0.138595 -0.059306 0.083386
-0.135504 -0.060069 0.083756
-0.133711 -0.060069 0.082539
-0.130630 -0.060830 0.082909
-0.127555 -0.061589 0.083278
-0.125767 -0.061589 0.082064
-0.122701 -0.062347 0.082434
-0.119642 -0.063102 0.082802
-0.117858 -0.063102 0.081591
-0.114808 -0.063857 0.081960
-0.113025 -0.063857 0.080750
-0.109984 -0.064609 0.081120
-0.108204 -0.064609 0.079912
-0.105172 -0.065360 0.080282
-0.103393 -0.065360 0.079075
-0.100370 -0.066109 0.079446
-0.098593 -0.066109 0.078240
-0.095579 -0.066857 0.078611
-0.093804 -0.066857 0.077407
-0.090798 -0.067602 0.077779
-0.089026 -0.067602 0.076575
-0.086029 -0.068346 0.076948
-0.084258 -0.068346 0.075746
-0.081270 -0.069089 0.076119
-0.079501 -0.069089 0.074918
-0.076521 -0.069830 0.075292
-0.074755 -0.069830 0.074093
-0.072988 -0.069830 0.072894
-0.071222 -0.069830 0.071694
-0.069455 -0.069830 0.070495
-0.066490 -0.070569 0.070873
-0.064725 -0.070569 0.069675
-0.061769 -0.071306 0.070054
-0.060006 -0.071306 0.068857
-0.057058 -0.072042 0.069236
-0.055297 -0.072042 0.068041
-0.053536 -0.072042 0.066846
-0.050599 -0.072776 0.067227
-0.048840 -0.072776 0.066033
-0.045911 -0.073509 0.066414
-0.044154 -0.073509 0.065222
-0.041233 -0.074240 0.065603
-0.039478 -0.074240 0.064412
-0.036566 -0.074969 0.064794
-0.034813 -0.074969 0.063604
-0.033060 -0.074969 0.062414
-0.030158 -0.075697 0.062799
-0.028407 -0.075697 0.061610
-0.025513 -0.076423 0.061994
-0.023764 -0.076423 0.060807
-0.020879 -0.077148 0.061192
-0.019132 -0.077148 0.060006
-0.017385 -0.077148 0.058820
-0.014510 -0.077871 0.059207
-0.012764 -0.077871 0.058022
-0.009898 -0.078592 0.058409
-0.008154 -0.078592 0.057226
-0.005296 -0.079312 0.057614
-0.003554 -0.079312 0.056432
-0.000704 -0.080030 0.056820
0.001036 -0.080030 0.055639
0.002775 -0.080030 0.054458
0.005615 -0.080746 0.054848
0.007353 -0.080746 0.053669
