ply
format ascii 1.0
element vertex 1704
property float x
property float y
property float z
end_header
0.106606 0.271962 -0.364014
0.105040 0.270354 -0.368769
0.104881 0.269547 -0.372032
0.107543 0.270354 -0.372276
0.110199 0.271159 -0.372520
0.112849 0.271962 -0.372763
0.115494 0.272763 -0.373005
0.118132 0.273563 -0.373247
0.120765 0.274361 -0.373488
0.124770 0.275951 -0.372229
0.126012 0.275951 -0.373969
0.129997 0.277535 -0.372712
0.131236 0.277535 -0.374448
0.133839 0.278324 -0.374687
0.135076 0.278324 -0.376421
0.137672 0.279111 -0.376657
0.138909 0.279111 -0.378389
0.141498 0.279896 -0.378623
0.144081 0.280680 -0.378856
0.145314 0.280680 -0.380585
0.147890 0.281462 -0.380815
0.149122 0.281462 -0.382542
0.151691 0.282242 -0.382770
0.152922 0.282242 -0.384495
0.155484 0.283021 -0.384721
0.158040 0.283798 -0.384946
0.159268 0.283798 -0.386667
0.161817 0.284573 -0.386890
0.163044 0.284573 -0.388609
0.165586 0.285346 -0.388829
0.166812 0.285346 -0.390546
0.169347 0.286118 -0.390765
0.170571 0.286118 -0.392480
0.173099 0.286888 -0.392695
0.175622 0.287656 -0.392911
0.176844 0.287656 -0.394622
0.179360 0.288423 -0.394835
0.180579 0.288423 -0.396545
0.183089 0.289188 -0.396755
0.184307 0.289188 -0.398463
0.186809 0.289951 -0.398671
0.189306 0.290713 -0.398879
0.190522 0.290713 -0.400583
0.193012 0.291473 -0.400789
0.194227 0.291473 -0.402491
0.197976 0.292988 -0.401199
0.199188 0.292988 -0.402897
0.201660 0.293743 -0.403099
0.202871 0.293743 -0.404796
0.205337 0.294496 -0.404996
0.207797 0.295248 -0.405195
0.209005 0.295248 -0.406888
0.211459 0.295998 -0.407086
0.212666 0.295998 -0.408776
0.215113 0.296746 -0.408972
0.217555 0.297493 -0.409166
0.219991 0.298238 -0.409361
0.221194 0.298238 -0.411046
0.222396 0.298238 -0.412731
0.223599 0.298238 -0.414417
0.226027 0.298982 -0.414605
0.227228 0.298982 -0.416289
0.228429 0.298982 -0.417972
0.230849 0.299724 -0.418157
0.232049 0.299724 -0.419838
0.233249 0.299724 -0.421520
0.235661 0.300464 -0.421700
0.236860 0.300464 -0.423380
0.239265 0.301203 -0.423558
0.240462 0.301203 -0.425236
0.241660 0.301203 -0.426915
0.244058 0.301940 -0.427089
0.245254 0.301940 -0.428765
0.247645 0.302676 -0.428937
0.250031 0.303410 -0.429109
0.251224 0.303410 -0.430781
0.253604 0.304142 -0.430951
0.254796 0.304142 -0.432622
0.255989 0.304142 -0.434292
0.258361 0.304873 -0.434458
0.259552 0.304873 -0.436127
0.260743 0.304873 -0.437796
0.263107 0.305602 -0.437958
0.263125 0.304873 -0.441134
0.264316 0.304873 -0.442803
0.265507 0.304873 -0.444472
0.266698 0.304873 -0.446141
0.267889 0.304873 -0.447811
0.269081 0.304873 -0.449480
0.270272 0.304873 -0.451149
0.271463 0.304873 -0.452818
0.272654 0.304873 -0.454487
0.273845 0.304873 -0.456156
0.275036 0.304873 -0.457825
0.276227 0.304873 -0.459494
0.277418 0.304873 -0.461163
0.278609 0.304873 -0.462832
0.279800 0.304873 -0.464501
0.278679 0.303410 -0.469252
0.276388 0.301203 -0.475578
-0.283232 0.231091 0.016071
-0.274182 0.234652 0.018727
-0.265217 0.238180 0.021358
-0.256335 0.241675 0.023965
-0.249405 0.244275 0.025450
-0.244381 0.245998 0.025832
-0.237532 0.248567 0.027303
-0.232565 0.250270 0.027678
-0.229449 0.251119 0.026967
-0.224518 0.252811 0.027342
-0.219609 0.254494 0.027715
-0.216526 0.255333 0.027008
-0.211652 0.257005 0.027381
-0.208588 0.257839 0.026677
-0.203749 0.259499 0.027049
-0.202482 0.259499 0.025273
-0.197668 0.261152 0.025648
-0.194638 0.261976 0.024949
-0.191615 0.262798 0.024253
-0.186847 0.264436 0.024628
-0.183843 0.265253 0.023934
-0.179109 0.266880 0.024309
-0.176123 0.267690 0.023617
-0.173145 0.268499 0.022928
-0.168456 0.270112 0.023303
-0.165496 0.270915 0.022616
-0.162543 0.271717 0.021931
-0.159596 0.272517 0.021247
-0.156656 0.273315 0.020564
-0.152035 0.274906 0.020942
-0.149113 0.275699 0.020263
-0.146198 0.276490 0.019584
-0.143289 0.277279 0.018908
-0.140387 0.278067 0.018232
-0.137491 0.278853 0.017559
-0.132949 0.280419 0.017940
-0.130070 0.281199 0.017269
-0.127199 0.281978 0.016600
-0.124333 0.282755 0.015931
-0.121474 0.283531 0.015265
-0.116997 0.285077 0.015649
-0.115774 0.285077 0.013936
-0.112934 0.285847 0.013273
-0.110100 0.286615 0.012613
-0.107272 0.287382 0.011953
-0.104450 0.288148 0.011295
-0.101635 0.288911 0.010639
-0.098826 0.289673 0.009984
-0.094437 0.291192 0.010376
-0.091645 0.291949 0.009723
-0.090434 0.291949 0.008027
-0.087649 0.292704 0.007378
-0.086440 0.292704 0.005683
-0.083662 0.293458 0.005037
-0.080891 0.294210 0.004392
-0.079684 0.294210 0.002701
-0.076920 0.294960 0.002060
-0.075715 0.294960 0.000371
-0.072958 0.295709 -0.000267
-0.070207 0.296456 -0.000904
-0.069004 0.296456 -0.002590
-0.066260 0.297202 -0.003223
-0.065059 0.297202 -0.004907
-0.062322 0.297945 -0.005537
-0.059592 0.298688 -0.006166
-0.056867 0.299428 -0.006794
-0.055670 0.299428 -0.008472
-0.052952 0.300168 -0.009097
-0.051756 0.300168 -0.010773
-0.049045 0.300905 -0.011395
-0.047850 0.300905 -0.013069
-0.045147 0.301641 -0.013687
-0.042450 0.302375 -0.014304
-0.041257 0.302375 -0.015975
-0.038567 0.303108 -0.016589
-0.035882 0.303839 -0.017202
-0.034692 0.303839 -0.018869
-0.032015 0.304569 -0.019479
-0.029343 0.305297 -0.020087
-0.026676 0.306024 -0.020694
-0.025490 0.306024 -0.022356
-0.024304 0.306024 -0.024018
-0.021646 0.306749 -0.024620
-0.020462 0.306749 -0.026280
-0.017810 0.307472 -0.026879
-0.016627 0.307472 -0.028537
-0.013983 0.308194 -0.029133
-0.012801 0.308194 -0.030790
-0.011618 0.308194 -0.032446
-0.008982 0.308914 -0.033038
-0.007801 0.308914 -0.034692
-0.005172 0.309633 -0.035281
-0.003992 0.309633 -0.036934
-0.002812 0.309633 -0.038587
-0.000191 0.310350 -0.039170
0.002424 0.311066 -0.039752
0.003601 0.311066 -0.041402
0.004779 0.311066 -0.043052
0.007386 0.311780 -0.043629
0.008562 0.311780 -0.045277
0.011163 0.312493 -0.045852
0.012338 0.312493 -0.047498
0.014932 0.313204 -0.048069
0.016105 0.313204 -0.049714
0.017279 0.313204 -0.051358
0.019865 0.313914 -0.051925
0.021037 0.313914 -0.053567
0.023617 0.314623 -0.054131
0.024788 0.314623 -0.055772
0.025959 0.314623 -0.057413
0.028530 0.315329 -0.057973
0.029700 0.315329 -0.059612
0.030870 0.315329 -0.061251
0.032040 0.315329 -0.062890
0.034602 0.316035 -0.063443
0.035771 0.316035 -0.065081
0.038327 0.316738 -0.065631
0.039494 0.316738 -0.067266
0.040661 0.316738 -0.068902
0.043209 0.317441 -0.069448
0.044375 0.317441 -0.071082
0.046917 0.318142 -0.071624
0.048082 0.318142 -0.073257
0.050617 0.318841 -0.073796
0.051780 0.318841 -0.075427
0.054309 0.319539 -0.075964
0.055471 0.319539 -0.077593
0.056634 0.319539 -0.079222
0.057796 0.319539 -0.080851
0.058958 0.319539 -0.082480
0.060121 0.319539 -0.084108
0.062638 0.320235 -0.084636
0.063799 0.320235 -0.086263
0.064960 0.320235 -0.087890
0.066122 0.320235 -0.089517
0.067283 0.320235 -0.091145
0.069790 0.320930 -0.091664
0.070950 0.320930 -0.093289
0.072110 0.320930 -0.094915
0.073270 0.320930 -0.096540
0.074430 0.320930 -0.098166
0.076927 0.321624 -0.098677
0.078086 0.321624 -0.100301
0.077910 0.320930 -0.103042
0.080403 0.321624 -0.103549
0.081562 0.321624 -0.105173
0.082721 0.321624 -0.106796
0.083880 0.321624 -0.108420
0.085039 0.321624 -0.110044
0.086197 0.321624 -0.111668
0.087356 0.321624 -0.113292
0.088515 0.321624 -0.114915
0.088350 0.320930 -0.117672
0.089510 0.320930 -0.119297
0.090670 0.320930 -0.120923
0.091830 0.320930 -0.122548
0.092990 0.320930 -0.124174
0.092830 0.320235 -0.126943
0.093991 0.320235 -0.128570
0.095153 0.320235 -0.130197
0.094994 0.319539 -0.132975
0.096157 0.319539 -0.134604
0.097319 0.319539 -0.136233
0.097163 0.318841 -0.139020
0.097007 0.318142 -0.141814
0.098172 0.318142 -0.143446
0.098016 0.317441 -0.146247
0.097861 0.316738 -0.149053
0.099028 0.316738 -0.150689
0.098873 0.316035 -0.153503
0.098718 0.315329 -0.156324
0.099888 0.315329 -0.157963
0.099733 0.314623 -0.160791
0.099579 0.313914 -0.163624
0.100751 0.313914 -0.165267
0.100597 0.313204 -0.168109
0.100443 0.312493 -0.170956
0.100289 0.311780 -0.173810
0.101465 0.311780 -0.175458
0.101311 0.311066 -0.178319
0.102489 0.311066 -0.179969
0.102336 0.310350 -0.182838
0.102183 0.309633 -0.185713
0.102030 0.308914 -0.188595
0.103211 0.308914 -0.190249
0.103059 0.308194 -0.193139
0.102906 0.307472 -0.196034
0.104090 0.307472 -0.197692
0.103938 0.306749 -0.200596
0.103786 0.306024 -0.203505
0.103634 0.305297 -0.206421
0.103481 0.304569 -0.209343
0.104670 0.304569 -0.211009
0.104518 0.303839 -0.213939
0.104366 0.303108 -0.216875
0.104214 0.302375 -0.219818
0.104061 0.301641 -0.222767
0.103908 0.300905 -0.225722
0.102404 0.299428 -0.229974
0.102249 0.298688 -0.232947
0.102093 0.297945 -0.235926
0.101937 0.297202 -0.238911
0.103138 0.297202 -0.240595
0.104340 0.297202 -0.242278
0.104186 0.296456 -0.245274
0.104032 0.295709 -0.248276
0.105236 0.295709 -0.249963
0.105083 0.294960 -0.252974
0.104930 0.294210 -0.255990
0.104776 0.293458 -0.259014
0.105984 0.293458 -0.260707
0.105831 0.292704 -0.263739
0.107041 0.292704 -0.265433
0.106889 0.291949 -0.268474
0.106737 0.291192 -0.271521
0.107949 0.291192 -0.273219
0.106432 0.289673 -0.277635
0.107646 0.289673 -0.279337
0.107494 0.288911 -0.282406
0.108710 0.288911 -0.284109
0.108560 0.288148 -0.287187
0.108409 0.287382 -0.290271
0.109627 0.287382 -0.291979
0.109477 0.286615 -0.295072
0.109327 0.285847 -0.298171
0.109176 0.285077 -0.301278
0.109025 0.284305 -0.304391
0.108874 0.283531 -0.307512
0.108722 0.282755 -0.310639
0.108570 0.281978 -0.313773
0.109798 0.281978 -0.315493
0.109647 0.281199 -0.318636
0.109495 0.280419 -0.321786
0.109344 0.279637 -0.324943
0.109192 0.278853 -0.328107
0.109039 0.278067 -0.331278
0.108886 0.277279 -0.334456
0.108733 0.276490 -0.337641
0.108580 0.275699 -0.340833
0.109819 0.275699 -0.342569
0.109667 0.274906 -0.345770
0.109514 0.274112 -0.348978
0.109361 0.273315 -0.352194
0.109208 0.272517 -0.355417
0.109054 0.271717 -0.358647
0.108900 0.270915 -0.361884
0.110147 0.270915 -0.363631
0.108591 0.269307 -0.368380
0.108435 0.268499 -0.371639
0.111091 0.269307 -0.371883
0.113740 0.270112 -0.372127
0.116383 0.270915 -0.372370
0.119021 0.271717 -0.372613
0.121652 0.272517 -0.372855
0.125656 0.274112 -0.371597
0.126897 0.274112 -0.373337
0.129511 0.274906 -0.373578
0.132119 0.275699 -0.373817
0.134722 0.276490 -0.374057
0.135959 0.276490 -0.375791
0.138554 0.277279 -0.376028
0.141144 0.278067 -0.376264
0.142378 0.278067 -0.377994
0.144961 0.278853 -0.378228
0.146194 0.278853 -0.379957
0.148769 0.279637 -0.380188
0.150001 0.279637 -0.381915
0.152569 0.280419 -0.382144
0.155131 0.281199 -0.382372
0.156361 0.281199 -0.384095
0.158916 0.281978 -0.384321
0.160144 0.281978 -0.386042
0.162692 0.282755 -0.386265
0.163919 0.282755 -0.387984
0.166460 0.283531 -0.388206
0.167686 0.283531 -0.389922
0.170220 0.284305 -0.390141
0.172749 0.285077 -0.390360
0.173971 0.285077 -0.392073
0.176493 0.285847 -0.392289
0.177715 0.285847 -0.394000
0.180230 0.286615 -0.394214
0.181450 0.286615 -0.395924
0.183958 0.287382 -0.396135
0.186460 0.288148 -0.396346
0.187678 0.288148 -0.398052
0.190174 0.288911 -0.398260
0.191389 0.288911 -0.399964
0.193879 0.289673 -0.400170
0.195093 0.289673 -0.401872
0.198840 0.291192 -0.400582
0.200052 0.291192 -0.402280
0.202524 0.291949 -0.402483
0.204990 0.292704 -0.402686
0.206199 0.292704 -0.404380
0.208659 0.293458 -0.404581
0.209867 0.293458 -0.406273
0.212320 0.294210 -0.406471
0.213526 0.294210 -0.408162
0.215972 0.294960 -0.408358
0.218413 0.295709 -0.408554
0.219617 0.295709 -0.410241
0.222052 0.296456 -0.410434
0.223254 0.296456 -0.412119
0.225682 0.297202 -0.412310
0.226884 0.297202 -0.413994
0.228085 0.297202 -0.415677
0.230505 0.297945 -0.415864
0.231705 0.297945 -0.417546
0.234118 0.298688 -0.417730
0.235317 0.298688 -0.419410
0.236516 0.298688 -0.421090
0.238922 0.299428 -0.421271
0.240119 0.299428 -0.422949
0.242518 0.300168 -0.423127
0.243715 0.300168 -0.424804
0.244911 0.300168 -0.426480
0.247302 0.300905 -0.426654
0.248497 0.300905 -0.428329
0.250882 0.301641 -0.428501
0.253262 0.302375 -0.428673
0.254454 0.302375 -0.430344
0.255647 0.302375 -0.432015
0.258019 0.303108 -0.432183
0.259210 0.303108 -0.433852
0.261576 0.303839 -0.434018
0.262766 0.303839 -0.435685
0.263956 0.303839 -0.437352
0.263975 0.303108 -0.440528
0.266335 0.303839 -0.440687
0.267525 0.303839 -0.442354
0.267548 0.303108 -0.445535
0.268739 0.303108 -0.447204
0.269930 0.303108 -0.448873
0.271121 0.303108 -0.450542
0.272312 0.303108 -0.452211
0.273503 0.303108 -0.453880
0.275854 0.303839 -0.454025
0.277044 0.303839 -0.455692
0.278234 0.303839 -0.457359
0.279424 0.303839 -0.459027
0.280613 0.303839 -0.460694
0.281803 0.303839 -0.462361
0.282993 0.303839 -0.464028
0.280724 0.301641 -0.470317
0.277276 0.298688 -0.478205
-0.285557 0.228242 0.017459
-0.274558 0.232711 0.021230
-0.265591 0.236247 0.023850
-0.256707 0.239751 0.026445
-0.249776 0.242358 0.027922
-0.244751 0.244085 0.028298
-0.237901 0.246661 0.029760
-0.232933 0.248369 0.030130
-0.229817 0.249220 0.029416
-0.224884 0.250916 0.029785
-0.219975 0.252604 0.030153
-0.216891 0.253445 0.029443
-0.212016 0.255121 0.029810
-0.208953 0.255957 0.029103
-0.204113 0.257622 0.029470
-0.201068 0.258451 0.028765
-0.198031 0.259279 0.028063
-0.195000 0.260105 0.027362
-0.190219 0.261751 0.027730
-0.187208 0.262571 0.027032
-0.184203 0.263390 0.026336
-0.179468 0.265021 0.026705
-0.176483 0.265834 0.026011
-0.171781 0.267454 0.026379
-0.168814 0.268262 0.025688
-0.165854 0.269067 0.024999
-0.162900 0.269871 0.024311
-0.159953 0.270673 0.023624
-0.155320 0.272272 0.023995
-0.152391 0.273068 0.023312
-0.149469 0.273863 0.022629
-0.146553 0.274656 0.021948
-0.143644 0.275448 0.021269
-0.140741 0.276237 0.020591
-0.136186 0.277811 0.020967
-0.133301 0.278595 0.020291
-0.130423 0.279378 0.019618
-0.127551 0.280159 0.018945
-0.124685 0.280938 0.018275
-0.120196 0.282491 0.018653
-0.117347 0.283265 0.017984
-0.114505 0.284037 0.017318
-0.113284 0.284037 0.015606
-0.110450 0.284808 0.014943
-0.107621 0.285577 0.014281
-0.104799 0.286344 0.013620
-0.101983 0.287110 0.012961
-0.099174 0.287873 0.012304
-0.094785 0.289396 0.012691
-0.091992 0.290155 0.012036
-0.090781 0.290155 0.010339
-0.087996 0.290912 0.009688
-0.086787 0.290912 0.007993
-0.084009 0.291668 0.007344
-0.081237 0.292422 0.006697
-0.080030 0.292422 0.005006
-0.077266 0.293174 0.004362
-0.076060 0.293174 0.002673
-0.073303 0.293925 0.002033
-0.070552 0.294674 0.001393
-0.069349 0.294674 -0.000292
-0.066605 0.295421 -0.000928
-0.063867 0.296167 -0.001563
-0.062667 0.296167 -0.003245
-0.059936 0.296911 -0.003876
-0.057211 0.297654 -0.004507
-0.056013 0.297654 -0.006185
-0.053295 0.298395 -0.006812
-0.052099 0.298395 -0.008488
-0.049388 0.299134 -0.009112
-0.046683 0.299872 -0.009735
-0.045489 0.299872 -0.011407
-0.042791 0.300609 -0.012027
-0.040099 0.301343 -0.012645
-0.038908 0.301343 -0.014314
-0.036223 0.302076 -0.014929
-0.035033 0.302076 -0.016596
-0.032355 0.302808 -0.017208
-0.029683 0.303538 -0.017819
-0.028496 0.303538 -0.019482
-0.025830 0.304266 -0.020090
-0.023171 0.304993 -0.020696
-0.021986 0.304993 -0.022356
-0.020801 0.304993 -0.024017
-0.018150 0.305718 -0.024618
-0.016966 0.305718 -0.026276
-0.014322 0.306442 -0.026875
-0.013139 0.306442 -0.028531
-0.010502 0.307164 -0.029127
-0.009321 0.307164 -0.030782
-0.008140 0.307164 -0.032436
-0.005510 0.307885 -0.033027
-0.004330 0.307885 -0.034680
-0.001708 0.308604 -0.035268
-0.000529 0.308604 -0.036919
0.000649 0.308604 -0.038570
0.003264 0.309322 -0.039153
0.005873 0.310038 -0.039735
0.007049 0.310038 -0.041383
0.008225 0.310038 -0.043031
0.010826 0.310753 -0.043607
0.012001 0.310753 -0.045254
0.014595 0.311466 -0.045827
0.015769 0.311466 -0.047472
0.018357 0.312177 -0.048043
0.019529 0.312177 -0.049685
0.020701 0.312177 -0.051328
0.023281 0.312887 -0.051894
0.024452 0.312887 -0.053535
0.027025 0.313596 -0.054099
0.028195 0.313596 -0.055738
0.029365 0.313596 -0.057377
0.030535 0.313596 -0.059016
0.033099 0.314303 -0.059573
0.034267 0.314303 -0.061211
0.035436 0.314303 -0.062848
0.037992 0.315009 -0.063401
0.039159 0.315009 -0.065036
0.041709 0.315713 -0.065586
0.042875 0.315713 -0.067220
0.044041 0.315713 -0.068854
0.046583 0.316415 -0.069399
0.047748 0.316415 -0.071031
0.050283 0.317117 -0.071573
0.051447 0.317117 -0.073204
0.053975 0.317816 -0.073743
0.055138 0.317816 -0.075372
0.056300 0.317816 -0.077001
0.057463 0.317816 -0.078630
0.058625 0.317816 -0.080259
0.061144 0.318515 -0.080790
0.062305 0.318515 -0.082417
0.063466 0.318515 -0.084045
0.064628 0.318515 -0.085672
0.065789 0.318515 -0.087299
0.068297 0.319211 -0.087822
0.069457 0.319211 -0.089448
0.070617 0.319211 -0.091073
0.073118 0.319907 -0.091592
0.074277 0.319907 -0.093216
0.075436 0.319907 -0.094840
0.076595 0.319907 -0.096464
0.077753 0.319907 -0.098088
0.078912 0.319907 -0.099711
0.080071 0.319907 -0.101335
0.081230 0.319907 -0.102959
0.082389 0.319907 -0.104583
0.083548 0.319907 -0.106207
0.086032 0.320601 -0.106709
0.085865 0.319907 -0.109454
0.088347 0.320601 -0.109954
0.088183 0.319907 -0.112702
0.089342 0.319907 -0.114326
0.090500 0.319907 -0.115949
0.091659 0.319907 -0.117573
0.092818 0.319907 -0.119197
0.092658 0.319211 -0.121958
0.093818 0.319211 -0.123583
0.094978 0.319211 -0.125209
0.096138 0.319211 -0.126834
0.095981 0.318515 -0.129606
0.097142 0.318515 -0.131233
0.096986 0.317816 -0.134012
0.098149 0.317816 -0.135641
0.099311 0.317816 -0.137270
0.099157 0.317117 -0.140059
0.099003 0.316415 -0.142853
0.100168 0.316415 -0.144485
0.100014 0.315713 -0.147287
0.099861 0.315009 -0.150095
0.101028 0.315009 -0.151731
0.100875 0.314303 -0.154546
0.100722 0.313596 -0.157367
0.101892 0.313596 -0.159006
0.101740 0.312887 -0.161835
0.101587 0.312177 -0.164670
0.101434 0.311466 -0.167511
0.102608 0.311466 -0.169156
0.102456 0.310753 -0.172004
0.102304 0.310038 -0.174859
0.103480 0.310038 -0.176507
0.103328 0.309322 -0.179369
0.104506 0.309322 -0.181019
0.104355 0.308604 -0.183889
0.104205 0.307885 -0.186766
0.104053 0.307164 -0.189648
0.105234 0.307164 -0.191303
0.105084 0.306442 -0.194193
0.104934 0.305718 -0.197090
0.104783 0.304993 -0.199993
0.105968 0.304993 -0.201653
0.105818 0.304266 -0.204564
0.105668 0.303538 -0.207481
0.105518 0.302808 -0.210404
0.105367 0.302076 -0.213333
0.106557 0.302076 -0.215000
0.106407 0.301343 -0.217938
0.106257 0.300609 -0.220882
0.106106 0.299872 -0.223832
0.104608 0.298395 -0.228075
0.104455 0.297654 -0.231042
0.104302 0.296911 -0.234016
0.104149 0.296167 -0.236996
0.103995 0.295421 -0.239983
0.105197 0.295421 -0.241667
0.106398 0.295421 -0.243350
0.106247 0.294674 -0.246347
0.107449 0.294674 -0.248032
0.105943 0.293174 -0.252360
0.107148 0.293174 -0.254049
0.106997 0.292422 -0.257067
0.108204 0.292422 -0.258758
0.108054 0.291668 -0.261784
0.107903 0.290912 -0.264818
0.109112 0.290912 -0.266512
0.108963 0.290155 -0.269554
0.110173 0.290155 -0.271250
0.110025 0.289396 -0.274300
0.108513 0.287873 -0.278718
0.109727 0.287873 -0.280420
0.109578 0.287110 -0.283490
0.110794 0.287110 -0.285194
0.110645 0.286344 -0.288273
0.111862 0.286344 -0.289979
0.111715 0.285577 -0.293066
0.111567 0.284808 -0.296160
0.111419 0.284037 -0.299261
0.111271 0.283265 -0.302369
0.111122 0.282491 -0.305483
0.110973 0.281715 -0.308605
0.112198 0.281715 -0.310322
0.112050 0.280938 -0.313452
0.111902 0.280159 -0.316589
0.111753 0.279378 -0.319733
0.111604 0.278595 -0.322884
0.111454 0.277811 -0.326042
0.111305 0.277025 -0.329207
0.111155 0.276237 -0.332379
0.111004 0.275448 -0.335559
0.112241 0.275448 -0.337291
0.112091 0.274656 -0.340479
0.111942 0.273863 -0.343674
0.111792 0.273068 -0.346877
0.111641 0.272272 -0.350086
0.111491 0.271473 -0.353303
0.111340 0.270673 -0.356527
0.111188 0.269871 -0.359758
0.111037 0.269067 -0.362997
0.112284 0.269067 -0.364744
0.110732 0.267454 -0.369495
0.111982 0.267454 -0.371247
0.114631 0.268262 -0.371491
0.117273 0.269067 -0.371735
0.119909 0.269871 -0.371978
0.122540 0.270673 -0.372221
0.125164 0.271473 -0.372463
0.127783 0.272272 -0.372705
0.130396 0.273068 -0.372946
0.133003 0.273863 -0.373187
0.135604 0.274656 -0.373427
0.138200 0.275448 -0.373666
0.139436 0.275448 -0.375399
0.142024 0.276237 -0.375636
0.143259 0.276237 -0.377366
0.145840 0.277025 -0.377601
0.147074 0.277025 -0.379329
0.149648 0.277811 -0.379561
0.152216 0.278595 -0.379793
0.153447 0.278595 -0.381517
0.156008 0.279378 -0.381747
0.157238 0.279378 -0.383469
0.159792 0.280159 -0.383696
0.161020 0.280159 -0.385417
0.163567 0.280938 -0.385641
0.164794 0.280938 -0.387360
0.167334 0.281715 -0.387582
0.169869 0.282491 -0.387803
0.171093 0.282491 -0.389518
0.173621 0.283265 -0.389738
0.174843 0.283265 -0.391451
0.177364 0.284037 -0.391668
0.178586 0.284037 -0.393379
0.181100 0.284808 -0.393593
0.183608 0.285577 -0.393807
0.184827 0.285577 -0.395515
0.187329 0.286344 -0.395726
0.188546 0.286344 -0.397432
0.191041 0.287110 -0.397641
0.192257 0.287110 -0.399345
0.194745 0.287873 -0.399552
0.195959 0.287873 -0.401254
0.199705 0.289396 -0.399965
0.202177 0.290155 -0.400171
0.203387 0.290155 -0.401867
0.205853 0.290912 -0.402070
0.207062 0.290912 -0.403765
0.209520 0.291668 -0.403966
0.210728 0.291668 -0.405658
0.213180 0.292422 -0.405857
0.215627 0.293174 -0.406056
0.216832 0.293174 -0.407745
0.219272 0.293925 -0.407941
0.220476 0.293925 -0.409628
0.222910 0.294674 -0.409822
0.224112 0.294674 -0.411507
0.226539 0.295421 -0.411699
0.228961 0.296167 -0.411890
0.230161 0.296167 -0.413572
0.231361 0.296167 -0.415253
0.233775 0.296911 -0.415440
0.234974 0.296911 -0.417120
0.237381 0.297654 -0.417305
0.238578 0.297654 -0.418983
0.239776 0.297654 -0.420661
0.242175 0.298395 -0.420842
0.243372 0.298395 -0.422518
0.244568 0.298395 -0.424195
0.246960 0.299134 -0.424372
0.248155 0.299134 -0.426046
0.250540 0.299872 -0.426221
0.252920 0.300609 -0.426395
0.254113 0.300609 -0.428066
0.256486 0.301343 -0.428238
0.257678 0.301343 -0.429907
0.258869 0.301343 -0.431576
0.261235 0.302076 -0.431745
0.262425 0.302076 -0.433412
0.263615 0.302076 -0.435079
0.264804 0.302076 -0.436746
0.265994 0.302076 -0.438414
0.267184 0.302076 -0.440081
0.268374 0.302076 -0.441748
0.269564 0.302076 -0.443415
0.270754 0.302076 -0.445083
0.271943 0.302076 -0.446750
0.273133 0.302076 -0.448417
0.274323 0.302076 -0.450085
0.275513 0.302076 -0.451752
0.276703 0.302076 -0.453419
0.277893 0.302076 -0.455086
0.279082 0.302076 -0.456754
0.280272 0.302076 -0.458421
0.281462 0.302076 -0.460088
0.282652 0.302076 -0.461755
0.282691 0.301343 -0.464957
0.285032 0.302076 -0.465090
0.280455 0.298395 -0.474482
-0.283987 0.227189 0.021101
-0.276861 0.229877 0.022618
-0.265965 0.234315 0.026341
-0.257079 0.237827 0.028925
-0.250147 0.240441 0.030393
-0.245121 0.242173 0.030763
-0.238270 0.244756 0.032217
-0.233301 0.246468 0.032581
-0.228355 0.248172 0.032943
-0.225251 0.249021 0.032228
-0.220340 0.250713 0.032590
-0.215452 0.252398 0.032950
-0.212381 0.253237 0.032239
-0.209317 0.254075 0.031529
-0.204476 0.255744 0.031890
-0.201431 0.256576 0.031183
-0.196625 0.258234 0.031544
-0.195362 0.258234 0.029774
-0.190581 0.259884 0.030137
-0.187569 0.260706 0.029436
-0.182821 0.262346 0.029799
-0.179828 0.263162 0.029101
-0.175114 0.264791 0.029463
-0.172140 0.265602 0.028767
-0.169172 0.266411 0.028074
-0.166211 0.267219 0.027381
-0.163257 0.268025 0.026690
-0.158612 0.269631 0.027055
-0.155676 0.270432 0.026367
-0.152747 0.271230 0.025681
-0.149824 0.272027 0.024996
-0.146908 0.272822 0.024312
-0.142330 0.274407 0.024680
-0.139431 0.275197 0.023999
-0.136540 0.275985 0.023320
-0.133654 0.276772 0.022642
-0.130775 0.277556 0.021966
-0.127903 0.278339 0.021291
-0.123402 0.279900 0.021663
-0.120547 0.280677 0.020991
-0.117698 0.281453 0.020320
-0.114856 0.282228 0.019650
-0.112019 0.283000 0.018983
-0.110799 0.283000 0.017273
-0.107971 0.283771 0.016609
-0.105148 0.284540 0.015946
-0.102332 0.285308 0.015284
-0.099522 0.286074 0.014624
-0.095132 0.287600 0.015006
-0.092339 0.288361 0.014348
-0.089552 0.289121 0.013692
-0.088343 0.289121 0.011998
-0.085563 0.289878 0.011345
-0.084355 0.289878 0.009652
-0.081583 0.290634 0.009002
-0.080376 0.290634 0.007311
-0.077611 0.291388 0.006665
-0.074852 0.292141 0.006020
-0.073648 0.292141 0.004333
-0.070896 0.292892 0.003691
-0.069694 0.292892 0.002006
-0.066949 0.293641 0.001367
-0.064211 0.294389 0.000730
-0.063011 0.294389 -0.000952
-0.060279 0.295135 -0.001586
-0.057554 0.295880 -0.002219
-0.056356 0.295880 -0.003897
-0.053638 0.296622 -0.004527
-0.050926 0.297364 -0.005155
-0.049731 0.297364 -0.006829
-0.047025 0.298104 -0.007454
-0.045832 0.298104 -0.009127
-0.043133 0.298842 -0.009749
-0.040441 0.299578 -0.010369
-0.039250 0.299578 -0.012038
-0.036564 0.300313 -0.012656
-0.033885 0.301047 -0.013272
-0.032696 0.301047 -0.014938
-0.030024 0.301778 -0.015551
-0.027356 0.302509 -0.016162
-0.026170 0.302509 -0.017824
-0.023510 0.303237 -0.018433
-0.022326 0.303237 -0.020093
-0.019673 0.303965 -0.020699
-0.018489 0.303965 -0.022357
-0.017306 0.303965 -0.024016
-0.014661 0.304690 -0.024616
-0.013478 0.304690 -0.026273
-0.010840 0.305414 -0.026871
-0.009659 0.305414 -0.028526
-0.007028 0.306137 -0.029120
-0.005848 0.306137 -0.030773
-0.004669 0.306137 -0.032426
-0.002046 0.306858 -0.033016
-0.000867 0.306858 -0.034668
0.001749 0.307577 -0.035255
0.002926 0.307577 -0.036904
0.005536 0.308295 -0.037488
0.006712 0.308295 -0.039136
0.009315 0.309012 -0.039717
0.010489 0.309012 -0.041363
0.011664 0.309012 -0.043009
0.014259 0.309727 -0.043586
0.015432 0.309727 -0.045230
0.018021 0.310440 -0.045803
0.019193 0.310440 -0.047446
0.021774 0.311152 -0.048016
0.022945 0.311152 -0.049657
0.024116 0.311152 -0.051298
0.026690 0.311863 -0.051864
0.027860 0.311863 -0.053503
0.030426 0.312571 -0.054066
0.031595 0.312571 -0.055704
0.032763 0.312571 -0.057341
0.033932 0.312571 -0.058979
0.036490 0.313279 -0.059535
0.037657 0.313279 -0.061171
0.038825 0.313279 -0.062806
0.041374 0.313985 -0.063358
0.042541 0.313985 -0.064992
0.045084 0.314689 -0.065541
0.046249 0.314689 -0.067174
0.047414 0.314689 -0.068806
0.049949 0.315392 -0.069350
0.051113 0.315392 -0.070981
0.053642 0.316094 -0.071523
0.054805 0.316094 -0.073152
0.057327 0.316794 -0.073690
0.058488 0.316794 -0.075318
0.059650 0.316794 -0.076945
0.060811 0.316794 -0.078572
0.061972 0.316794 -0.080199
0.063133 0.316794 -0.081826
0.065645 0.317493 -0.082355
0.066805 0.317493 -0.083981
0.067965 0.317493 -0.085606
0.069125 0.317493 -0.087232
0.070285 0.317493 -0.088857
0.072786 0.318190 -0.089379
0.073945 0.318190 -0.091003
0.075104 0.318190 -0.092626
0.076262 0.318190 -0.094250
0.078755 0.318885 -0.094765
0.079912 0.318885 -0.096387
0.081070 0.318885 -0.098009
0.082228 0.318885 -0.099632
0.083385 0.318885 -0.101254
0.084543 0.318885 -0.102876
0.085700 0.318885 -0.104498
0.086858 0.318885 -0.106120
0.088016 0.318885 -0.107742
0.089173 0.318885 -0.109364
0.090331 0.318885 -0.110986
0.091488 0.318885 -0.112608
0.092646 0.318885 -0.114231
0.092486 0.318190 -0.116983
0.093645 0.318190 -0.118607
0.094803 0.318190 -0.120231
0.095962 0.318190 -0.121855
0.095805 0.317493 -0.124618
0.096965 0.317493 -0.126244
0.098125 0.317493 -0.127869
0.097970 0.316794 -0.130642
0.099132 0.316794 -0.132269
0.100293 0.316794 -0.133896
0.100140 0.316094 -0.136679
0.101303 0.316094 -0.138307
0.101151 0.315392 -0.141097
0.100999 0.314689 -0.143892
0.102163 0.314689 -0.145525
0.102012 0.313985 -0.148328
0.101861 0.313279 -0.151136
0.103028 0.313279 -0.152772
0.102877 0.312571 -0.155589
0.102726 0.311863 -0.158411
0.103896 0.311863 -0.160050
0.103746 0.311152 -0.162880
0.103596 0.310440 -0.165716
0.103445 0.309727 -0.168558
0.104618 0.309727 -0.170203
0.104469 0.309012 -0.173052
0.104318 0.308295 -0.175908
0.105494 0.308295 -0.177556
0.105345 0.307577 -0.180420
0.105196 0.306858 -0.183289
0.106374 0.306858 -0.184941
0.106226 0.306137 -0.187818
0.106077 0.305414 -0.190702
0.107258 0.305414 -0.192357
0.107110 0.304690 -0.195248
0.106962 0.303965 -0.198146
0.106813 0.303237 -0.201050
0.107998 0.303237 -0.202710
0.107850 0.302509 -0.205622
0.107702 0.301778 -0.208540
0.107554 0.301047 -0.211464
0.107405 0.300313 -0.214395
0.108595 0.300313 -0.216062
0.108448 0.299578 -0.219001
0.108300 0.298842 -0.221946
0.108151 0.298104 -0.224897
0.106658 0.296622 -0.229142
0.106507 0.295880 -0.232111
0.106356 0.295135 -0.235086
0.106205 0.294389 -0.238067
0.107405 0.294389 -0.239749
0.107255 0.293641 -0.242739
0.108457 0.293641 -0.244422
0.108307 0.292892 -0.247420
0.108158 0.292141 -0.250424
0.108008 0.291388 -0.253435
0.109213 0.291388 -0.255124
0.109064 0.290634 -0.258144
0.110271 0.290634 -0.259834
0.110123 0.289878 -0.262862
0.109975 0.289121 -0.265896
0.111184 0.289121 -0.267591
0.111037 0.288361 -0.270634
0.112247 0.288361 -0.272330
0.112101 0.287600 -0.275381
0.113313 0.287600 -0.277080
0.111808 0.286074 -0.281504
0.111661 0.285308 -0.284575
0.112877 0.285308 -0.286279
0.112730 0.284540 -0.289359
0.113948 0.284540 -0.291065
0.113802 0.283771 -0.294153
0.113657 0.283000 -0.297248
0.113511 0.282228 -0.300350
0.113365 0.281453 -0.303459
0.114588 0.281453 -0.305173
0.114443 0.280677 -0.308290
0.114297 0.279900 -0.311415
0.114151 0.279120 -0.314546
0.114005 0.278339 -0.317685
0.113859 0.277556 -0.320830
0.113712 0.276772 -0.323982
0.113565 0.275985 -0.327142
0.113418 0.275197 -0.330308
0.114651 0.275197 -0.332036
0.114505 0.274407 -0.335211
0.114358 0.273616 -0.338394
0.114212 0.272822 -0.341583
0.114064 0.272027 -0.344780
0.113917 0.271230 -0.347983
0.113769 0.270432 -0.351194
0.115010 0.270432 -0.352934
0.114863 0.269631 -0.356154
0.113323 0.268025 -0.360870
0.113174 0.267219 -0.364109
0.114421 0.267219 -0.365857
0.112874 0.265602 -0.370611
0.114124 0.265602 -0.372362
0.116770 0.266411 -0.372605
0.119410 0.267219 -0.372848
0.122044 0.268025 -0.373090
0.126051 0.269631 -0.371831
0.127294 0.269631 -0.373573
0.131281 0.271230 -0.372315
0.132521 0.271230 -0.374053
0.136487 0.272822 -0.372797
0.139082 0.273616 -0.373037
0.140318 0.273616 -0.374769
0.142905 0.274407 -0.375007
0.145487 0.275197 -0.375244
0.146720 0.275197 -0.376973
0.149295 0.275985 -0.377208
0.150527 0.275985 -0.378934
0.153094 0.276772 -0.379166
0.154325 0.276772 -0.380891
0.156885 0.277556 -0.381121
0.159440 0.278339 -0.381350
0.160668 0.278339 -0.383071
0.163216 0.279120 -0.383298
0.164442 0.279120 -0.385017
0.166983 0.279900 -0.385241
0.168208 0.279900 -0.386958
0.170742 0.280677 -0.387180
0.171966 0.280677 -0.388895
0.174493 0.281453 -0.389115
0.177014 0.282228 -0.389335
0.178236 0.282228 -0.391046
0.180750 0.283000 -0.391263
0.181970 0.283000 -0.392972
0.184478 0.283771 -0.393187
0.185696 0.283771 -0.394895
0.188197 0.284540 -0.395107
0.190692 0.285308 -0.395319
0.191908 0.285308 -0.397022
0.194397 0.286074 -0.397232
0.195611 0.286074 -0.398934
0.199357 0.287600 -0.397650
0.200569 0.287600 -0.399348
0.203040 0.288361 -0.399554
0.204251 0.288361 -0.401251
0.206715 0.289121 -0.401455
0.209174 0.289878 -0.401658
0.210382 0.289878 -0.403351
0.212834 0.290634 -0.403552
0.214041 0.290634 -0.405243
0.216487 0.291388 -0.405442
0.217692 0.291388 -0.407131
0.220131 0.292141 -0.407328
0.222565 0.292892 -0.407524
0.223767 0.292892 -0.409209
0.226195 0.293641 -0.409404
0.227396 0.293641 -0.411087
0.229817 0.294389 -0.411279
0.232232 0.295135 -0.411470
0.233431 0.295135 -0.413150
0.234630 0.295135 -0.414830
0.237037 0.295880 -0.415018
0.238235 0.295880 -0.416696
0.239432 0.295880 -0.418374
0.241832 0.296622 -0.418557
0.243029 0.296622 -0.420233
0.245422 0.297364 -0.420414
0.246617 0.297364 -0.422089
0.247812 0.297364 -0.423763
0.250198 0.298104 -0.423941
0.251391 0.298104 -0.425613
0.253771 0.298842 -0.425788
0.256145 0.299578 -0.425963
0.257336 0.299578 -0.427632
0.258527 0.299578 -0.429301
0.260894 0.300313 -0.429472
0.262084 0.300313 -0.431139
0.263273 0.300313 -0.432806
0.264463 0.300313 -0.434474
0.265653 0.300313 -0.436141
0.266843 0.300313 -0.437808
0.268033 0.300313 -0.439475
0.269223 0.300313 -0.441143
0.270412 0.300313 -0.442810
0.271602 0.300313 -0.444477
0.272792 0.300313 -0.446144
0.273982 0.300313 -0.447812
0.275172 0.300313 -0.449479
0.276362 0.300313 -0.451146
0.277551 0.300313 -0.452813
0.278741 0.300313 -0.454481
0.279931 0.300313 -0.456148
0.281121 0.300313 -0.457815
0.282311 0.300313 -0.459482
0.283501 0.300313 -0.461150
0.284690 0.300313 -0.462817
0.284732 0.299578 -0.466020
0.284773 0.298842 -0.469230
0.281346 0.295880 -0.477105
-0.288265 0.223431 0.021372
-0.277237 0.227933 0.025125
-0.268247 0.231496 0.027729
-0.257452 0.235904 0.031405
-0.250517 0.238524 0.032864
-0.243631 0.241125 0.034314
-0.238639 0.242850 0.034674
-0.233669 0.244566 0.035032
-0.228722 0.246275 0.035389
-0.225618 0.247126 0.034671
-0.220706 0.248823 0.035027
-0.215817 0.250511 0.035382
-0.212746 0.251353 0.034668
-0.207892 0.253030 0.035022
-0.204839 0.253866 0.034311
-0.201794 0.254700 0.033601
-0.196987 0.256362 0.033956
-0.193961 0.257191 0.033249
-0.190942 0.258017 0.032544
-0.187930 0.258842 0.031841
-0.183181 0.260485 0.032198
-0.178454 0.262121 0.032553
-0.175473 0.262936 0.031853
-0.172498 0.263750 0.031155
-0.169530 0.264561 0.030459
-0.166569 0.265371 0.029764
-0.161911 0.266985 0.030122
-0.158968 0.267789 0.029430
-0.156032 0.268592 0.028739
-0.153102 0.269393 0.028050
-0.150179 0.270192 0.027363
-0.145589 0.271784 0.027724
-0.142684 0.272578 0.027039
-0.139785 0.273370 0.026356
-0.136893 0.274160 0.025674
-0.134007 0.274948 0.024993
-0.131128 0.275735 0.024314
-0.126615 0.277303 0.024680
-0.123753 0.278084 0.024003
-0.120898 0.278864 0.023329
-0.118048 0.279642 0.022655
-0.115206 0.280418 0.021983
-0.112369 0.281193 0.021313
-0.109539 0.281966 0.020644
-0.106715 0.282737 0.019976
-0.105497 0.282737 0.018271
-0.102681 0.283506 0.017607
-0.096691 0.285805 0.019019
-0.093897 0.286568 0.018357
-0.092686 0.286568 0.016661
-0.089899 0.287329 0.016002
-0.088689 0.287329 0.014308
-0.085909 0.288088 0.013652
-0.084701 0.288088 0.011960
-0.081929 0.288846 0.011307
-0.079162 0.289602 0.010656
-0.077957 0.289602 0.008967
-0.075197 0.290357 0.008320
-0.073993 0.290357 0.006633
-0.071241 0.291110 0.005988
-0.068495 0.291861 0.005345
-0.067294 0.291861 0.003662
-0.064555 0.292611 0.003022
-0.063355 0.292611 0.001340
-0.060623 0.293359 0.000704
-0.057897 0.294105 0.000069
-0.055177 0.294850 -0.000565
-0.053981 0.294850 -0.002241
-0.052785 0.294850 -0.003918
-0.050073 0.295593 -0.004546
-0.047368 0.296335 -0.005174
-0.046174 0.296335 -0.006847
-0.043475 0.297075 -0.007471
-0.040782 0.297813 -0.008094
-0.039591 0.297813 -0.009763
-0.036906 0.298550 -0.010383
-0.034225 0.299286 -0.011002
-0.033037 0.299286 -0.012667
-0.030364 0.300019 -0.013283
-0.027697 0.300751 -0.013897
-0.026510 0.300751 -0.015559
-0.023850 0.301482 -0.016170
-0.022665 0.301482 -0.017830
-0.020012 0.302211 -0.018438
-0.018828 0.302211 -0.020096
-0.016182 0.302939 -0.020701
-0.015000 0.302939 -0.022358
-0.013817 0.302939 -0.024015
-0.011179 0.303664 -0.024615
-0.009998 0.303664 -0.026270
-0.007366 0.304389 -0.026867
-0.006187 0.304389 -0.028520
-0.003562 0.305112 -0.029114
-0.002383 0.305112 -0.030765
-0.001205 0.305112 -0.032417
0.001412 0.305833 -0.033006
0.002589 0.305833 -0.034656
0.005199 0.306553 -0.035242
0.006375 0.306553 -0.036890
0.008978 0.307271 -0.037473
0.010153 0.307271 -0.039119
0.012749 0.307988 -0.039700
0.013922 0.307988 -0.041344
0.015096 0.307988 -0.042988
0.017684 0.308703 -0.043564
0.018857 0.308703 -0.045207
0.021438 0.309417 -0.045779
0.022609 0.309417 -0.047420
0.025185 0.310129 -0.047990
0.026354 0.310129 -0.049629
0.027524 0.310129 -0.051269
0.030091 0.310840 -0.051834
0.031260 0.310840 -0.053471
0.033820 0.311549 -0.054034
0.033597 0.310840 -0.056746
0.036155 0.311549 -0.057305
0.037322 0.311549 -0.058941
0.039874 0.312257 -0.059497
0.041040 0.312257 -0.061131
0.042206 0.312257 -0.062765
0.044750 0.312963 -0.063316
0.045915 0.312963 -0.064948
0.048452 0.313668 -0.065497
0.049616 0.313668 -0.067128
0.050779 0.313668 -0.068758
0.053309 0.314371 -0.069302
0.055833 0.315073 -0.069845
0.056994 0.315073 -0.071472
0.058155 0.315073 -0.073099
0.059317 0.315073 -0.074726
0.060478 0.315073 -0.076354
0.062992 0.315774 -0.076889
0.064152 0.315774 -0.078514
0.065312 0.315774 -0.080139
0.066472 0.315774 -0.081765
0.067632 0.315774 -0.083390
0.070136 0.316473 -0.083917
0.071295 0.316473 -0.085541
0.072454 0.316473 -0.087165
0.073613 0.316473 -0.088789
0.074771 0.316473 -0.090413
0.077265 0.317170 -0.090932
0.078423 0.317170 -0.092554
0.079580 0.317170 -0.094176
0.080738 0.317170 -0.095798
0.081896 0.317170 -0.097420
0.083053 0.317170 -0.099042
0.084211 0.317170 -0.100664
0.085368 0.317170 -0.102287
0.087849 0.317866 -0.102793
0.087684 0.317170 -0.105531
0.088841 0.317170 -0.107153
0.091318 0.317866 -0.107654
0.092474 0.317866 -0.109274
0.092314 0.317170 -0.112019
0.093472 0.317170 -0.113641
0.094629 0.317170 -0.115263
0.095787 0.317170 -0.116886
0.095630 0.316473 -0.119641
0.096789 0.316473 -0.121265
0.097948 0.316473 -0.122889
0.099106 0.316473 -0.124512
0.100265 0.316473 -0.126136
0.100113 0.315774 -0.128904
0.101273 0.315774 -0.130530
0.101121 0.315073 -0.133305
0.102282 0.315073 -0.134933
0.102132 0.314371 -0.137716
0.101981 0.313668 -0.140505
0.103144 0.313668 -0.142135
0.102994 0.312963 -0.144932
0.102844 0.312257 -0.147734
0.104010 0.312257 -0.149368
0.103861 0.311549 -0.152178
0.103711 0.310840 -0.154994
0.104879 0.310840 -0.156631
0.104731 0.310129 -0.159455
0.104581 0.309417 -0.162284
0.104432 0.308703 -0.165120
0.105604 0.308703 -0.166762
0.105455 0.307988 -0.169605
0.105307 0.307271 -0.172454
0.106481 0.307271 -0.174101
0.106333 0.306553 -0.176958
0.107509 0.306553 -0.178605
0.107362 0.305833 -0.181470
0.107215 0.305112 -0.184341
0.108393 0.305112 -0.185992
0.108247 0.304389 -0.188871
0.108100 0.303664 -0.191756
0.107953 0.302939 -0.194646
0.109135 0.302939 -0.196303
0.108989 0.302211 -0.199202
0.108843 0.301482 -0.202107
0.108696 0.300751 -0.205018
0.108549 0.300019 -0.207936
0.109736 0.300019 -0.209599
0.109590 0.299286 -0.212525
0.109444 0.298550 -0.215456
0.110634 0.298550 -0.217124
0.110488 0.297813 -0.220063
0.110343 0.297075 -0.223009
0.110196 0.296335 -0.225962
0.108707 0.294850 -0.230210
0.108559 0.294105 -0.233179
0.108410 0.293359 -0.236155
0.108261 0.292611 -0.239138
0.109461 0.292611 -0.240820
0.109313 0.291861 -0.243810
0.110515 0.291861 -0.245494
0.110368 0.291110 -0.248493
0.110221 0.290357 -0.251499
0.111425 0.290357 -0.253186
0.111278 0.289602 -0.256200
0.111132 0.288846 -0.259220
0.112338 0.288846 -0.260911
0.112193 0.288088 -0.263940
0.113401 0.288088 -0.265633
0.113256 0.287329 -0.268670
0.113111 0.286568 -0.271714
0.114322 0.286568 -0.273410
0.114178 0.285805 -0.276463
0.115390 0.285805 -0.278161
0.113889 0.284274 -0.282588
0.115103 0.284274 -0.284289
0.114960 0.283506 -0.287364
0.116176 0.283506 -0.289068
0.116033 0.282737 -0.292151
0.117250 0.282737 -0.293856
0.115747 0.281193 -0.298337
0.116967 0.281193 -0.300046
0.116825 0.280418 -0.303151
0.116682 0.279642 -0.306263
0.116540 0.278864 -0.309382
0.116396 0.278084 -0.312508
0.116253 0.277303 -0.315641
0.116109 0.276520 -0.318780
0.115965 0.275735 -0.321927
0.115821 0.274948 -0.325080
0.117052 0.274948 -0.326805
0.116908 0.274160 -0.329967
0.116765 0.273370 -0.333137
0.116621 0.272578 -0.336313
0.116476 0.271784 -0.339497
0.116332 0.270989 -0.342687
0.116187 0.270192 -0.345885
0.117426 0.270192 -0.347621
0.117282 0.269393 -0.350828
0.117138 0.268592 -0.354042
0.116993 0.267789 -0.357263
0.116848 0.266985 -0.360491
0.116703 0.266179 -0.363727
0.116558 0.265371 -0.366970
0.117805 0.265371 -0.368718
0.117661 0.264561 -0.371970
0.120299 0.265371 -0.372213
0.122933 0.266179 -0.372456
0.125560 0.266985 -0.372698
0.128181 0.267789 -0.372940
0.130796 0.268592 -0.373181
0.134771 0.270192 -0.371926
0.136009 0.270192 -0.373662
0.138607 0.270989 -0.373901
0.142551 0.272578 -0.372648
0.143786 0.272578 -0.374379
0.146367 0.273370 -0.374616
0.147600 0.273370 -0.376345
0.150173 0.274160 -0.376580
0.151405 0.274160 -0.378307
0.153972 0.274948 -0.378540
0.156533 0.275735 -0.378772
0.157762 0.275735 -0.380495
0.160316 0.276520 -0.380725
0.161544 0.276520 -0.382446
0.164091 0.277303 -0.382674
0.165317 0.277303 -0.384392
0.167857 0.278084 -0.384618
0.169082 0.278084 -0.386335
0.171615 0.278864 -0.386557
0.174142 0.279642 -0.386780
0.175365 0.279642 -0.388493
0.177885 0.280418 -0.388713
0.179107 0.280418 -0.390424
0.181620 0.281193 -0.390642
0.182840 0.281193 -0.392351
0.185347 0.281966 -0.392567
0.187848 0.282737 -0.392782
0.189065 0.282737 -0.394487
0.191559 0.283506 -0.394700
0.192775 0.283506 -0.396404
0.195263 0.284274 -0.396614
0.196477 0.284274 -0.398316
0.200222 0.285805 -0.397033
0.201434 0.285805 -0.398731
0.203904 0.286568 -0.398938
0.206368 0.287329 -0.399145
0.207578 0.287329 -0.400839
0.210036 0.288088 -0.401043
0.211244 0.288088 -0.402736
0.213695 0.288846 -0.402938
0.214902 0.288846 -0.404629
0.217346 0.289602 -0.404829
0.219786 0.290357 -0.405028
0.220990 0.290357 -0.406715
0.223423 0.291110 -0.406912
0.224625 0.291110 -0.408597
0.227052 0.291861 -0.408792
0.228253 0.291861 -0.410475
0.230673 0.292611 -0.410668
0.231873 0.292611 -0.412350
0.234286 0.293359 -0.412540
0.236694 0.294105 -0.412730
0.237892 0.294105 -0.414408
0.240293 0.294850 -0.414596
0.241489 0.294850 -0.416272
0.242686 0.294850 -0.417948
0.245079 0.295593 -0.418132
0.246274 0.295593 -0.419806
0.248662 0.296335 -0.419988
0.249855 0.296335 -0.421660
0.251049 0.296335 -0.423333
0.253429 0.297075 -0.423510
0.255803 0.297813 -0.423688
0.256995 0.297813 -0.425357
0.259363 0.298550 -0.425532
0.260553 0.298550 -0.427199
0.261742 0.298550 -0.428866
0.262932 0.298550 -0.430533
0.265292 0.299286 -0.430703
0.266480 0.299286 -0.432368
0.267669 0.299286 -0.434033
0.267692 0.298550 -0.437202
0.268881 0.298550 -0.438870
0.270071 0.298550 -0.440537
0.272423 0.299286 -0.440695
0.272451 0.298550 -0.443871
0.273641 0.298550 -0.445539
0.274831 0.298550 -0.447206
0.276020 0.298550 -0.448873
0.277210 0.298550 -0.450540
0.279554 0.299286 -0.450688
0.280743 0.299286 -0.452354
0.281932 0.299286 -0.454019
0.283120 0.299286 -0.455685
0.284309 0.299286 -0.457350
0.284349 0.298550 -0.460544
0.285539 0.298550 -0.462211
0.285581 0.297813 -0.465414
0.286772 0.297813 -0.467083
0.284513 0.295593 -0.473388
0.282239 0.293359 -0.479734
-0.290601 0.220566 0.022771
-0.277613 0.225989 0.027631
-0.268621 0.229561 0.030224
-0.259713 0.233100 0.032792
-0.250888 0.236607 0.035336
-0.244001 0.239215 0.036777
-0.239007 0.240944 0.037131
-0.234037 0.242665 0.037484
-0.229089 0.244377 0.037835
-0.224164 0.246082 0.038184
-0.221072 0.246932 0.037465
-0.216182 0.248625 0.037814
-0.213110 0.249469 0.037097
-0.208255 0.251151 0.037446
-0.205203 0.251989 0.036731
-0.200382 0.253659 0.037080
-0.197349 0.254491 0.036369
-0.194323 0.255322 0.035659
-0.189549 0.256977 0.036008
-0.188290 0.256977 0.034245
-0.183541 0.258624 0.034596
-0.180547 0.259445 0.033893
-0.175832 0.261082 0.034244
-0.172857 0.261897 0.033543
-0.169888 0.262711 0.032844
-0.165217 0.264333 0.033196
-0.162268 0.265141 0.032500
-0.159325 0.265947 0.031805
-0.156388 0.266752 0.031111
-0.153458 0.267555 0.030420
-0.148855 0.269155 0.030775
-0.145943 0.269952 0.030085
-0.143038 0.270748 0.029398
-0.140139 0.271542 0.028712
-0.137246 0.272334 0.028027
-0.134360 0.273125 0.027344
-0.129835 0.274700 0.027703
-0.126966 0.275485 0.027023
-0.124104 0.276269 0.026344
-0.121249 0.277050 0.025667
-0.118399 0.277830 0.024991
-0.115556 0.278609 0.024316
-0.112719 0.279385 0.023643
-0.109888 0.280160 0.022972
-0.107064 0.280933 0.022302
-0.104245 0.281705 0.021633
-0.103029 0.281705 0.019929
-0.097039 0.284009 0.021334
-0.094244 0.284774 0.020670
-0.091455 0.285537 0.020007
-0.090245 0.285537 0.018312
-0.089036 0.285537 0.016618
-0.086256 0.286298 0.015960
-0.085048 0.286298 0.014267
-0.082275 0.287058 0.013612
-0.079508 0.287816 0.012959
-0.078302 0.287816 0.011270
-0.075543 0.288573 0.010620
-0.074339 0.288573 0.008933
-0.071586 0.289328 0.008286
-0.068840 0.290081 0.007640
-0.067638 0.290081 0.005957
-0.064899 0.290832 0.005315
-0.062165 0.291582 0.004674
-0.060967 0.291582 0.002994
-0.058241 0.292331 0.002356
-0.057043 0.292331 0.000678
-0.054324 0.293077 0.000044
-0.051611 0.293823 -0.000589
-0.050416 0.293823 -0.002264
-0.047710 0.294566 -0.002894
-0.045009 0.295308 -0.003522
-0.043817 0.295308 -0.005193
-0.041124 0.296048 -0.005819
-0.038436 0.296787 -0.006443
-0.037247 0.296787 -0.008110
-0.034566 0.297524 -0.008731
-0.031892 0.298260 -0.009351
-0.030704 0.298260 -0.011015
-0.028037 0.298994 -0.011631
-0.026851 0.298994 -0.013293
-0.024190 0.299726 -0.013907
-0.023005 0.299726 -0.015567
-0.020351 0.300457 -0.016177
-0.019168 0.300457 -0.017835
-0.016521 0.301187 -0.018443
-0.015339 0.301187 -0.020099
-0.012699 0.301915 -0.020704
-0.011518 0.301915 -0.022359
-0.010337 0.301915 -0.024014
-0.007705 0.302641 -0.024613
-0.006525 0.302641 -0.026266
-0.003900 0.303366 -0.026863
-0.002721 0.303366 -0.028514
-0.001543 0.303366 -0.030165
0.001074 0.304089 -0.030757
0.002251 0.304089 -0.032407
0.004862 0.304810 -0.032995
0.006038 0.304810 -0.034643
0.008641 0.305530 -0.035229
0.009816 0.305530 -0.036875
0.012413 0.306249 -0.037458
0.013586 0.306249 -0.039102
0.016176 0.306966 -0.039682
0.017348 0.306966 -0.041325
0.018521 0.306966 -0.042967
0.021103 0.307682 -0.043542
0.022274 0.307682 -0.045183
0.024849 0.308396 -0.045756
0.026019 0.308396 -0.047395
0.027189 0.308396 -0.049034
0.029756 0.309108 -0.049602
0.030925 0.309108 -0.051239
0.033486 0.309820 -0.051804
0.034653 0.309820 -0.053439
0.035820 0.309820 -0.055075
0.036988 0.309820 -0.056711
0.039540 0.310529 -0.057269
0.040706 0.310529 -0.058903
0.043251 0.311237 -0.059459
0.044416 0.311237 -0.061091
0.045581 0.311237 -0.062723
0.048118 0.311944 -0.063274
0.049282 0.311944 -0.064905
0.051813 0.312649 -0.065453
0.052976 0.312649 -0.067081
0.055500 0.313353 -0.067627
0.056661 0.313353 -0.069254
0.057823 0.313353 -0.070881
0.060339 0.314055 -0.071422
0.061499 0.314055 -0.073047
0.062659 0.314055 -0.074673
0.063819 0.314055 -0.076298
0.064979 0.314055 -0.077924
0.067486 0.314756 -0.078456
0.068645 0.314756 -0.080080
0.069804 0.314756 -0.081704
0.070963 0.314756 -0.083328
0.072121 0.314756 -0.084951
0.074618 0.315455 -0.085476
0.075776 0.315455 -0.087098
0.076933 0.315455 -0.088720
0.079422 0.316153 -0.089241
0.080579 0.316153 -0.090861
0.081735 0.316153 -0.092482
0.082892 0.316153 -0.094102
0.084048 0.316153 -0.095722
0.085204 0.316153 -0.097343
0.086361 0.316153 -0.098963
0.087517 0.316153 -0.100584
0.088674 0.316153 -0.102204
0.089830 0.316153 -0.103824
0.090986 0.316153 -0.105445
0.092143 0.316153 -0.107065
0.093299 0.316153 -0.108686
0.094456 0.316153 -0.110306
0.095612 0.316153 -0.111927
0.095455 0.315455 -0.114674
0.096613 0.315455 -0.116296
0.097770 0.315455 -0.117918
0.098928 0.315455 -0.119540
0.098774 0.314756 -0.122299
0.099933 0.314756 -0.123923
0.101092 0.314756 -0.125546
0.102251 0.314756 -0.127170
0.102100 0.314055 -0.129939
0.103260 0.314055 -0.131565
0.103111 0.313353 -0.134341
0.104272 0.313353 -0.135969
0.104123 0.312649 -0.138753
0.103975 0.311944 -0.141543
0.105138 0.311944 -0.143173
0.104990 0.311237 -0.145971
0.104842 0.310529 -0.148774
0.106008 0.310529 -0.150408
0.105861 0.309820 -0.153219
0.105713 0.309108 -0.156036
0.106881 0.309108 -0.157674
0.106735 0.308396 -0.160498
0.106588 0.307682 -0.163329
0.106440 0.306966 -0.166165
0.107612 0.306966 -0.167808
0.107466 0.306249 -0.170652
0.107319 0.305530 -0.173503
0.108494 0.305530 -0.175149
0.108348 0.304810 -0.178007
0.109524 0.304810 -0.179655
0.109379 0.304089 -0.182520
0.109234 0.303366 -0.185392
0.110412 0.303366 -0.187044
0.110268 0.302641 -0.189923
0.110124 0.301915 -0.192809
0.109979 0.301187 -0.195701
0.111161 0.301187 -0.197358
0.111017 0.300457 -0.200258
0.110873 0.299726 -0.203164
0.110728 0.298994 -0.206076
0.110583 0.298260 -0.208995
0.111771 0.298260 -0.210659
0.111627 0.297524 -0.213585
0.111482 0.296787 -0.216518
0.111338 0.296048 -0.219457
0.112529 0.296048 -0.221126
0.112385 0.295308 -0.224073
0.110902 0.293823 -0.228312
0.110757 0.293077 -0.231277
0.110611 0.292331 -0.234248
0.110464 0.291582 -0.237225
0.110317 0.290832 -0.240209
0.111518 0.290832 -0.241890
0.112718 0.290832 -0.243572
