ply
format ascii 1.0
element vertex 1750
property float x
property float y
property float z
end_header
0.451704 0.036122 -0.073277
0.452081 0.036122 -0.075006
0.452458 0.036122 -0.076735
0.452835 0.036122 -0.078464
0.453212 0.036122 -0.080194
0.453589 0.036122 -0.081923
0.453965 0.036122 -0.083652
0.453334 0.035117 -0.085771
0.453711 0.035117 -0.087502
0.453078 0.034110 -0.089627
0.453456 0.034110 -0.091359
0.452822 0.033102 -0.093489
0.453200 0.033102 -0.095223
0.452565 0.032091 -0.097359
0.452944 0.032091 -0.099095
0.452308 0.031079 -0.101236
0.452687 0.031079 -0.102974
0.452051 0.030065 -0.105121
0.452430 0.030065 -0.106859
0.451793 0.029048 -0.109012
0.452172 0.029048 -0.110753
0.451535 0.028030 -0.112911
0.451914 0.028030 -0.114653
0.451276 0.027011 -0.116817
0.451656 0.027011 -0.118561
0.451016 0.025989 -0.120730
0.451397 0.025989 -0.122476
0.450756 0.024965 -0.124651
0.451137 0.024965 -0.126398
0.450496 0.023939 -0.128579
0.450877 0.023939 -0.130328
0.450235 0.022912 -0.132514
0.450617 0.022912 -0.134264
0.449974 0.021882 -0.136457
0.449330 0.020851 -0.138654
0.449712 0.020851 -0.140407
0.448038 0.018782 -0.143059
0.447391 0.017745 -0.145268
0.446742 0.016706 -0.147482
0.446092 0.015665 -0.149699
0.445440 0.014621 -0.151920
0.443749 0.012529 -0.154609
0.442051 0.010429 -0.157309
0.441393 0.009376 -0.159548
0.439686 0.007264 -0.162264
0.437972 0.005144 -0.164991
0.437307 0.004081 -0.167248
0.434525 0.000880 -0.170475
0.430662 -0.003418 -0.174209
0.426768 -0.007748 -0.177972
0.422844 -0.012112 -0.181764
0.411200 -0.024288 -0.189151
0.330490 0.000460 0.317157
0.350242 0.018353 0.315701
0.358416 0.025555 0.314090
0.364298 0.030643 0.312456
0.370125 0.035683 0.310837
0.375899 0.040677 0.309232
0.379487 0.043651 0.307591
0.384117 0.047592 0.305986
0.388713 0.051504 0.304393
0.392231 0.054419 0.302781
0.396768 0.058281 0.301209
0.400242 0.061160 0.299616
0.403697 0.064022 0.298032
0.406112 0.065922 0.296421
0.409535 0.068760 0.294852
0.412941 0.071582 0.293292
0.416328 0.074389 0.291740
0.419697 0.077181 0.290196
0.423048 0.079958 0.288661
0.426381 0.082720 0.287133
0.429696 0.085468 0.285614
0.432995 0.088201 0.284103
0.435303 0.090015 0.282553
0.438572 0.092725 0.281056
0.441824 0.095420 0.279567
0.445058 0.098101 0.278086
0.448276 0.100768 0.276613
0.449581 0.101654 0.275042
0.451831 0.103421 0.273528
0.454072 0.105182 0.272019
0.456306 0.106937 0.270515
0.459468 0.109559 0.269074
0.460751 0.110429 0.267523
0.462963 0.112167 0.266035
0.465166 0.113898 0.264552
0.466439 0.114761 0.263011
0.468631 0.116483 0.261537
0.469899 0.117342 0.260003
0.471164 0.118199 0.258471
0.471511 0.118199 0.256875
0.472774 0.119055 0.255348
0.474035 0.119910 0.253823
0.475293 0.120763 0.252301
0.476549 0.121614 0.250781
0.477803 0.122465 0.249264
0.477242 0.121614 0.247599
0.477589 0.121614 0.246008
0.477936 0.121614 0.244418
0.478283 0.121614 0.242827
0.477722 0.120763 0.241155
0.478069 0.120763 0.239563
0.478416 0.120763 0.237971
0.478763 0.120763 0.236379
0.479110 0.120763 0.234787
0.478550 0.119910 0.233107
0.478897 0.119910 0.231513
0.479244 0.119910 0.229920
0.478683 0.119055 0.228234
0.479031 0.119055 0.226639
0.479379 0.119055 0.225045
0.479726 0.119055 0.223450
0.479165 0.118199 0.221757
0.479513 0.118199 0.220161
0.479861 0.118199 0.218565
0.480209 0.118199 0.216969
0.479648 0.117342 0.215269
0.479997 0.117342 0.213672
0.480345 0.117342 0.212074
0.479783 0.116483 0.210369
0.480132 0.116483 0.208770
0.479570 0.115623 0.207061
0.479919 0.115623 0.205461
0.480268 0.115623 0.203860
0.479705 0.114761 0.202145
0.480054 0.114761 0.200544
0.480403 0.114761 0.198942
0.480753 0.114761 0.197340
0.480190 0.113898 0.195618
0.480540 0.113898 0.194015
0.480889 0.113898 0.192412
0.481238 0.113898 0.190809
0.480676 0.113033 0.189080
0.481026 0.113033 0.187475
0.481375 0.113033 0.185871
0.481725 0.113033 0.184266
0.482075 0.113033 0.182662
0.481512 0.112167 0.180924
0.481862 0.112167 0.179319
0.482212 0.112167 0.177713
0.482562 0.112167 0.176107
0.482000 0.111299 0.174362
0.482350 0.111299 0.172755
0.482701 0.111299 0.171148
0.482138 0.110429 0.169397
0.482489 0.110429 0.167789
0.482839 0.110429 0.166180
0.483190 0.110429 0.164571
0.482627 0.109559 0.162814
0.482978 0.109559 0.161204
0.483329 0.109559 0.159594
0.483680 0.109559 0.157984
0.484031 0.109559 0.156374
0.483469 0.108687 0.154608
0.483820 0.108687 0.152996
0.484171 0.108687 0.151385
0.484522 0.108687 0.149773
0.483960 0.107813 0.148000
0.484311 0.107813 0.146387
0.484663 0.107813 0.144774
0.484100 0.106937 0.142995
0.484452 0.106937 0.141381
0.484803 0.106937 0.139767
0.485155 0.106937 0.138153
0.484592 0.106061 0.136366
0.485859 0.106937 0.134924
0.486211 0.106937 0.133310
0.486562 0.106937 0.131696
0.486914 0.106937 0.130082
0.487266 0.106937 0.128468
0.487618 0.106937 0.126853
0.488881 0.107813 0.125421
0.489232 0.107813 0.123808
0.489584 0.107813 0.122195
0.489935 0.107813 0.120583
0.490287 0.107813 0.118970
0.490638 0.107813 0.117357
0.490990 0.107813 0.115744
0.491341 0.107813 0.114132
0.491693 0.107813 0.112519
0.492044 0.107813 0.110906
0.492396 0.107813 0.109293
0.492747 0.107813 0.107680
0.493099 0.107813 0.106068
0.493450 0.107813 0.104455
0.493802 0.107813 0.102842
0.494153 0.107813 0.101229
0.493599 0.106937 0.099412
0.493950 0.106937 0.097798
0.494302 0.106937 0.096184
0.493747 0.106061 0.094361
0.494099 0.106061 0.092746
0.494451 0.106061 0.091130
0.493896 0.105182 0.089301
0.494248 0.105182 0.087684
0.494601 0.105182 0.086067
0.494045 0.104303 0.084233
0.494398 0.104303 0.082614
0.494751 0.104303 0.080996
0.494195 0.103421 0.079155
0.494548 0.103421 0.077536
0.494901 0.103421 0.075916
0.495254 0.103421 0.074296
0.494698 0.102538 0.072448
0.495051 0.102538 0.070827
0.494494 0.101654 0.068974
0.493936 0.100768 0.067118
0.493378 0.099881 0.065259
0.492818 0.098991 0.063397
0.492257 0.098101 0.061531
0.491695 0.097209 0.059662
0.491133 0.096315 0.057790
0.490569 0.095420 0.055914
0.490005 0.094523 0.054036
0.489439 0.093625 0.052154
0.488872 0.092725 0.050269
0.488305 0.091823 0.048380
0.487736 0.090920 0.046488
0.487167 0.090015 0.044593
0.486596 0.089109 0.042694
0.486025 0.088201 0.040792
0.484519 0.086381 0.038625
0.483009 0.084554 0.036451
0.482432 0.083638 0.034535
0.480914 0.081801 0.032347
0.479390 0.079958 0.030152
0.477861 0.078108 0.027949
0.477276 0.077181 0.026014
0.474787 0.074389 0.023519
0.473242 0.072519 0.021292
0.469769 0.068760 0.018489
0.467240 0.065922 0.015954
0.463724 0.062116 0.013115
0.461163 0.059242 0.010549
0.458587 0.056354 0.007969
0.455997 0.053449 0.005376
0.453394 0.050528 0.002768
0.449776 0.046610 -0.000162
0.446131 0.042662 -0.003113
0.443474 0.039682 -0.005771
0.440802 0.036686 -0.008443
0.438115 0.033673 -0.011130
0.435413 0.030643 -0.013833
0.434761 0.029629 -0.015895
0.435140 0.029629 -0.017632
0.435519 0.029629 -0.019369
0.435897 0.029629 -0.021107
0.435246 0.028613 -0.023177
0.435625 0.028613 -0.024916
0.436004 0.028613 -0.026655
0.437412 0.029629 -0.028055
0.437790 0.029629 -0.029792
0.438169 0.029629 -0.031530
0.438548 0.029629 -0.033267
0.438926 0.029629 -0.035004
0.439305 0.029629 -0.036741
0.439684 0.029629 -0.038478
0.440062 0.029629 -0.040216
0.440441 0.029629 -0.041953
0.440819 0.029629 -0.043690
0.442222 0.030643 -0.045073
0.442600 0.030643 -0.046809
0.442978 0.030643 -0.048544
0.443357 0.030643 -0.050280
0.443735 0.030643 -0.052015
0.444113 0.030643 -0.053751
0.445511 0.031655 -0.055123
0.445889 0.031655 -0.056857
0.446267 0.031655 -0.058591
0.446645 0.031655 -0.060325
0.447023 0.031655 -0.062059
0.447401 0.031655 -0.063793
0.447779 0.031655 -0.065527
0.448157 0.031655 -0.067261
0.448535 0.031655 -0.068995
0.448913 0.031655 -0.070729
0.449291 0.031655 -0.072463
0.449669 0.031655 -0.074197
0.451060 0.032664 -0.075549
0.450424 0.031655 -0.077665
0.450802 0.031655 -0.079399
0.452193 0.032664 -0.080746
0.452570 0.032664 -0.082479
0.452948 0.032664 -0.084211
0.452314 0.031655 -0.086335
0.451679 0.030643 -0.088462
0.452057 0.030643 -0.090198
0.451421 0.029629 -0.092331
0.451800 0.029629 -0.094068
0.451163 0.028613 -0.096207
0.451542 0.028613 -0.097946
0.450904 0.027596 -0.100091
0.451283 0.027596 -0.101831
0.450645 0.026577 -0.103981
0.451024 0.026577 -0.105723
0.451404 0.026577 -0.107465
0.450765 0.025555 -0.109622
0.451145 0.025555 -0.111366
0.450505 0.024532 -0.113529
0.449864 0.023507 -0.115696
0.450245 0.023507 -0.117443
0.449603 0.022480 -0.119616
0.449984 0.022480 -0.121364
0.449341 0.021451 -0.123542
0.449722 0.021451 -0.125293
0.449079 0.020420 -0.127477
0.449461 0.020420 -0.129229
0.449842 0.020420 -0.130980
0.449198 0.019388 -0.133172
0.448553 0.018353 -0.135368
0.448936 0.018353 -0.137123
0.448289 0.017316 -0.139324
0.446610 0.015237 -0.141979
0.445960 0.014194 -0.144191
0.445308 0.013150 -0.146408
0.444655 0.012103 -0.148628
0.444001 0.011055 -0.150853
0.442304 0.008952 -0.153545
0.441646 0.007898 -0.155781
0.439940 0.005783 -0.158490
0.438226 0.003660 -0.161209
0.437561 0.002595 -0.163463
0.435839 0.000460 -0.166200
0.433048 -0.002758 -0.169430
0.429171 -0.007077 -0.173167
0.425264 -0.011430 -0.176933
0.414768 -0.022460 -0.183747
0.400694 -0.037125 -0.192253
0.334983 0.002175 0.317435
0.351258 0.016888 0.315923
0.359425 0.024100 0.314310
0.365302 0.029194 0.312675
0.371125 0.034241 0.311055
0.375820 0.038245 0.309425
0.379412 0.041229 0.307782
0.384046 0.045182 0.306174
0.388647 0.049106 0.304579
0.393214 0.053002 0.302995
0.396710 0.055905 0.301392
0.400186 0.058793 0.299797
0.403644 0.061664 0.298210
0.406062 0.063570 0.296597
0.409488 0.066417 0.295027
0.412897 0.069247 0.293464
0.416287 0.072063 0.291911
0.419659 0.074864 0.290365
0.423013 0.077650 0.288828
0.426349 0.080420 0.287299
0.429668 0.083177 0.285778
0.432969 0.085918 0.284265
0.435280 0.087738 0.282713
0.438551 0.090456 0.281215
0.441806 0.093159 0.279724
0.445044 0.095849 0.278242
0.447311 0.097634 0.276715
0.449570 0.099413 0.275194
0.451822 0.101185 0.273678
0.453121 0.102069 0.272112
0.455361 0.103833 0.270606
0.458530 0.106467 0.269162
0.460750 0.108215 0.267667
0.462033 0.109087 0.266117
0.464242 0.110826 0.264631
0.466443 0.112560 0.263151
0.467716 0.113424 0.261611
0.469905 0.115149 0.260139
0.471172 0.116009 0.258607
0.472435 0.116867 0.257076
0.473697 0.117724 0.255549
0.474957 0.118580 0.254024
0.476214 0.119434 0.252501
0.477470 0.120287 0.250982
0.476909 0.119434 0.249317
0.477256 0.119434 0.247725
0.477603 0.119434 0.246133
0.477950 0.119434 0.244540
0.477388 0.118580 0.242869
0.477735 0.118580 0.241276
0.478083 0.118580 0.239682
0.477521 0.117724 0.238005
0.477869 0.117724 0.236410
0.478216 0.117724 0.234815
0.478564 0.117724 0.233220
0.478911 0.117724 0.231625
0.478350 0.116867 0.229940
0.478698 0.116867 0.228344
0.479046 0.116867 0.226748
0.479394 0.116867 0.225151
0.478832 0.116009 0.223459
0.479180 0.116009 0.221861
0.479528 0.116009 0.220264
0.479877 0.116009 0.218666
0.479315 0.115149 0.216967
0.479663 0.115149 0.215368
0.480012 0.115149 0.213769
0.479450 0.114287 0.212064
0.478887 0.113424 0.210356
0.479236 0.113424 0.208754
0.479585 0.113424 0.207153
0.479934 0.113424 0.205551
0.479371 0.112560 0.203836
0.479721 0.112560 0.202233
0.480070 0.112560 0.200630
0.480419 0.112560 0.199027
0.479856 0.111694 0.197305
0.480206 0.111694 0.195700
0.480556 0.111694 0.194096
0.480905 0.111694 0.192491
0.480342 0.110826 0.190762
0.480692 0.110826 0.189156
0.481042 0.110826 0.187550
0.480478 0.109957 0.185816
0.481742 0.110826 0.184339
0.481179 0.109957 0.182601
0.481529 0.109957 0.180994
0.481880 0.109957 0.179387
0.481316 0.109087 0.177643
0.481667 0.109087 0.176035
0.482018 0.109087 0.174426
0.482368 0.109087 0.172817
0.481805 0.108215 0.171067
0.482156 0.108215 0.169457
0.482507 0.108215 0.167847
0.482857 0.108215 0.166237
0.482294 0.107342 0.164479
0.482645 0.107342 0.162868
0.482996 0.107342 0.161256
0.482433 0.106467 0.159493
0.483699 0.107342 0.158034
0.483136 0.106467 0.156267
0.483487 0.106467 0.154655
0.483839 0.106467 0.153042
0.483275 0.105590 0.151270
0.483627 0.105590 0.149656
0.483979 0.105590 0.148041
0.484330 0.105590 0.146427
0.483767 0.104712 0.144648
0.484119 0.104712 0.143032
0.484471 0.104712 0.141417
0.484823 0.104712 0.139801
0.484259 0.103833 0.138014
0.484612 0.103833 0.136397
0.484964 0.103833 0.134781
0.485317 0.103833 0.133164
0.486584 0.104712 0.131723
0.486936 0.104712 0.130108
0.487288 0.104712 0.128492
0.487640 0.104712 0.126877
0.487992 0.104712 0.125261
0.488344 0.104712 0.123645
0.489608 0.105590 0.122215
0.489959 0.105590 0.120600
0.490311 0.105590 0.118986
0.490663 0.105590 0.117372
0.491015 0.105590 0.115758
0.491367 0.105590 0.114144
0.491719 0.105590 0.112529
0.492070 0.105590 0.110915
0.492422 0.105590 0.109301
0.492774 0.105590 0.107687
0.492218 0.104712 0.105874
0.493478 0.105590 0.104459
0.492922 0.104712 0.102643
0.493274 0.104712 0.101027
0.493626 0.104712 0.099412
0.493070 0.103833 0.097590
0.493422 0.103833 0.095973
0.493775 0.103833 0.094356
0.493218 0.102952 0.092529
0.493571 0.102952 0.090910
0.493924 0.102952 0.089292
0.493367 0.102069 0.087459
0.493720 0.102069 0.085839
0.494073 0.102069 0.084219
0.494426 0.102069 0.082599
0.493869 0.101185 0.080758
0.494223 0.101185 0.079137
0.494576 0.101185 0.077516
0.494019 0.100300 0.075669
0.494372 0.100300 0.074047
0.494726 0.100300 0.072424
0.494168 0.099413 0.070571
0.494522 0.099413 0.068947
0.493964 0.098524 0.067089
0.493405 0.097634 0.065229
0.492845 0.096742 0.063365
0.492284 0.095849 0.061497
0.491722 0.094954 0.059627
0.490238 0.093159 0.057510
0.489673 0.092260 0.055631
0.489106 0.091359 0.053749
0.489463 0.091359 0.052112
0.488896 0.090456 0.050225
0.488328 0.089552 0.048335
0.486831 0.087738 0.046187
0.486260 0.086829 0.044288
0.485687 0.085918 0.042386
0.485114 0.085006 0.040480
0.483604 0.083177 0.038309
0.482090 0.081341 0.036130
0.481511 0.080420 0.034210
0.479988 0.078575 0.032018
0.478460 0.076723 0.029818
0.476927 0.074864 0.027611
0.476340 0.073932 0.025672
0.473844 0.071126 0.023172
0.470374 0.067362 0.020376
0.467846 0.064521 0.017846
0.464332 0.060709 0.015013
0.461773 0.057832 0.012452
0.459199 0.054939 0.009878
0.456611 0.052031 0.007289
0.454009 0.049106 0.004687
0.449392 0.044197 0.001458
0.446751 0.041229 -0.001180
0.444095 0.038245 -0.003832
0.441425 0.035245 -0.006499
0.437715 0.031219 -0.009501
0.435010 0.028179 -0.012201
0.432289 0.025123 -0.014917
0.432669 0.025123 -0.016659
0.433049 0.025123 -0.018401
0.434462 0.026143 -0.019811
0.434841 0.026143 -0.021552
0.434188 0.025123 -0.023627
0.434567 0.025123 -0.025369
0.434947 0.025123 -0.027111
0.435327 0.025123 -0.028853
0.436738 0.026143 -0.030254
0.437117 0.026143 -0.031994
0.437497 0.026143 -0.033735
0.437876 0.026143 -0.035475
0.438255 0.026143 -0.037216
0.438635 0.026143 -0.038956
0.439014 0.026143 -0.040697
0.439393 0.026143 -0.042437
0.439773 0.026143 -0.044177
0.440152 0.026143 -0.045918
0.441558 0.027162 -0.047301
0.441937 0.027162 -0.049040
0.442316 0.027162 -0.050779
0.442695 0.027162 -0.052518
0.443074 0.027162 -0.054257
0.443453 0.027162 -0.055995
0.444854 0.028179 -0.057368
0.445233 0.028179 -0.059106
0.445611 0.028179 -0.060843
0.445990 0.028179 -0.062580
0.446369 0.028179 -0.064317
0.446747 0.028179 -0.066054
0.447126 0.028179 -0.067791
0.447504 0.028179 -0.069529
0.447883 0.028179 -0.071266
0.448262 0.028179 -0.073003
0.448640 0.028179 -0.074740
0.449019 0.028179 -0.076477
0.449398 0.028179 -0.078215
0.449776 0.028179 -0.079952
0.450155 0.028179 -0.081689
0.451549 0.029194 -0.083037
0.451927 0.029194 -0.084772
0.451291 0.028179 -0.086901
0.450653 0.027162 -0.089033
0.451032 0.027162 -0.090771
0.450394 0.026143 -0.092909
0.450773 0.026143 -0.094650
0.450134 0.025123 -0.096793
0.450514 0.025123 -0.098535
0.449874 0.024100 -0.100684
0.450254 0.024100 -0.102428
0.449613 0.023076 -0.104582
0.449994 0.023076 -0.106328
0.449352 0.022049 -0.108488
0.449733 0.022049 -0.110235
0.449090 0.021021 -0.112401
0.449472 0.021021 -0.114149
0.448828 0.019990 -0.116321
0.449210 0.019990 -0.118071
0.448566 0.018958 -0.120248
0.448947 0.018958 -0.122000
0.448303 0.017924 -0.124183
0.448685 0.017924 -0.125937
0.448039 0.016888 -0.128126
0.448421 0.016888 -0.129881
0.447775 0.015850 -0.132075
0.448158 0.015850 -0.133832
0.447510 0.014810 -0.136032
0.446861 0.013768 -0.138237
0.445176 0.011678 -0.140895
0.444523 0.010630 -0.143110
0.443869 0.009580 -0.145330
0.443214 0.008529 -0.147554
0.442557 0.007475 -0.149782
0.440854 0.005361 -0.152477
0.440193 0.004301 -0.154716
0.438481 0.002175 -0.157428
0.437816 0.001110 -0.159678
0.436094 -0.001028 -0.162407
0.434365 -0.003174 -0.165147
0.431565 -0.006409 -0.168381
0.427674 -0.010751 -0.172121
0.418317 -0.020643 -0.178375
0.404329 -0.035241 -0.186787
0.339451 0.003881 0.317711
0.352274 0.015423 0.316144
0.359330 0.021619 0.314510
0.365213 0.026729 0.312872
0.371041 0.031792 0.311250
0.375741 0.035809 0.309618
0.379336 0.038803 0.307972
0.383975 0.042768 0.306363
0.387525 0.045723 0.304737
0.393151 0.050613 0.303180
0.396650 0.053525 0.301574
0.400131 0.056421 0.299977
0.402563 0.058344 0.298355
0.406011 0.061214 0.296774
0.409441 0.064069 0.295202
0.412853 0.066909 0.293638
0.416246 0.069733 0.292082
0.419621 0.072543 0.290535
0.422979 0.075337 0.288995
0.425327 0.077192 0.287422
0.429640 0.080881 0.285942
0.431964 0.082717 0.284382
0.435256 0.085457 0.282874
0.438531 0.088183 0.281374
0.441788 0.090895 0.279881
0.445029 0.093593 0.278397
0.446342 0.094489 0.276818
0.448607 0.096276 0.275294
0.450864 0.098057 0.273775
0.453114 0.099832 0.272262
0.455355 0.101601 0.270754
0.457589 0.103364 0.269251
0.459815 0.105121 0.267753
0.462033 0.106871 0.266260
0.463315 0.107744 0.264712
0.465522 0.109486 0.263228
0.466797 0.110355 0.261686
0.468992 0.112087 0.260212
0.471179 0.113814 0.258742
0.472445 0.114675 0.257211
0.473707 0.115535 0.255682
0.474968 0.116393 0.254155
0.476227 0.117250 0.252631
0.476574 0.117250 0.251038
0.476921 0.117250 0.249444
0.477269 0.117250 0.247851
0.476706 0.116393 0.246181
0.477054 0.116393 0.244586
0.477401 0.116393 0.242991
0.477749 0.116393 0.241396
0.477186 0.115535 0.239719
0.477534 0.115535 0.238123
0.477882 0.115535 0.236526
0.478230 0.115535 0.234930
0.478578 0.115535 0.233334
0.478016 0.114675 0.231649
0.478364 0.114675 0.230051
0.478712 0.114675 0.228453
0.479060 0.114675 0.226856
0.478498 0.113814 0.225163
0.478846 0.113814 0.223564
0.479195 0.113814 0.221966
0.478632 0.112952 0.220268
0.478981 0.112952 0.218667
0.479330 0.112952 0.217067
0.479679 0.112952 0.215467
0.479116 0.112087 0.213762
0.479465 0.112087 0.212160
0.478901 0.111222 0.210451
0.479251 0.111222 0.208847
0.479600 0.111222 0.207244
0.479036 0.110355 0.205529
0.479386 0.110355 0.203925
0.479736 0.110355 0.202320
0.480086 0.110355 0.200716
0.479522 0.109486 0.198994
0.479872 0.109486 0.197388
0.480222 0.109486 0.195782
0.479657 0.108616 0.194055
0.480008 0.108616 0.192447
0.480358 0.108616 0.190840
0.480708 0.108616 0.189233
0.480144 0.107744 0.187498
0.480494 0.107744 0.185889
0.480845 0.107744 0.184281
0.481196 0.107744 0.182672
0.481546 0.107744 0.181063
0.480982 0.106871 0.179320
0.481333 0.106871 0.177710
0.481684 0.106871 0.176100
0.482035 0.106871 0.174490
0.481471 0.105997 0.172740
0.481822 0.105997 0.171128
0.482173 0.105997 0.169517
0.481609 0.105121 0.167760
0.481960 0.105121 0.166148
0.482312 0.105121 0.164535
0.482663 0.105121 0.162922
0.482098 0.104243 0.161158
0.482450 0.104243 0.159544
0.482802 0.104243 0.157930
0.483154 0.104243 0.156316
0.483506 0.104243 0.154702
0.482941 0.103364 0.152929
0.483294 0.103364 0.151314
0.483646 0.103364 0.149698
0.483998 0.103364 0.148083
0.483433 0.102483 0.146303
0.483786 0.102483 0.144686
0.484138 0.102483 0.143069
0.483573 0.101601 0.141284
0.483926 0.101601 0.139666
0.484279 0.101601 0.138047
0.484632 0.101601 0.136429
0.484984 0.101601 0.134811
0.485337 0.101601 0.133192
0.485690 0.101601 0.131574
0.486957 0.102483 0.130134
0.487310 0.102483 0.128517
0.487662 0.102483 0.126900
0.488015 0.102483 0.125283
0.488367 0.102483 0.123666
0.488720 0.102483 0.122049
0.489072 0.102483 0.120432
0.489424 0.102483 0.118815
0.489777 0.102483 0.117198
0.490129 0.102483 0.115581
0.490482 0.102483 0.113964
0.490834 0.102483 0.112347
0.491187 0.102483 0.110730
0.491539 0.102483 0.109113
0.491891 0.102483 0.107496
0.492244 0.102483 0.105879
0.492596 0.102483 0.104262
0.492949 0.102483 0.102645
0.493301 0.102483 0.101028
0.492744 0.101601 0.099206
0.493097 0.101601 0.097588
0.493450 0.101601 0.095970
0.492893 0.100718 0.094142
0.493246 0.100718 0.092522
0.493599 0.100718 0.090902
0.493041 0.099832 0.089069
0.493394 0.099832 0.087448
0.493748 0.099832 0.085826
0.493190 0.098946 0.083987
0.493543 0.098946 0.082364
0.493897 0.098946 0.080742
0.493339 0.098057 0.078896
0.493693 0.098057 0.077272
0.494047 0.098057 0.075648
0.494401 0.098057 0.074024
0.493842 0.097167 0.072171
0.494197 0.097167 0.070545
0.493637 0.096276 0.068688
0.493078 0.095383 0.066826
0.492517 0.094489 0.064962
0.491955 0.093593 0.063095
0.491392 0.092695 0.061224
0.490828 0.091796 0.059350
0.490263 0.090895 0.057473
0.489697 0.089993 0.055592
0.489130 0.089089 0.053708
0.488562 0.088183 0.051821
0.487994 0.087276 0.049930
0.487424 0.086367 0.048036
0.486853 0.085457 0.046139
0.486281 0.084545 0.044239
0.484775 0.082717 0.042076
0.484200 0.081800 0.040167
0.482686 0.079962 0.037991
0.481167 0.078117 0.035807
0.480586 0.077192 0.033884
0.479059 0.075337 0.031688
0.477527 0.073476 0.029483
0.475989 0.071608 0.027271
0.473490 0.068794 0.024773
0.470978 0.065964 0.022262
0.468452 0.063119 0.019737
0.465913 0.060259 0.017198
0.462382 0.056421 0.014356
0.459810 0.053525 0.011786
0.456235 0.049638 0.008906
0.452634 0.045723 0.006004
0.450009 0.042768 0.003386
0.447370 0.039797 0.000753
0.443703 0.035809 -0.002205
0.441029 0.032800 -0.004870
0.438340 0.029773 -0.007550
0.434606 0.025711 -0.010567
0.430843 0.021619 -0.013607
0.430184 0.020591 -0.015680
0.430564 0.020591 -0.017427
0.431984 0.021619 -0.018842
0.432365 0.021619 -0.020588
0.432745 0.021619 -0.022333
0.434162 0.022645 -0.023742
0.434542 0.022645 -0.025486
0.433886 0.021619 -0.027569
0.434267 0.021619 -0.029314
0.434647 0.021619 -0.031059
0.435028 0.021619 -0.032805
0.436442 0.022645 -0.034204
0.436822 0.022645 -0.035948
0.437202 0.022645 -0.037692
0.437582 0.022645 -0.039436
0.437962 0.022645 -0.041179
0.438342 0.022645 -0.042923
0.438722 0.022645 -0.044667
0.439102 0.022645 -0.046410
0.439482 0.022645 -0.048154
0.440891 0.023669 -0.049538
0.441271 0.023669 -0.051280
0.441651 0.023669 -0.053022
0.442030 0.023669 -0.054764
0.442410 0.023669 -0.056506
0.442790 0.023669 -0.058248
0.443169 0.023669 -0.059990
0.444573 0.024691 -0.061362
0.444953 0.024691 -0.063102
0.445332 0.024691 -0.064843
0.445711 0.024691 -0.066583
0.446091 0.024691 -0.068324
0.446470 0.024691 -0.070064
0.446849 0.024691 -0.071805
0.447229 0.024691 -0.073545
0.447608 0.024691 -0.075285
0.447987 0.024691 -0.077026
0.448367 0.024691 -0.078766
0.448746 0.024691 -0.080507
0.449125 0.024691 -0.082247
0.449505 0.024691 -0.083988
0.449884 0.024691 -0.085728
0.450263 0.024691 -0.087468
0.449624 0.023669 -0.089605
0.450004 0.023669 -0.091347
0.449363 0.022645 -0.093489
0.448722 0.021619 -0.095636
0.449102 0.021619 -0.097381
0.448460 0.020591 -0.099533
0.448840 0.020591 -0.101280
0.448197 0.019561 -0.103437
0.448578 0.019561 -0.105186
0.447934 0.018530 -0.107349
0.448316 0.018530 -0.109099
0.447671 0.017496 -0.111268
0.448052 0.017496 -0.113020
0.447407 0.016461 -0.115195
0.447789 0.016461 -0.116948
0.447142 0.015423 -0.119129
0.447525 0.015423 -0.120884
0.446877 0.014384 -0.123070
0.447260 0.014384 -0.124827
0.447643 0.014384 -0.126583
0.446995 0.013342 -0.128777
0.446346 0.012299 -0.130975
0.446729 0.012299 -0.132735
0.446079 0.011254 -0.134938
0.445428 0.010206 -0.137146
0.443736 0.008106 -0.139807
0.443081 0.007053 -0.142025
0.442425 0.005997 -0.144248
0.441767 0.004940 -0.146475
0.441108 0.003881 -0.148706
0.440447 0.002820 -0.150941
0.438735 0.000691 -0.153646
0.438070 -0.000376 -0.155893
0.436349 -0.002517 -0.158615
0.434621 -0.004666 -0.161348
0.433949 -0.005743 -0.163612
0.430075 -0.010074 -0.167327
0.420757 -0.019942 -0.173528
0.407943 -0.033369 -0.181354
0.340477 0.002401 0.317935
0.353289 0.013958 0.316366
0.360340 0.020162 0.314730
0.366218 0.025280 0.313091
0.370957 0.029339 0.311445
0.375661 0.033369 0.309811
0.380330 0.037369 0.308189
0.383903 0.040350 0.306552
0.388513 0.044299 0.304952
0.393089 0.048219 0.303364
0.396591 0.051140 0.301757
0.400075 0.054046 0.300158
0.402509 0.055974 0.298534
0.405961 0.058854 0.296951
0.409394 0.061718 0.295377
0.412809 0.064566 0.293811
0.416205 0.067399 0.292253
0.419584 0.070218 0.290704
0.422944 0.073021 0.289163
0.425295 0.074881 0.287588
0.429611 0.078582 0.286106
0.431938 0.080423 0.284544
0.435233 0.083172 0.283034
0.438510 0.085906 0.281533
0.441771 0.088627 0.280039
0.443092 0.089530 0.278452
0.445370 0.091333 0.276920
0.447641 0.093129 0.275393
0.449903 0.094918 0.273872
0.452158 0.096702 0.272356
0.454405 0.098479 0.270845
0.456645 0.100251 0.269339
0.458876 0.102016 0.267839
0.461100 0.103775 0.266344
0.463316 0.105528 0.264853
0.464597 0.106402 0.263306
0.466801 0.108146 0.261825
0.468075 0.109016 0.260284
0.470268 0.110751 0.258812
0.472454 0.112480 0.257345
0.473718 0.113342 0.255815
0.474979 0.114203 0.254287
0.476239 0.115062 0.252761
0.476587 0.115062 0.251167
0.476934 0.115062 0.249572
0.476371 0.114203 0.247902
0.476719 0.114203 0.246305
0.477067 0.114203 0.244709
0.477415 0.114203 0.243113
0.476851 0.113342 0.241436
0.477200 0.113342 0.239838
0.477548 0.113342 0.238241
0.477896 0.113342 0.236643
0.477333 0.112480 0.234959
0.477681 0.112480 0.233360
0.478030 0.112480 0.231761
0.478378 0.112480 0.230162
0.477815 0.111616 0.228471
0.478163 0.111616 0.226871
0.478512 0.111616 0.225271
0.478861 0.111616 0.223670
0.478298 0.110751 0.221972
0.478647 0.110751 0.220371
0.478996 0.110751 0.218769
0.479345 0.110751 0.217167
0.478781 0.109884 0.215462
0.479131 0.109884 0.213859
0.479480 0.109884 0.212256
0.478916 0.109016 0.210545
0.478351 0.108146 0.208832
0.478701 0.108146 0.207226
0.479051 0.108146 0.205620
0.479401 0.108146 0.204014
0.478836 0.107275 0.202293
0.479186 0.107275 0.200686
0.479537 0.107275 0.199079
0.479887 0.107275 0.197472
0.479322 0.106402 0.195744
0.479673 0.106402 0.194135
0.480023 0.106402 0.192527
0.480374 0.106402 0.190918
0.479809 0.105528 0.189183
0.480160 0.105528 0.187573
0.480511 0.105528 0.185963
0.480861 0.105528 0.184353
0.480296 0.104652 0.182611
0.480647 0.104652 0.181000
0.480999 0.104652 0.179388
0.481350 0.104652 0.177777
0.480785 0.103775 0.176028
0.481136 0.103775 0.174415
0.481488 0.103775 0.172802
0.481839 0.103775 0.171189
0.481274 0.102896 0.169433
0.481626 0.102896 0.167819
0.481977 0.102896 0.166205
0.482329 0.102896 0.164590
0.481764 0.102016 0.162827
0.482116 0.102016 0.161211
0.482468 0.102016 0.159596
0.482820 0.102016 0.157980
0.482255 0.101134 0.156209
0.482607 0.101134 0.154592
0.482960 0.101134 0.152975
0.483312 0.101134 0.151358
0.482746 0.100251 0.149580
0.483099 0.100251 0.147962
0.483452 0.100251 0.146343
0.483805 0.100251 0.144725
0.483239 0.099366 0.142939
0.483592 0.099366 0.141320
0.483945 0.099366 0.139700
0.483379 0.098479 0.137909
0.483733 0.098479 0.136287
0.485004 0.099366 0.134841
0.485357 0.099366 0.133221
0.485710 0.099366 0.131601
0.486063 0.099366 0.129981
0.486416 0.099366 0.128362
0.486769 0.099366 0.126742
0.488037 0.100251 0.125305
0.488390 0.100251 0.123686
0.488743 0.100251 0.122068
0.489096 0.100251 0.120449
0.489448 0.100251 0.118831
0.489801 0.100251 0.117213
0.490154 0.100251 0.115594
0.490506 0.100251 0.113976
0.490859 0.100251 0.112358
0.491212 0.100251 0.110739
0.491565 0.100251 0.109121
0.491917 0.100251 0.107502
0.491359 0.099366 0.105685
0.491712 0.099366 0.104065
0.492065 0.099366 0.102445
0.492418 0.099366 0.100825
0.492771 0.099366 0.099206
0.492213 0.098479 0.097379
0.492566 0.098479 0.095758
0.492919 0.098479 0.094137
0.492361 0.097591 0.092304
0.492714 0.097591 0.090682
0.493068 0.097591 0.089059
0.492509 0.096702 0.087221
0.492863 0.096702 0.085597
0.493217 0.096702 0.083973
0.492658 0.095811 0.082128
0.493012 0.095811 0.080503
0.493366 0.095811 0.078877
0.493720 0.095811 0.077252
0.493161 0.094918 0.075400
0.493515 0.094918 0.073773
0.492955 0.094024 0.071917
0.493310 0.094024 0.070288
0.492750 0.093129 0.068427
0.492188 0.092231 0.066563
0.492543 0.092231 0.064932
0.491981 0.091333 0.063062
0.490497 0.089530 0.060950
0.489931 0.088627 0.059072
0.489364 0.087721 0.057191
0.488797 0.086815 0.055307
0.488228 0.085906 0.053419
0.487659 0.084997 0.051529
0.487088 0.084085 0.049635
0.486516 0.083172 0.047737
0.485944 0.082257 0.045836
0.485370 0.081341 0.043932
0.484795 0.080423 0.042025
0.483283 0.078582 0.039852
0.481765 0.076735 0.037672
0.480241 0.074881 0.035484
0.479658 0.073952 0.033557
0.478127 0.072088 0.031356
0.476591 0.070218 0.029147
0.474093 0.067399 0.026654
0.471583 0.064566 0.024148
0.468092 0.060765 0.021346
0.465549 0.057896 0.018809
0.462992 0.055011 0.016259
0.459439 0.051140 0.013402
0.456849 0.048219 0.010821
0.453250 0.044299 0.007926
0.449625 0.040350 0.005010
0.446982 0.037369 0.002380
0.444325 0.034372 -0.000265
0.441653 0.031358 -0.002925
0.437941 0.027313 -0.005916
0.434201 0.023238 -0.008930
0.430433 0.019133 -0.011966
0.426638 0.014997 -0.015025
0.428067 0.016034 -0.016448
0.428448 0.016034 -0.018200
0.429874 0.017069 -0.019618
0.430256 0.017069 -0.021368
0.430637 0.017069 -0.023119
0.431019 0.017069 -0.024869
0.432441 0.018102 -0.026280
0.432822 0.018102 -0.028028
0.434241 0.019133 -0.029435
0.434622 0.019133 -0.031182
0.433965 0.018102 -0.033274
0.434346 0.018102 -0.035023
0.435764 0.019133 -0.036423
0.436145 0.019133 -0.038170
0.436525 0.019133 -0.039917
0.436906 0.019133 -0.041664
0.437287 0.019133 -0.043411
0.437668 0.019133 -0.045158
0.438048 0.019133 -0.046904
0.438429 0.019133 -0.048651
0.439842 0.020162 -0.050038
0.440222 0.020162 -0.051783
0.440602 0.020162 -0.053528
0.440983 0.020162 -0.055273
0.441363 0.020162 -0.057019
0.441744 0.020162 -0.058764
0.442124 0.020162 -0.060509
0.442504 0.020162 -0.062255
0.442885 0.020162 -0.064000
0.443265 0.020162 -0.065745
0.443646 0.020162 -0.067491
0.444026 0.020162 -0.069236
0.444406 0.020162 -0.070981
0.444787 0.020162 -0.072726
0.445167 0.020162 -0.074472
0.445548 0.020162 -0.076217
0.445928 0.020162 -0.077962
0.446308 0.020162 -0.079708
0.446689 0.020162 -0.081453
0.447069 0.020162 -0.083198
0.447450 0.020162 -0.084944
0.447830 0.020162 -0.086689
0.448210 0.020162 -0.088434
0.447567 0.019133 -0.090578
0.447948 0.019133 -0.092325
0.448329 0.019133 -0.094072
0.448709 0.019133 -0.095819
0.447040 0.017069 -0.098377
0.447421 0.017069 -0.100127
0.446776 0.016034 -0.102288
0.447157 0.016034 -0.104040
0.446511 0.014997 -0.106206
0.446893 0.014997 -0.107959
0.447275 0.014997 -0.109713
0.446628 0.013958 -0.111887
0.447011 0.013958 -0.113642
0.446363 0.012918 -0.115821
0.446745 0.012918 -0.117578
0.446097 0.011875 -0.119763
0.446480 0.011875 -0.121521
0.445830 0.010830 -0.123712
0.446214 0.010830 -0.125472
0.445563 0.009783 -0.127669
0.445947 0.009783 -0.129431
0.445296 0.008735 -0.131633
0.444643 0.007684 -0.133840
0.443989 0.006631 -0.136050
0.442292 0.004520 -0.138714
0.441634 0.003462 -0.140936
0.440975 0.002401 -0.143162
0.440314 0.001338 -0.145392
0.439652 0.000274 -0.147626
0.438989 -0.000793 -0.149865
0.437271 -0.002933 -0.152573
0.436604 -0.004005 -0.154823
0.434876 -0.006157 -0.157548
0.434205 -0.007236 -0.159809
0.432468 -0.009400 -0.162552
0.424270 -0.018141 -0.168211
0.410427 -0.032635 -0.176453
0.341504 0.000921 0.318159
0.354305 0.012494 0.316587
0.360245 0.017675 0.314931
0.366129 0.022809 0.313289
0.371959 0.027895 0.311664
0.375582 0.030924 0.310005
0.380255 0.034936 0.308381
0.383832 0.037927 0.306742
0.388446 0.041888 0.305140
0.393026 0.045821 0.303549
0.396532 0.048751 0.301940
0.400019 0.051666 0.300339
0.402456 0.053600 0.298714
0.405911 0.056489 0.297129
0.409347 0.059362 0.295552
0.412765 0.062219 0.293985
0.416165 0.065061 0.292425
0.419546 0.067888 0.290874
0.422909 0.070700 0.289332
0.425262 0.072566 0.287754
0.429582 0.076279 0.286271
0.431911 0.078125 0.284707
0.435209 0.080883 0.283196
0.438490 0.083626 0.281692
0.440787 0.085446 0.280148
0.443075 0.087261 0.278609
0.444395 0.088165 0.277023
0.446671 0.089970 0.275494
0.448939 0.091769 0.273969
0.451200 0.093561 0.272450
0.453452 0.095347 0.270937
0.456640 0.098014 0.269486
0.457934 0.098900 0.267925
0.460164 0.100667 0.266427
0.462385 0.102429 0.264934
0.464599 0.104184 0.263447
0.465878 0.105059 0.261900
0.468081 0.106806 0.260422
0.469354 0.107677 0.258882
0.471545 0.109414 0.257412
0.473728 0.111145 0.255948
0.474991 0.112009 0.254418
0.476251 0.112871 0.252892
0.476599 0.112871 0.251296
0.476035 0.112009 0.249626
0.476383 0.112009 0.248028
0.476732 0.112009 0.246430
0.476167 0.111145 0.244755
0.476516 0.111145 0.243156
0.476864 0.111145 0.241557
0.477213 0.111145 0.239958
0.476648 0.110280 0.238275
0.476997 0.110280 0.236675
0.477346 0.110280 0.235075
0.477695 0.110280 0.233474
0.478043 0.110280 0.231874
0.477479 0.109414 0.230183
0.477828 0.109414 0.228581
0.478177 0.109414 0.226980
0.478527 0.109414 0.225378
0.477962 0.108546 0.223680
0.478312 0.108546 0.222077
0.478661 0.108546 0.220474
0.478096 0.107677 0.218770
0.478446 0.107677 0.217166
0.478796 0.107677 0.215561
0.479145 0.107677 0.213957
0.478581 0.106806 0.212246
0.478015 0.105933 0.210532
0.478365 0.105933 0.208925
0.478716 0.105933 0.207318
0.479066 0.105933 0.205711
0.478500 0.105059 0.203990
0.478851 0.105059 0.202381
0.479201 0.105059 0.200773
0.479552 0.105059 0.199164
0.478986 0.104184 0.197436
0.479337 0.104184 0.195826
0.479688 0.104184 0.194216
0.479122 0.103307 0.192483
0.479473 0.103307 0.190871
0.479824 0.103307 0.189260
0.480175 0.103307 0.187649
0.479609 0.102429 0.185908
0.479961 0.102429 0.184295
0.480312 0.102429 0.182682
0.480664 0.102429 0.181070
0.481015 0.102429 0.179457
0.480449 0.101549 0.177707
0.480801 0.101549 0.176093
0.481153 0.101549 0.174479
0.481505 0.101549 0.172865
0.480938 0.100667 0.171108
0.481291 0.100667 0.169493
0.481643 0.100667 0.167877
0.481076 0.099784 0.166115
0.481429 0.099784 0.164498
0.481781 0.099784 0.162881
0.482133 0.099784 0.161264
0.481567 0.098900 0.159494
0.481920 0.098900 0.157876
0.482272 0.098900 0.156258
0.482625 0.098900 0.154639
0.482978 0.098900 0.153021
0.482412 0.098014 0.151243
0.482765 0.098014 0.149623
0.483118 0.098014 0.148003
0.483471 0.098014 0.146383
0.482904 0.097126 0.144598
0.483258 0.097126 0.142977
0.483611 0.097126 0.141355
0.483044 0.096237 0.139564
0.483398 0.096237 0.137941
0.483752 0.096237 0.136319
0.484105 0.096237 0.134696
0.484459 0.096237 0.133074
0.485731 0.097126 0.131628
0.486084 0.097126 0.130007
0.486438 0.097126 0.128386
0.486791 0.097126 0.126765
0.487144 0.097126 0.125144
0.487498 0.097126 0.123523
0.487851 0.097126 0.121901
0.488204 0.097126 0.120280
0.488558 0.097126 0.118659
0.488911 0.097126 0.117038
0.489264 0.097126 0.115417
0.489618 0.097126 0.113795
0.489971 0.097126 0.112174
0.490324 0.097126 0.110553
0.490678 0.097126 0.108932
0.491031 0.097126 0.107311
0.491384 0.097126 0.105690
0.491738 0.097126 0.104068
0.492091 0.097126 0.102447
0.492444 0.097126 0.100826
0.491885 0.096237 0.098999
0.492239 0.096237 0.097377
0.491679 0.095347 0.095546
0.492033 0.095347 0.093922
0.492387 0.095347 0.092298
0.492741 0.095347 0.090674
0.492181 0.094454 0.088835
0.492536 0.094454 0.087210
0.492890 0.094454 0.085584
0.492330 0.093561 0.083739
0.491769 0.092665 0.081891
0.492124 0.092665 0.080263
0.492478 0.092665 0.078635
0.492833 0.092665 0.077007
0.492272 0.091769 0.075151
0.492627 0.091769 0.073522
0.492066 0.090870 0.071662
0.492421 0.090870 0.070031
0.491859 0.089970 0.068166
0.491295 0.089068 0.066298
0.491651 0.089068 0.064664
0.491087 0.088165 0.062791
0.490522 0.087261 0.060915
0.489956 0.086354 0.059036
0.489389 0.085446 0.057153
0.487893 0.083626 0.055021
0.487323 0.082713 0.053130
0.486751 0.081799 0.051236
0.487110 0.081799 0.049590
0.486538 0.080883 0.047691
0.485965 0.079965 0.045788
0.484456 0.078125 0.043625
0.483879 0.077203 0.041713
0.482362 0.075353 0.039537
0.480840 0.073497 0.037352
0.479312 0.071634 0.035160
0.478727 0.070700 0.033229
0.476240 0.067888 0.030751
0.473740 0.065061 0.028261
0.471226 0.062219 0.025756
0.468698 0.059362 0.023239
0.466157 0.056489 0.020707
0.463602 0.053600 0.018162
0.460051 0.049725 0.015313
0.457463 0.046799 0.012736
0.452870 0.041888 0.009551
0.450243 0.038920 0.006940
0.447602 0.035935 0.004315
0.443933 0.031930 0.001367
0.440236 0.027895 -0.001603
0.437540 0.024849 -0.004279
0.433796 0.020761 -0.007289
0.430023 0.016643 -0.010322
0.426222 0.012494 -0.013378
0.424502 0.010407 -0.015793
0.425937 0.011451 -0.017220
0.426320 0.011451 -0.018976
0.426703 0.011451 -0.020733
0.428135 0.012494 -0.022153
0.428517 0.012494 -0.023909
0.428900 0.012494 -0.025664
0.429282 0.012494 -0.027419
0.430710 0.013534 -0.028831
0.432135 0.014572 -0.030241
0.432517 0.014572 -0.031993
0.432899 0.014572 -0.033745
0.434320 0.015608 -0.035149
0.434702 0.015608 -0.036899
0.435083 0.015608 -0.038650
0.435465 0.015608 -0.040400
0.435846 0.015608 -0.042150
0.436228 0.015608 -0.043900
0.436609 0.015608 -0.045650
0.438026 0.016643 -0.047042
0.438407 0.016643 -0.048791
0.438788 0.016643 -0.050539
0.439169 0.016643 -0.052288
0.439551 0.016643 -0.054036
0.439932 0.016643 -0.055785
0.440313 0.016643 -0.057533
0.440694 0.016643 -0.059282
0.441075 0.016643 -0.061030
0.441456 0.016643 -0.062779
0.441837 0.016643 -0.064528
0.442218 0.016643 -0.066276
0.442599 0.016643 -0.068025
0.442980 0.016643 -0.069773
0.443362 0.016643 -0.071522
0.443743 0.016643 -0.073270
0.444124 0.016643 -0.075019
0.444505 0.016643 -0.076768
0.444886 0.016643 -0.078516
0.445267 0.016643 -0.080265
0.444620 0.015608 -0.082405
0.445001 0.015608 -0.084155
0.445383 0.015608 -0.085905
0.445764 0.015608 -0.087655
0.446146 0.015608 -0.089405
0.446527 0.015608 -0.091156
0.445881 0.014572 -0.093308
0.446262 0.014572 -0.095060
0.446644 0.014572 -0.096811
0.447026 0.014572 -0.098563
0.446379 0.013534 -0.100724
0.445731 0.012494 -0.102889
0.446114 0.012494 -0.104645
0.445465 0.011451 -0.106815
0.445848 0.011451 -0.108572
0.445198 0.010407 -0.110749
0.445581 0.010407 -0.112507
0.444931 0.009361 -0.114690
0.445314 0.009361 -0.116450
0.444663 0.008313 -0.118638
0.445047 0.008313 -0.120400
0.444395 0.007263 -0.122594
0.444779 0.007263 -0.124357
0.444126 0.006211 -0.126557
0.444511 0.006211 -0.128322
0.443857 0.005157 -0.130527
0.443201 0.004101 -0.132737
0.442545 0.003043 -0.134951
0.440841 0.000921 -0.137618
0.440181 -0.000143 -0.139843
0.439519 -0.001209 -0.142072
0.438856 -0.002277 -0.144305
0.438191 -0.003348 -0.146543
0.437526 -0.004420 -0.148785
0.435801 -0.006570 -0.151496
0.435132 -0.007649 -0.153749
0.433398 -0.009812 -0.156477
0.432724 -0.010896 -0.158742
0.425609 -0.018547 -0.163888
0.412902 -0.031905 -0.171571
0.399894 -0.045580 -0.179436
0.342531 -0.000559 0.318382
0.354204 0.009985 0.316791
0.360150 0.015184 0.315132
0.366040 0.020333 0.313488
0.371876 0.025436 0.311860
0.376581 0.029483 0.310223
0.380180 0.032500 0.308572
0.383760 0.035499 0.306931
0.388379 0.039473 0.305327
0.392963 0.043418 0.303735
0.395429 0.045380 0.302093
0.398925 0.048309 0.300489
0.402402 0.051222 0.298893
0.405860 0.054120 0.297307
0.409300 0.057002 0.295728
0.412721 0.059868 0.294159
0.415113 0.061770 0.292559
0.418503 0.064611 0.291004
0.421876 0.067437 0.289459
0.425230 0.070247 0.287921
0.428566 0.073043 0.286392
0.431885 0.075824 0.284870
0.435186 0.078590 0.283357
0.438469 0.081341 0.281852
0.440768 0.083167 0.280306
0.443059 0.084987 0.278765
0.445341 0.086800 0.277230
0.446658 0.087705 0.275647
0.448928 0.089509 0.274121
0.451191 0.091306 0.272601
0.453445 0.093098 0.271085
0.454746 0.093991 0.269518
0.456989 0.095773 0.268012
0.459224 0.097549 0.266511
0.461451 0.099319 0.265015
0.463670 0.101083 0.263525
0.464953 0.101962 0.261976
0.467160 0.103717 0.260495
0.469360 0.105466 0.259018
0.470632 0.106338 0.257480
0.472821 0.108077 0.256013
0.475002 0.109811 0.254550
0.475350 0.109811 0.252951
0.475699 0.109811 0.251352
0.475133 0.108945 0.249680
0.475482 0.108945 0.248079
0.475831 0.108945 0.246479
0.476179 0.108945 0.244879
0.476528 0.108945 0.243278
0.476877 0.108945 0.241678
0.476312 0.108077 0.239995
0.476661 0.108077 0.238394
0.477010 0.108077 0.236792
0.477359 0.108077 0.235190
0.477708 0.108077 0.233589
0.477143 0.107208 0.231898
0.477493 0.107208 0.230295
0.477842 0.107208 0.228691
0.477277 0.106338 0.226995
0.477626 0.106338 0.225390
0.477976 0.106338 0.223786
0.478326 0.106338 0.222181
0.477760 0.105466 0.220478
0.478110 0.105466 0.218872
0.478460 0.105466 0.217266
0.478810 0.105466 0.215660
0.478245 0.104592 0.213950
0.478595 0.104592 0.212342
0.478029 0.103717 0.210627
0.478380 0.103717 0.209019
0.478730 0.103717 0.207410
0.478164 0.102840 0.205690
0.478514 0.102840 0.204080
0.478865 0.102840 0.202470
0.478299 0.101962 0.200743
0.478650 0.101962 0.199132
0.479001 0.101962 0.197520
0.479352 0.101962 0.195909
0.478785 0.101083 0.194175
0.479137 0.101083 0.192563
0.479488 0.101083 0.190950
0.478921 0.100202 0.189210
0.479273 0.100202 0.187596
0.479624 0.100202 0.185982
0.479976 0.100202 0.184368
0.480328 0.100202 0.182754
0.479761 0.099319 0.181006
0.480113 0.099319 0.179390
0.480465 0.099319 0.177775
0.480817 0.099319 0.176159
0.480250 0.098435 0.174404
0.480603 0.098435 0.172787
0.480955 0.098435 0.171170
0.480387 0.097549 0.169409
0.480740 0.097549 0.167790
0.481093 0.097549 0.166172
0.481446 0.097549 0.164554
0.480878 0.096662 0.162785
0.481231 0.096662 0.161166
0.481584 0.096662 0.159546
0.481937 0.096662 0.157926
0.482290 0.096662 0.156306
0.481723 0.095773 0.154529
0.482076 0.095773 0.152908
0.482429 0.095773 0.151287
0.482783 0.095773 0.149666
0.482215 0.094883 0.147882
0.482569 0.094883 0.146259
0.482923 0.094883 0.144636
0.482355 0.093991 0.142846
0.482709 0.093991 0.141222
0.483063 0.093991 0.139598
0.482494 0.093098 0.137802
0.482849 0.093098 0.136177
0.483203 0.093098 0.134551
0.484478 0.093991 0.133102
0.484832 0.093991 0.131478
0.485186 0.093991 0.129854
0.485540 0.093991 0.128230
0.485894 0.093991 0.126606
0.486248 0.093991 0.124982
0.486602 0.093991 0.123358
0.486956 0.093991 0.121734
0.487310 0.093991 0.120110
0.487664 0.093991 0.118486
0.488018 0.093991 0.116862
0.488372 0.093991 0.115238
0.488726 0.093991 0.113614
0.489080 0.093991 0.111990
0.489434 0.093991 0.110366
0.489788 0.093991 0.108742
0.490142 0.093991 0.107118
0.490496 0.093991 0.105494
0.490850 0.093991 0.103870
0.491204 0.093991 0.102246
0.491558 0.093991 0.100622
0.491911 0.093991 0.098998
0.492265 0.093991 0.097374
0.491705 0.093098 0.095542
0.492059 0.093098 0.093916
0.492414 0.093098 0.092291
0.491853 0.092203 0.090452
0.492208 0.092203 0.088825
0.491647 0.091306 0.086982
0.491084 0.090408 0.085135
0.491440 0.090408 0.083505
0.491795 0.090408 0.081876
0.491232 0.089509 0.080023
0.491588 0.089509 0.078392
0.491943 0.089509 0.076761
0.492299 0.089509 0.075130
0.491736 0.088608 0.073269
0.491172 0.087705 0.071406
0.491529 0.087705 0.069772
0.490964 0.086800 0.067904
0.490399 0.085895 0.066032
0.490756 0.085895 0.064395
0.490190 0.084987 0.062519
0.489623 0.084078 0.060640
0.489980 0.084078 0.059000
0.488486 0.082255 0.056871
0.487916 0.081341 0.054981
0.487345 0.080425 0.053089
0.486773 0.079508 0.051192
0.486200 0.078590 0.049293
0.485626 0.077669 0.047390
0.485052 0.076747 0.045484
0.483538 0.074898 0.043316
0.482960 0.073971 0.041401
0.481438 0.072113 0.039220
0.479912 0.070247 0.037031
0.477430 0.067437 0.034566
0.475889 0.065555 0.032359
0.474343 0.063666 0.030143
0.471831 0.060820 0.027644
0.469305 0.057959 0.025132
0.465793 0.054120 0.022323
0.463235 0.051222 0.019780
0.460663 0.048309 0.017223
0.458077 0.045380 0.014652
0.453487 0.040462 0.011475
0.450862 0.037490 0.008869
0.448222 0.034501 0.006250
0.444555 0.030491 0.003309
0.440861 0.026450 0.000346
0.437139 0.022380 -0.002639
0.433389 0.018279 -0.005646
0.429612 0.014148 -0.008675
0.425806 0.009985 -0.011728
0.421971 0.005791 -0.014803
0.421296 0.004738 -0.016899
0.422739 0.005791 -0.018330
0.424180 0.006843 -0.019758
0.424564 0.006843 -0.021519
0.426002 0.007892 -0.022943
0.426385 0.007892 -0.024703
0.427820 0.008940 -0.026122
0.428203 0.008940 -0.027881
0.428586 0.008940 -0.029639
0.430017 0.009985 -0.031052
0.430400 0.009985 -0.032809
0.430783 0.009985 -0.034566
0.431166 0.009985 -0.036323
0.432593 0.011029 -0.037728
0.432976 0.011029 -0.039483
0.433359 0.011029 -0.041238
0.433741 0.011029 -0.042994
0.435165 0.012070 -0.044392
0.436586 0.013110 -0.045787
0.436967 0.013110 -0.047539
0.437349 0.013110 -0.049291
0.437731 0.013110 -0.051042
0.438113 0.013110 -0.052794
0.438495 0.013110 -0.054546
0.438876 0.013110 -0.056298
0.439258 0.013110 -0.058050
0.439640 0.013110 -0.059802
0.440022 0.013110 -0.061554
0.440404 0.013110 -0.063305
0.440786 0.013110 -0.065057
0.441167 0.013110 -0.066809
0.441549 0.013110 -0.068561
0.441931 0.013110 -0.070313
0.442313 0.013110 -0.072065
0.442695 0.013110 -0.073816
0.442044 0.012070 -0.075954
0.442426 0.012070 -0.077708
0.442808 0.012070 -0.079461
0.443190 0.012070 -0.081215
0.442539 0.011029 -0.083362
0.442922 0.011029 -0.085117
0.443304 0.011029 -0.086872
0.443687 0.011029 -0.088627
0.444070 0.011029 -0.090382
0.444452 0.011029 -0.092137
0.444835 0.011029 -0.093892
0.445217 0.011029 -0.095648
0.444567 0.009985 -0.097810
0.444950 0.009985 -0.099567
0.445333 0.009985 -0.101323
0.444683 0.008940 -0.103493
0.445066 0.008940 -0.105252
0.444415 0.007892 -0.107427
0.443763 0.006843 -0.109607
0.444147 0.006843 -0.111369
0.444531 0.006843 -0.113130
0.443878 0.005791 -0.115317
0.443224 0.004738 -0.117509
0.443609 0.004738 -0.119274
0.442954 0.003682 -0.121471
0.443339 0.003682 -0.123237
0.442683 0.002625 -0.125440
0.442026 0.001566 -0.127647
0.441368 0.000504 -0.129858
0.440708 -0.000559 -0.132074
0.440048 -0.001625 -0.134293
0.439386 -0.002692 -0.136517
0.438722 -0.003762 -0.138745
0.438058 -0.004833 -0.140977
0.436336 -0.006983 -0.143671
0.435668 -0.008060 -0.145915
0.434998 -0.009140 -0.148162
0.433263 -0.011306 -0.150880
0.432589 -0.012392 -0.153139
0.427629 -0.017853 -0.157296
0.420445 -0.025588 -0.162457
0.410950 -0.035688 -0.168675
0.396757 -0.050596 -0.177029
0.343557 -0.002039 0.318606
0.355221 0.008519 0.317012
0.361162 0.013724 0.315352
0.367047 0.018881 0.313708
0.371792 0.022972 0.312056
0.376502 0.027032 0.310417
0.380105 0.030058 0.308765
0.384754 0.034067 0.307148
0.388311 0.037054 0.305515
0.390796 0.039036 0.303862
0.395368 0.042979 0.302277
0.398867 0.045918 0.300671
0.402348 0.048840 0.299073
0.405810 0.051747 0.297485
0.409252 0.054637 0.295905
0.412677 0.057513 0.294333
0.415071 0.059421 0.292731
0.418465 0.062271 0.291175
0.421840 0.065105 0.289628
0.425197 0.067924 0.288088
0.428537 0.070728 0.286557
0.431858 0.073518 0.285034
0.435162 0.076292 0.283519
0.437475 0.078134 0.281964
0.439779 0.079969 0.280415
0.442076 0.081798 0.278872
0.444364 0.083620 0.277333
0.446644 0.085436 0.275801
0.448917 0.087245 0.274273
0.451181 0.089048 0.272751
0.452488 0.089948 0.271178
0.454740 0.091741 0.269665
0.456985 0.093529 0.268157
0.458281 0.094420 0.266595
0.460513 0.096199 0.265097
0.462738 0.097971 0.263604
0.464024 0.098855 0.262052
0.466237 0.100618 0.260568
0.468442 0.102374 0.259089
0.469717 0.103251 0.257548
0.472830 0.105870 0.256146
0.473180 0.105870 0.254543
0.473529 0.105870 0.252940
0.474795 0.106740 0.251410
0.475144 0.106740 0.249808
0.474577 0.105870 0.248131
0.474927 0.105870 0.246528
0.474359 0.104998 0.244847
0.474708 0.104998 0.243242
0.475058 0.104998 0.241638
0.475408 0.104998 0.240033
0.474840 0.104125 0.238345
0.475190 0.104125 0.236739
0.475540 0.104125 0.235133
0.476807 0.104998 0.233615
0.476240 0.104125 0.231921
0.476590 0.104125 0.230316
0.476940 0.104125 0.228710
0.477290 0.104125 0.227104
0.477640 0.104125 0.225498
0.477073 0.103251 0.223796
0.477424 0.103251 0.222189
0.477774 0.103251 0.220581
0.478124 0.103251 0.218974
