ply
format ascii 1.0
element vertex 1684
property float x
property float y
property float z
end_header
-0.128860 0.237531 -0.485269
-0.130623 0.237531 -0.485467
-0.132387 0.237531 -0.485666
-0.134150 0.237531 -0.485864
-0.135914 0.237531 -0.486062
-0.137995 0.238338 -0.485020
-0.139761 0.238338 -0.485219
-0.141526 0.238338 -0.485418
-0.143291 0.238338 -0.485616
-0.145056 0.238338 -0.485815
-0.147148 0.239146 -0.484772
-0.148915 0.239146 -0.484970
-0.150681 0.239146 -0.485169
-0.152448 0.239146 -0.485368
-0.154215 0.239146 -0.485566
-0.156317 0.239955 -0.484522
-0.158086 0.239955 -0.484721
-0.159854 0.239955 -0.484920
-0.161623 0.239955 -0.485119
-0.163391 0.239955 -0.485318
-0.165160 0.239955 -0.485517
-0.167274 0.240766 -0.484471
-0.169044 0.240766 -0.484671
-0.170814 0.240766 -0.484870
-0.172584 0.240766 -0.485069
-0.174355 0.240766 -0.485268
-0.176125 0.240766 -0.485467
-0.177895 0.240766 -0.485666
-0.179665 0.240766 -0.485865
-0.181435 0.240766 -0.486064
-0.183566 0.241579 -0.485019
-0.185338 0.241579 -0.485218
-0.187110 0.241579 -0.485417
-0.188882 0.241579 -0.485616
-0.190654 0.241579 -0.485816
-0.192796 0.242393 -0.484769
-0.194569 0.242393 -0.484968
-0.196342 0.242393 -0.485168
-0.198116 0.242393 -0.485367
-0.200267 0.243208 -0.484319
-0.202042 0.243208 -0.484518
-0.203817 0.243208 -0.484718
-0.205975 0.244025 -0.483668
-0.208138 0.244844 -0.482616
-0.209916 0.244844 -0.482816
-0.211695 0.244844 -0.483016
-0.213473 0.244844 -0.483216
-0.215251 0.244844 -0.483416
-0.217425 0.245664 -0.482363
-0.219205 0.245664 -0.482564
-0.221384 0.246485 -0.481509
-0.223165 0.246485 -0.481709
-0.225350 0.247308 -0.480653
-0.227133 0.247308 -0.480853
-0.229324 0.248133 -0.479795
-0.231518 0.248959 -0.478734
-0.233717 0.249787 -0.477672
-0.235920 0.250617 -0.476607
-0.238127 0.251448 -0.475541
-0.239918 0.251448 -0.475742
-0.242553 0.253114 -0.473402
-0.244772 0.253950 -0.472329
-0.247852 0.256466 -0.468694
-0.250949 0.258997 -0.465039
-0.254064 0.261542 -0.461362
0.324066 0.209349 -0.475779
0.322039 0.207088 -0.479593
0.320023 0.204839 -0.483386
0.318221 0.204092 -0.484773
0.316422 0.203346 -0.486158
0.314627 0.202602 -0.487541
0.312931 0.202602 -0.487731
0.311235 0.202602 -0.487922
0.309539 0.202602 -0.488113
0.307843 0.202602 -0.488304
0.306147 0.202602 -0.488494
0.304540 0.203346 -0.487495
0.302843 0.203346 -0.487686
0.301059 0.202602 -0.489066
0.299363 0.202602 -0.489257
0.297668 0.202602 -0.489448
0.295972 0.202602 -0.489639
0.294356 0.203346 -0.488640
0.292658 0.203346 -0.488831
0.290961 0.203346 -0.489022
0.289264 0.203346 -0.489213
0.287566 0.203346 -0.489404
0.285869 0.203346 -0.489595
0.284171 0.203346 -0.489786
0.282474 0.203346 -0.489977
0.280776 0.203346 -0.490167
0.279079 0.203346 -0.490358
0.277447 0.204092 -0.489359
0.275748 0.204092 -0.489551
0.274049 0.204092 -0.489742
0.272350 0.204092 -0.489933
0.270651 0.204092 -0.490124
0.269010 0.204839 -0.489124
0.267309 0.204839 -0.489315
0.265609 0.204839 -0.489506
0.263908 0.204839 -0.489698
0.262208 0.204839 -0.489889
0.260507 0.204839 -0.490080
0.258807 0.204839 -0.490271
0.257106 0.204839 -0.490463
0.255406 0.204839 -0.490654
0.253750 0.205587 -0.489653
0.252048 0.205587 -0.489845
0.250346 0.205587 -0.490036
0.248644 0.205587 -0.490228
0.246942 0.205587 -0.490419
0.245240 0.205587 -0.490611
0.243538 0.205587 -0.490802
0.241869 0.206337 -0.489801
0.240166 0.206337 -0.489992
0.238462 0.206337 -0.490184
0.236759 0.206337 -0.490376
0.235055 0.206337 -0.490567
0.233352 0.206337 -0.490759
0.231648 0.206337 -0.490950
0.229967 0.207088 -0.489949
0.228262 0.207088 -0.490140
0.226557 0.207088 -0.490332
0.224852 0.207088 -0.490524
0.223131 0.206337 -0.491908
0.221442 0.207088 -0.490907
0.219737 0.207088 -0.491099
0.218032 0.207088 -0.491291
0.216338 0.207840 -0.490288
0.214631 0.207840 -0.490480
0.212925 0.207840 -0.490672
0.211218 0.207840 -0.490864
0.209512 0.207840 -0.491056
0.207805 0.207840 -0.491248
0.206100 0.208594 -0.490245
0.204392 0.208594 -0.490437
0.202684 0.208594 -0.490629
0.200976 0.208594 -0.490821
0.199267 0.208594 -0.491013
0.197559 0.208594 -0.491205
0.195851 0.208594 -0.491397
0.194134 0.209349 -0.490393
0.192424 0.209349 -0.490585
0.190715 0.209349 -0.490778
0.188991 0.210105 -0.489772
0.187280 0.210105 -0.489964
0.185569 0.210105 -0.490157
0.183857 0.210105 -0.490349
0.182146 0.210105 -0.490542
0.180435 0.210105 -0.490734
0.178701 0.210863 -0.489728
0.176988 0.210863 -0.489920
0.175275 0.210863 -0.490113
0.173563 0.210863 -0.490306
0.171850 0.210863 -0.490498
0.170137 0.210863 -0.490691
0.168424 0.210863 -0.490883
0.166678 0.211622 -0.489876
0.164999 0.210863 -0.491269
0.163286 0.210863 -0.491461
0.161535 0.211622 -0.490454
0.159821 0.211622 -0.490647
0.158106 0.211622 -0.490840
0.156392 0.211622 -0.491033
0.154678 0.211622 -0.491226
0.152964 0.211622 -0.491419
0.151201 0.212382 -0.490411
0.149485 0.212382 -0.490604
0.147770 0.212382 -0.490797
0.146054 0.212382 -0.490990
0.144338 0.212382 -0.491183
0.142622 0.212382 -0.491376
0.140906 0.212382 -0.491569
0.139132 0.213144 -0.490560
0.137414 0.213144 -0.490753
0.135697 0.213144 -0.490946
0.133916 0.213907 -0.489936
0.132197 0.213907 -0.490130
0.130478 0.213907 -0.490323
0.128759 0.213907 -0.490516
0.127040 0.213907 -0.490710
0.125321 0.213907 -0.490903
0.123529 0.214672 -0.489892
0.121809 0.214672 -0.490085
0.120088 0.214672 -0.490279
0.118446 0.213907 -0.491676
0.116727 0.213907 -0.491869
0.115008 0.213907 -0.492063
0.113206 0.214672 -0.491053
0.111486 0.214672 -0.491246
0.109765 0.214672 -0.491440
0.108045 0.214672 -0.491633
0.106235 0.215438 -0.490622
0.104513 0.215438 -0.490816
0.102791 0.215438 -0.491009
0.101069 0.215438 -0.491203
0.099347 0.215438 -0.491397
0.097625 0.215438 -0.491590
0.095805 0.216205 -0.490578
0.094081 0.216205 -0.490772
0.092358 0.216205 -0.490966
0.090634 0.216205 -0.491160
0.088910 0.216205 -0.491354
0.087187 0.216205 -0.491548
0.085355 0.216974 -0.490534
0.083630 0.216974 -0.490728
0.081905 0.216974 -0.490922
0.080180 0.216974 -0.491116
0.078455 0.216974 -0.491310
0.076613 0.217744 -0.490296
0.074887 0.217744 -0.490490
0.073160 0.217744 -0.490684
0.071433 0.217744 -0.490879
0.069707 0.217744 -0.491073
0.067856 0.218516 -0.490057
0.066127 0.218516 -0.490252
0.064399 0.218516 -0.490446
0.062671 0.218516 -0.490641
0.060943 0.218516 -0.490835
0.059214 0.218516 -0.491029
0.057352 0.219289 -0.490013
0.055622 0.219289 -0.490207
0.053893 0.219289 -0.490402
0.052163 0.219289 -0.490597
0.050433 0.219289 -0.490791
0.048561 0.220063 -0.489774
0.046830 0.220063 -0.489968
0.045098 0.220063 -0.490163
0.043367 0.220063 -0.490358
0.041635 0.220063 -0.490553
0.039754 0.220839 -0.489534
0.038021 0.220839 -0.489729
0.036288 0.220839 -0.489924
0.034555 0.220839 -0.490119
0.032822 0.220839 -0.490313
0.031089 0.220839 -0.490508
0.029036 0.222395 -0.488272
0.027300 0.222395 -0.488467
0.025564 0.222395 -0.488662
0.023827 0.222395 -0.488858
0.022091 0.222395 -0.489053
0.020187 0.223175 -0.488030
0.018449 0.223175 -0.488226
0.016711 0.223175 -0.488421
0.014973 0.223175 -0.488616
0.013236 0.223175 -0.488812
0.011321 0.223957 -0.487788
0.009582 0.223957 -0.487983
0.007843 0.223957 -0.488179
0.006103 0.223957 -0.488375
0.004364 0.223957 -0.488570
0.002624 0.223957 -0.488766
0.000699 0.224740 -0.487741
-0.001042 0.224740 -0.487937
-0.002783 0.224740 -0.488133
-0.004524 0.224740 -0.488328
-0.006265 0.224740 -0.488524
-0.008201 0.225524 -0.487498
-0.009943 0.225524 -0.487694
-0.011686 0.225524 -0.487890
-0.013428 0.225524 -0.488086
-0.015171 0.225524 -0.488282
-0.017117 0.226310 -0.487255
-0.018861 0.226310 -0.487451
-0.020605 0.226310 -0.487647
-0.022349 0.226310 -0.487843
-0.024093 0.226310 -0.488039
-0.025837 0.226310 -0.488235
-0.027795 0.227097 -0.487207
-0.029540 0.227097 -0.487403
-0.031286 0.227097 -0.487600
-0.033032 0.227097 -0.487796
-0.034778 0.227097 -0.487992
-0.036745 0.227886 -0.486963
-0.038492 0.227886 -0.487159
-0.040240 0.227886 -0.487356
-0.041987 0.227886 -0.487552
-0.043734 0.227886 -0.487749
-0.045712 0.228676 -0.486718
-0.047461 0.228676 -0.486915
-0.049210 0.228676 -0.487112
-0.050959 0.228676 -0.487309
-0.052707 0.228676 -0.487505
-0.054456 0.228676 -0.487702
-0.056445 0.229467 -0.486670
-0.058196 0.229467 -0.486867
-0.059947 0.229467 -0.487064
-0.061697 0.229467 -0.487261
-0.063695 0.230261 -0.486228
-0.065447 0.230261 -0.486425
-0.067199 0.230261 -0.486622
-0.068951 0.230261 -0.486819
-0.070703 0.230261 -0.487016
-0.072456 0.230261 -0.487213
-0.074465 0.231055 -0.486179
-0.076219 0.231055 -0.486376
-0.077972 0.231055 -0.486574
-0.079726 0.231055 -0.486771
-0.081480 0.231055 -0.486968
-0.083234 0.231055 -0.487165
-0.085255 0.231851 -0.486131
-0.087010 0.231851 -0.486328
-0.088766 0.231851 -0.486525
-0.090521 0.231851 -0.486723
-0.092551 0.232648 -0.485686
-0.094308 0.232648 -0.485884
-0.096065 0.232648 -0.486082
-0.097822 0.232648 -0.486279
-0.099579 0.232648 -0.486477
-0.101336 0.232648 -0.486675
-0.103378 0.233447 -0.485637
-0.105136 0.233447 -0.485835
-0.106895 0.233447 -0.486033
-0.108654 0.233447 -0.486230
-0.110412 0.233447 -0.486428
-0.112171 0.233447 -0.486626
-0.114225 0.234248 -0.485588
-0.115985 0.234248 -0.485786
-0.117745 0.234248 -0.485984
-0.119505 0.234248 -0.486182
-0.121568 0.235050 -0.485142
-0.123330 0.235050 -0.485340
-0.125091 0.235050 -0.485538
-0.126853 0.235050 -0.485736
-0.128615 0.235050 -0.485935
-0.130377 0.235050 -0.486133
-0.132451 0.235853 -0.485092
-0.134215 0.235853 -0.485290
-0.135979 0.235853 -0.485489
-0.137742 0.235853 -0.485687
-0.139506 0.235853 -0.485885
-0.141269 0.235853 -0.486084
-0.143355 0.236658 -0.485042
-0.145121 0.236658 -0.485240
-0.146886 0.236658 -0.485439
-0.148651 0.236658 -0.485638
-0.150746 0.237464 -0.484594
-0.152513 0.237464 -0.484793
-0.154280 0.237464 -0.484992
-0.156047 0.237464 -0.485190
-0.157813 0.237464 -0.485389
-0.159580 0.237464 -0.485588
-0.161687 0.238272 -0.484544
-0.163456 0.238272 -0.484743
-0.165224 0.238272 -0.484942
-0.166993 0.238272 -0.485140
-0.168761 0.238272 -0.485339
-0.170530 0.238272 -0.485538
-0.172649 0.239082 -0.484493
-0.174419 0.239082 -0.484692
-0.175835 0.238272 -0.486135
-0.177604 0.238272 -0.486334
-0.179730 0.239082 -0.485289
-0.181500 0.239082 -0.485488
-0.183270 0.239082 -0.485688
-0.185040 0.239082 -0.485887
-0.187175 0.239893 -0.484841
-0.188947 0.239893 -0.485040
-0.190718 0.239893 -0.485239
-0.192490 0.239893 -0.485439
-0.194262 0.239893 -0.485638
-0.196407 0.240705 -0.484591
-0.198181 0.240705 -0.484790
-0.199954 0.240705 -0.484990
-0.201728 0.240705 -0.485189
-0.203882 0.241519 -0.484141
-0.205657 0.241519 -0.484340
-0.207817 0.242334 -0.483290
-0.209594 0.242334 -0.483490
-0.211371 0.242334 -0.483690
-0.213147 0.242334 -0.483890
-0.215317 0.243151 -0.482838
-0.217095 0.243151 -0.483038
-0.219270 0.243970 -0.481985
-0.221050 0.243970 -0.482185
-0.223230 0.244790 -0.481130
-0.225012 0.244790 -0.481330
-0.227199 0.245611 -0.480273
-0.228982 0.245611 -0.480474
-0.231174 0.246435 -0.479415
-0.233370 0.247259 -0.478354
-0.235571 0.248085 -0.477291
-0.237359 0.248085 -0.477492
-0.239984 0.249742 -0.475160
-0.241776 0.249742 -0.475361
-0.244414 0.251406 -0.473020
-0.246635 0.252240 -0.471947
-0.249720 0.254752 -0.468311
-0.252388 0.256434 -0.465943
-0.255943 0.259818 -0.460976
0.325931 0.209233 -0.472604
0.323896 0.206968 -0.476433
0.321872 0.204716 -0.480242
0.319858 0.202475 -0.484030
0.318058 0.201731 -0.485415
0.316260 0.200988 -0.486798
0.314466 0.200246 -0.488179
0.312772 0.200246 -0.488369
0.311173 0.200988 -0.487370
0.309477 0.200988 -0.487561
0.307781 0.200988 -0.487752
0.306085 0.200988 -0.487943
0.304389 0.200988 -0.488133
0.302693 0.200988 -0.488324
0.300997 0.200988 -0.488515
0.299301 0.200988 -0.488706
0.297605 0.200988 -0.488896
0.295910 0.200988 -0.489087
0.294214 0.200988 -0.489278
0.292518 0.200988 -0.489469
0.290822 0.200988 -0.489659
0.289126 0.200988 -0.489850
0.287430 0.200988 -0.490041
0.285807 0.201731 -0.489043
0.284109 0.201731 -0.489233
0.282412 0.201731 -0.489424
0.280714 0.201731 -0.489615
0.279017 0.201731 -0.489806
0.277320 0.201731 -0.489997
0.275622 0.201731 -0.490188
0.273987 0.202475 -0.489189
0.272288 0.202475 -0.489380
0.270589 0.202475 -0.489571
0.268890 0.202475 -0.489762
0.267191 0.202475 -0.489953
0.265492 0.202475 -0.490144
0.263793 0.202475 -0.490335
0.262094 0.202475 -0.490527
0.260445 0.203221 -0.489527
0.258745 0.203221 -0.489718
0.257044 0.203221 -0.489909
0.255344 0.203221 -0.490101
0.253643 0.203221 -0.490292
0.251943 0.203221 -0.490483
0.250242 0.203221 -0.490674
0.248542 0.203221 -0.490866
0.246879 0.203967 -0.489866
0.245177 0.203967 -0.490057
0.243475 0.203967 -0.490248
0.241773 0.203967 -0.490440
0.240071 0.203967 -0.490631
0.238369 0.203967 -0.490823
0.236668 0.203967 -0.491014
0.234993 0.204716 -0.490013
0.233289 0.204716 -0.490205
0.231586 0.204716 -0.490396
0.229882 0.204716 -0.490588
0.228179 0.204716 -0.490779
0.226475 0.204716 -0.490971
0.224772 0.204716 -0.491163
0.223068 0.204716 -0.491354
0.221365 0.204716 -0.491546
0.219675 0.205465 -0.490544
0.217970 0.205465 -0.490736
0.216265 0.205465 -0.490928
0.214560 0.205465 -0.491120
0.212855 0.205465 -0.491312
0.211156 0.206216 -0.490309
0.209449 0.206216 -0.490501
0.207743 0.206216 -0.490693
0.206036 0.206216 -0.490885
0.204329 0.206216 -0.491077
0.202623 0.206216 -0.491269
0.200916 0.206216 -0.491461
0.199205 0.206968 -0.490457
0.197497 0.206968 -0.490650
0.195789 0.206968 -0.490842
0.194081 0.206968 -0.491034
0.192362 0.207722 -0.490029
0.190652 0.207722 -0.490222
0.188942 0.207722 -0.490414
0.187233 0.207722 -0.490606
0.185523 0.207722 -0.490798
0.183795 0.208477 -0.489793
0.182084 0.208477 -0.489985
0.180372 0.208477 -0.490178
0.178661 0.208477 -0.490370
0.176950 0.208477 -0.490563
0.175239 0.208477 -0.490755
0.173528 0.208477 -0.490948
0.171787 0.209233 -0.489941
0.170074 0.209233 -0.490134
0.168362 0.209233 -0.490326
0.166649 0.209233 -0.490519
0.164936 0.209233 -0.490712
0.163224 0.209233 -0.490904
0.161511 0.209233 -0.491097
0.159798 0.209233 -0.491289
0.158085 0.209233 -0.491482
0.156329 0.209991 -0.490475
0.154615 0.209991 -0.490668
0.152901 0.209991 -0.490861
0.151187 0.209991 -0.491054
0.149472 0.209991 -0.491246
0.147758 0.209991 -0.491439
0.146044 0.209991 -0.491632
0.144275 0.210750 -0.490624
0.142559 0.210750 -0.490817
0.140844 0.210750 -0.491010
0.139128 0.210750 -0.491203
0.137351 0.211510 -0.490194
0.135634 0.211510 -0.490388
0.133917 0.211510 -0.490581
0.132199 0.211510 -0.490774
0.130482 0.211510 -0.490967
0.128696 0.212272 -0.489957
0.126977 0.212272 -0.490150
0.125258 0.212272 -0.490344
0.123613 0.211510 -0.491740
0.121895 0.211510 -0.491933
0.120178 0.211510 -0.492126
0.118383 0.212272 -0.491117
0.116664 0.212272 -0.491310
0.114945 0.212272 -0.491504
0.113226 0.212272 -0.491697
0.111507 0.212272 -0.491890
0.109702 0.213035 -0.490880
0.107982 0.213035 -0.491074
0.106261 0.213035 -0.491267
0.104541 0.213035 -0.491461
0.102821 0.213035 -0.491654
0.101006 0.213799 -0.490643
0.099284 0.213799 -0.490837
0.097562 0.213799 -0.491030
0.095840 0.213799 -0.491224
0.094118 0.213799 -0.491418
0.092396 0.213799 -0.491611
0.090571 0.214565 -0.490599
0.088847 0.214565 -0.490793
0.087124 0.214565 -0.490987
0.085400 0.214565 -0.491181
0.083677 0.214565 -0.491375
0.081842 0.215333 -0.490361
0.080117 0.215333 -0.490555
0.078392 0.215333 -0.490749
0.076666 0.215333 -0.490943
0.074941 0.215333 -0.491137
0.073097 0.216101 -0.490123
0.071370 0.216101 -0.490317
0.069643 0.216101 -0.490511
0.067917 0.216101 -0.490705
0.066190 0.216101 -0.490900
0.064463 0.216101 -0.491094
0.062608 0.216871 -0.490078
0.060879 0.216871 -0.490273
0.059151 0.216871 -0.490467
0.057423 0.216871 -0.490662
0.055695 0.216871 -0.490856
0.053829 0.217643 -0.489839
0.052099 0.217643 -0.490034
0.050370 0.217643 -0.490228
0.048640 0.217643 -0.490423
0.046910 0.217643 -0.490618
0.045035 0.218416 -0.489600
0.043303 0.218416 -0.489795
0.041572 0.218416 -0.489989
0.039841 0.218416 -0.490184
0.038109 0.218416 -0.490379
0.036378 0.218416 -0.490574
0.034491 0.219190 -0.489555
0.032758 0.219190 -0.489750
0.031025 0.219190 -0.489945
0.029292 0.219190 -0.490140
0.027559 0.219190 -0.490334
0.025500 0.220743 -0.488098
0.023764 0.220743 -0.488293
0.022028 0.220743 -0.488488
0.020291 0.220743 -0.488683
0.018555 0.220743 -0.488879
0.016648 0.221522 -0.487856
0.014910 0.221522 -0.488051
0.013172 0.221522 -0.488247
0.011434 0.221522 -0.488442
0.009697 0.221522 -0.488638
0.007959 0.221522 -0.488833
0.006040 0.222302 -0.487809
0.004300 0.222302 -0.488005
0.002561 0.222302 -0.488200
0.000822 0.222302 -0.488396
-0.000918 0.222302 -0.488591
-0.002847 0.223083 -0.487566
-0.004588 0.223083 -0.487762
-0.006329 0.223083 -0.487958
-0.008070 0.223083 -0.488154
-0.009811 0.223083 -0.488349
-0.011750 0.223866 -0.487323
-0.013492 0.223866 -0.487519
-0.015235 0.223866 -0.487715
-0.016977 0.223866 -0.487911
-0.018720 0.223866 -0.488107
-0.020462 0.223866 -0.488303
-0.022413 0.224650 -0.487276
-0.024157 0.224650 -0.487472
-0.025901 0.224650 -0.487668
-0.027645 0.224650 -0.487864
-0.029389 0.224650 -0.488060
-0.031350 0.225436 -0.487032
-0.033096 0.225436 -0.487228
-0.034842 0.225436 -0.487425
-0.036587 0.225436 -0.487621
-0.038333 0.225436 -0.487817
-0.040304 0.226223 -0.486788
-0.042051 0.226223 -0.486984
-0.043798 0.226223 -0.487181
-0.045546 0.226223 -0.487377
-0.047293 0.226223 -0.487574
-0.049040 0.226223 -0.487770
-0.051023 0.227012 -0.486740
-0.052771 0.227012 -0.486936
-0.054520 0.227012 -0.487133
-0.056269 0.227012 -0.487330
-0.058018 0.227012 -0.487526
-0.060011 0.227802 -0.486495
-0.061761 0.227802 -0.486692
-0.063512 0.227802 -0.486888
-0.065262 0.227802 -0.487085
-0.067013 0.227802 -0.487282
-0.069015 0.228593 -0.486249
-0.070768 0.228593 -0.486446
-0.072520 0.228593 -0.486643
-0.074272 0.228593 -0.486840
-0.076024 0.228593 -0.487037
-0.077776 0.228593 -0.487235
-0.079790 0.229386 -0.486200
-0.081544 0.229386 -0.486398
-0.083298 0.229386 -0.486595
-0.085052 0.229386 -0.486792
-0.086806 0.229386 -0.486989
-0.088830 0.230181 -0.485954
-0.090585 0.230181 -0.486152
-0.092341 0.230181 -0.486349
-0.094096 0.230181 -0.486547
-0.095852 0.230181 -0.486744
-0.097886 0.230977 -0.485708
-0.099643 0.230977 -0.485905
-0.101400 0.230977 -0.486103
-0.103157 0.230977 -0.486301
-0.104914 0.230977 -0.486498
-0.106671 0.230977 -0.486696
-0.108718 0.231774 -0.485658
-0.110477 0.231774 -0.485856
-0.112235 0.231774 -0.486054
-0.113994 0.231774 -0.486252
-0.115753 0.231774 -0.486450
-0.117809 0.232573 -0.485411
-0.119570 0.232573 -0.485609
-0.121330 0.232573 -0.485807
-0.123090 0.232573 -0.486005
-0.124851 0.232573 -0.486203
-0.126918 0.233373 -0.485163
-0.128680 0.233373 -0.485361
-0.130442 0.233373 -0.485560
-0.132204 0.233373 -0.485758
-0.133966 0.233373 -0.485956
-0.135727 0.233373 -0.486154
-0.137807 0.234175 -0.485113
-0.139570 0.234175 -0.485312
-0.141334 0.234175 -0.485510
-0.143097 0.234175 -0.485708
-0.144861 0.234175 -0.485907
-0.146950 0.234978 -0.484865
-0.148716 0.234978 -0.485063
-0.150481 0.234978 -0.485262
-0.152246 0.234978 -0.485460
-0.154011 0.234978 -0.485659
-0.156111 0.235783 -0.484616
-0.157878 0.235783 -0.484814
-0.159645 0.235783 -0.485013
-0.161412 0.235783 -0.485212
-0.163179 0.235783 -0.485411
-0.164945 0.235783 -0.485609
-0.167058 0.236589 -0.484565
-0.168826 0.236589 -0.484764
-0.170595 0.236589 -0.484963
-0.172363 0.236589 -0.485162
-0.174131 0.236589 -0.485361
-0.175900 0.236589 -0.485560
-0.177668 0.236589 -0.485759
-0.179437 0.236589 -0.485958
-0.181205 0.236589 -0.486156
-0.183335 0.237397 -0.485112
-0.185105 0.237397 -0.485311
-0.186875 0.237397 -0.485510
-0.188645 0.237397 -0.485709
-0.190415 0.237397 -0.485908
-0.192555 0.238207 -0.484862
-0.194327 0.238207 -0.485062
-0.196099 0.238207 -0.485261
-0.197870 0.238207 -0.485460
-0.200019 0.239017 -0.484413
-0.201793 0.239017 -0.484612
-0.203566 0.239017 -0.484812
-0.205722 0.239830 -0.483763
-0.207497 0.239830 -0.483963
-0.209659 0.240644 -0.482912
-0.211436 0.240644 -0.483112
-0.212822 0.239830 -0.484562
-0.214989 0.240644 -0.483512
-0.216766 0.240644 -0.483711
-0.218938 0.241459 -0.482660
-0.220717 0.241459 -0.482860
-0.222895 0.242276 -0.481806
-0.224675 0.242276 -0.482006
-0.226859 0.243094 -0.480951
-0.228641 0.243094 -0.481151
-0.230831 0.243914 -0.480094
-0.233024 0.244736 -0.479035
-0.235222 0.245559 -0.477974
-0.237009 0.245559 -0.478175
-0.239213 0.246384 -0.477112
-0.241841 0.248037 -0.474778
-0.243633 0.248037 -0.474980
-0.245849 0.248867 -0.473911
-0.248498 0.250530 -0.471565
-0.251588 0.253037 -0.467927
-0.254260 0.254716 -0.465559
-0.257381 0.257246 -0.461887
-0.260965 0.260643 -0.456891
0.325650 0.206095 -0.474475
0.323619 0.203843 -0.478292
0.321599 0.201602 -0.482089
0.319693 0.200116 -0.484672
0.317894 0.199374 -0.486056
0.316099 0.198634 -0.487437
0.314404 0.198634 -0.487628
0.312710 0.198634 -0.487818
0.311016 0.198634 -0.488009
0.309321 0.198634 -0.488199
0.307627 0.198634 -0.488390
0.305932 0.198634 -0.488580
0.304238 0.198634 -0.488771
0.302631 0.199374 -0.487772
0.300849 0.198634 -0.489152
0.299155 0.198634 -0.489343
0.297460 0.198634 -0.489533
0.295766 0.198634 -0.489724
0.294152 0.199374 -0.488726
0.292456 0.199374 -0.488917
0.290760 0.199374 -0.489108
0.289064 0.199374 -0.489298
0.287368 0.199374 -0.489489
0.285672 0.199374 -0.489680
0.283976 0.199374 -0.489871
0.282280 0.199374 -0.490061
0.280584 0.199374 -0.490252
0.278888 0.199374 -0.490443
0.277193 0.199374 -0.490634
0.275560 0.200116 -0.489636
0.273863 0.200116 -0.489827
0.272165 0.200116 -0.490018
0.270468 0.200116 -0.490209
0.268770 0.200116 -0.490400
0.267129 0.200858 -0.489401
0.265430 0.200858 -0.489592
0.263731 0.200858 -0.489783
0.262032 0.200858 -0.489974
0.260333 0.200858 -0.490165
0.258634 0.200858 -0.490356
0.256935 0.200858 -0.490547
0.255236 0.200858 -0.490738
0.253581 0.201602 -0.489739
0.251881 0.201602 -0.489930
0.250180 0.201602 -0.490121
0.248480 0.201602 -0.490313
0.246779 0.201602 -0.490504
0.245079 0.201602 -0.490695
0.243378 0.201602 -0.490886
0.241711 0.202348 -0.489886
0.240009 0.202348 -0.490078
0.238307 0.202348 -0.490269
0.236605 0.202348 -0.490460
0.234903 0.202348 -0.490652
0.233201 0.202348 -0.490843
0.231499 0.202348 -0.491035
0.229797 0.202348 -0.491226
0.228116 0.203095 -0.490225
0.226413 0.203095 -0.490417
0.224709 0.203095 -0.490609
0.223006 0.203095 -0.490800
0.221302 0.203095 -0.490992
0.219599 0.203095 -0.491183
0.217895 0.203095 -0.491375
0.216202 0.203843 -0.490373
0.214497 0.203843 -0.490565
0.212792 0.203843 -0.490757
0.211087 0.203843 -0.490949
0.209382 0.203843 -0.491141
0.207677 0.203843 -0.491332
0.205972 0.203843 -0.491524
0.204267 0.204592 -0.490522
0.202560 0.204592 -0.490714
0.200854 0.204592 -0.490906
0.199147 0.204592 -0.491098
0.197441 0.204592 -0.491289
0.195734 0.204592 -0.491481
0.194018 0.205343 -0.490478
0.192310 0.205343 -0.490670
0.190602 0.205343 -0.490862
0.188880 0.206095 -0.489858
0.187170 0.206095 -0.490050
0.185461 0.206095 -0.490242
0.183751 0.206095 -0.490435
0.182041 0.206095 -0.490627
0.180332 0.206095 -0.490819
0.178622 0.206095 -0.491011
0.176888 0.206848 -0.490006
0.175176 0.206848 -0.490198
0.173465 0.206848 -0.490391
0.171754 0.206848 -0.490583
0.170043 0.206848 -0.490776
0.168332 0.206848 -0.490968
0.166586 0.207603 -0.489962
0.164909 0.206848 -0.491353
0.163198 0.206848 -0.491546
0.161448 0.207603 -0.490540
0.159735 0.207603 -0.490732
0.158023 0.207603 -0.490925
0.156310 0.207603 -0.491118
0.154597 0.207603 -0.491310
0.152885 0.207603 -0.491503
0.151172 0.207603 -0.491696
0.149410 0.208359 -0.490689
0.147695 0.208359 -0.490882
0.145981 0.208359 -0.491075
0.144267 0.208359 -0.491267
0.142553 0.208359 -0.491460
0.140838 0.208359 -0.491653
0.139065 0.209117 -0.490645
0.137349 0.209117 -0.490838
0.135633 0.209117 -0.491031
0.133854 0.209876 -0.490022
0.132136 0.209876 -0.490215
0.130419 0.209876 -0.490408
0.128702 0.209876 -0.490602
0.127054 0.209117 -0.491996
0.125339 0.209117 -0.492189
0.123550 0.209876 -0.491181
0.121832 0.209876 -0.491374
0.120115 0.209876 -0.491567
0.118398 0.209876 -0.491761
0.116680 0.209876 -0.491954
0.114963 0.209876 -0.492147
0.113163 0.210636 -0.491138
0.111444 0.210636 -0.491331
0.109725 0.210636 -0.491525
0.108006 0.210636 -0.491718
0.106198 0.211398 -0.490708
0.104478 0.211398 -0.490901
0.102758 0.211398 -0.491095
0.101037 0.211398 -0.491288
0.099317 0.211398 -0.491482
0.097596 0.211398 -0.491675
0.095777 0.212161 -0.490664
0.094055 0.212161 -0.490858
0.092333 0.212161 -0.491051
0.090611 0.212161 -0.491245
0.088889 0.212161 -0.491439
0.087061 0.212925 -0.490426
0.085337 0.212925 -0.490620
0.083614 0.212925 -0.490814
0.081890 0.212925 -0.491008
0.080166 0.212925 -0.491202
0.078328 0.213691 -0.490188
0.076603 0.213691 -0.490382
0.074878 0.213691 -0.490576
0.073153 0.213691 -0.490770
0.071428 0.213691 -0.490964
0.069703 0.213691 -0.491158
0.067854 0.214458 -0.490144
0.066127 0.214458 -0.490338
0.064400 0.214458 -0.490532
0.062673 0.214458 -0.490726
0.060947 0.214458 -0.490921
0.059088 0.215227 -0.489905
0.057360 0.215227 -0.490099
0.055631 0.215227 -0.490294
0.053903 0.215227 -0.490488
0.052175 0.215227 -0.490683
0.050306 0.215997 -0.489666
0.048576 0.215997 -0.489860
0.046847 0.215997 -0.490055
0.045117 0.215997 -0.490249
0.043387 0.215997 -0.490444
0.041657 0.215997 -0.490639
0.039777 0.216768 -0.489621
0.038046 0.216768 -0.489816
0.036314 0.216768 -0.490010
0.034583 0.216768 -0.490205
0.032852 0.216768 -0.490400
0.030962 0.217541 -0.489381
0.029229 0.217541 -0.489576
0.027496 0.217541 -0.489771
0.025763 0.217541 -0.489966
0.024030 0.217541 -0.490161
0.021964 0.219091 -0.487923
0.020228 0.219091 -0.488119
0.018492 0.219091 -0.488314
0.016756 0.219091 -0.488509
0.015019 0.219091 -0.488705
0.013283 0.219091 -0.488900
0.011371 0.219868 -0.487877
0.009633 0.219868 -0.488072
0.007895 0.219868 -0.488268
0.006157 0.219868 -0.488463
0.004420 0.219868 -0.488659
0.002497 0.220646 -0.487634
0.000758 0.220646 -0.487830
-0.000981 0.220646 -0.488026
-0.002721 0.220646 -0.488221
-0.004460 0.220646 -0.488417
-0.006393 0.221426 -0.487392
-0.008133 0.221426 -0.487587
-0.009874 0.221426 -0.487783
-0.011615 0.221426 -0.487979
-0.013356 0.221426 -0.488175
-0.015097 0.221426 -0.488371
-0.017041 0.222208 -0.487344
-0.018784 0.222208 -0.487540
-0.020526 0.222208 -0.487736
-0.022269 0.222208 -0.487932
-0.024011 0.222208 -0.488128
-0.025965 0.222990 -0.487101
-0.027709 0.222990 -0.487297
-0.029453 0.222990 -0.487493
-0.031197 0.222990 -0.487689
-0.032942 0.222990 -0.487885
-0.034905 0.223775 -0.486857
-0.036651 0.223775 -0.487053
-0.038397 0.223775 -0.487249
-0.040143 0.223775 -0.487446
-0.041888 0.223775 -0.487642
-0.043634 0.223775 -0.487838
-0.045610 0.224560 -0.486809
-0.047357 0.224560 -0.487005
-0.049104 0.224560 -0.487202
-0.050852 0.224560 -0.487398
-0.052599 0.224560 -0.487595
-0.054346 0.224560 -0.487791
-0.056333 0.225347 -0.486761
-0.058082 0.225347 -0.486958
-0.059831 0.225347 -0.487154
-0.061580 0.225347 -0.487351
-0.063576 0.226136 -0.486319
-0.065326 0.226136 -0.486516
-0.067077 0.226136 -0.486713
-0.068827 0.226136 -0.486910
-0.070578 0.226136 -0.487107
-0.072329 0.226136 -0.487303
-0.074336 0.226926 -0.486270
-0.076088 0.226926 -0.486468
-0.077840 0.226926 -0.486665
-0.079592 0.226926 -0.486862
-0.081345 0.226926 -0.487059
-0.083097 0.226926 -0.487256
-0.085116 0.227717 -0.486222
-0.086870 0.227717 -0.486419
-0.088624 0.227717 -0.486616
-0.090377 0.227717 -0.486814
-0.092405 0.228510 -0.485778
-0.094160 0.228510 -0.485976
-0.095916 0.228510 -0.486173
-0.097671 0.228510 -0.486371
-0.099427 0.228510 -0.486568
-0.101182 0.228510 -0.486765
-0.103222 0.229305 -0.485729
-0.104979 0.229305 -0.485927
-0.106736 0.229305 -0.486124
-0.108493 0.229305 -0.486322
-0.110250 0.229305 -0.486520
-0.112007 0.229305 -0.486717
-0.114058 0.230100 -0.485680
-0.115817 0.230100 -0.485878
-0.117576 0.230100 -0.486075
-0.119334 0.230100 -0.486273
-0.121394 0.230898 -0.485234
-0.123155 0.230898 -0.485432
-0.124915 0.230898 -0.485630
-0.126675 0.230898 -0.485828
-0.128436 0.230898 -0.486026
-0.130196 0.230898 -0.486224
-0.132268 0.231697 -0.485185
-0.134030 0.231697 -0.485383
-0.135792 0.231697 -0.485581
-0.137554 0.231697 -0.485779
-0.139316 0.231697 -0.485977
-0.141078 0.231697 -0.486175
-0.143162 0.232497 -0.485135
-0.144925 0.232497 -0.485333
-0.146689 0.232497 -0.485531
-0.148452 0.232497 -0.485730
-0.150545 0.233299 -0.484688
-0.152311 0.233299 -0.484886
-0.154076 0.233299 -0.485085
-0.155841 0.233299 -0.485283
-0.157606 0.233299 -0.485482
-0.159371 0.233299 -0.485680
-0.161476 0.234102 -0.484637
-0.163243 0.234102 -0.484836
-0.165010 0.234102 -0.485035
-0.166777 0.234102 -0.485233
-0.168544 0.234102 -0.485432
-0.170311 0.234102 -0.485631
-0.172428 0.234907 -0.484587
-0.174196 0.234907 -0.484786
-0.175611 0.234102 -0.486227
-0.177378 0.234102 -0.486426
-0.179502 0.234907 -0.485382
-0.181270 0.234907 -0.485581
-0.183039 0.234907 -0.485780
-0.184807 0.234907 -0.485979
-0.186940 0.235713 -0.484934
-0.188710 0.235713 -0.485133
-0.190480 0.235713 -0.485332
-0.192250 0.235713 -0.485531
-0.194020 0.235713 -0.485730
-0.196163 0.236521 -0.484685
-0.197935 0.236521 -0.484884
-0.199707 0.236521 -0.485083
-0.201479 0.236521 -0.485282
-0.203631 0.237330 -0.484235
-0.205404 0.237330 -0.484434
-0.207562 0.238141 -0.483385
-0.209337 0.238141 -0.483585
-0.211501 0.238953 -0.482534
-0.213277 0.238953 -0.482734
-0.214662 0.238141 -0.484184
-0.216831 0.238953 -0.483133
-0.218608 0.238953 -0.483333
-0.220782 0.239767 -0.482281
-0.222560 0.239767 -0.482481
-0.224740 0.240582 -0.481427
-0.226520 0.240582 -0.481627
-0.228706 0.241399 -0.480572
-0.230488 0.241399 -0.480772
-0.232679 0.242217 -0.479715
-0.234875 0.243037 -0.478655
-0.236660 0.243037 -0.478856
-0.238861 0.243859 -0.477794
-0.241067 0.244682 -0.476731
-0.243699 0.246332 -0.474397
-0.245490 0.246332 -0.474599
-0.247709 0.247160 -0.473529
-0.250360 0.248820 -0.471182
-0.253022 0.250486 -0.468827
-0.256131 0.252998 -0.465175
-0.258817 0.254680 -0.462796
-0.262403 0.258064 -0.457808
0.325479 0.203717 -0.475130
0.323450 0.201474 -0.478942
0.321433 0.199242 -0.482733
0.319528 0.197760 -0.485313
0.317731 0.197022 -0.486695
0.315938 0.196284 -0.488075
0.314245 0.196284 -0.488265
0.312552 0.196284 -0.488455
0.310954 0.197022 -0.487458
0.309259 0.197022 -0.487648
0.307565 0.197022 -0.487839
0.305871 0.197022 -0.488029
0.304176 0.197022 -0.488220
0.302482 0.197022 -0.488410
0.300787 0.197022 -0.488601
0.299093 0.197022 -0.488792
0.297399 0.197022 -0.488982
0.295704 0.197022 -0.489173
0.294010 0.197022 -0.489363
0.292315 0.197022 -0.489554
0.290621 0.197022 -0.489744
0.288927 0.197022 -0.489935
0.287232 0.197022 -0.490126
0.285538 0.197022 -0.490316
0.283914 0.197760 -0.489319
0.282218 0.197760 -0.489510
0.280522 0.197760 -0.489700
0.278826 0.197760 -0.489891
0.277130 0.197760 -0.490082
0.275435 0.197760 -0.490273
0.273800 0.198500 -0.489275
0.272103 0.198500 -0.489466
0.270406 0.198500 -0.489657
0.268708 0.198500 -0.489847
0.267011 0.198500 -0.490038
0.265313 0.198500 -0.490229
0.263616 0.198500 -0.490420
0.261919 0.198500 -0.490611
0.260271 0.199242 -0.489612
0.258572 0.199242 -0.489803
0.256873 0.199242 -0.489995
0.255174 0.199242 -0.490186
0.253475 0.199242 -0.490377
0.251776 0.199242 -0.490568
0.250077 0.199242 -0.490759
0.248378 0.199242 -0.490950
0.246717 0.199984 -0.489951
0.245017 0.199984 -0.490142
0.243316 0.199984 -0.490333
0.241616 0.199984 -0.490525
0.239915 0.199984 -0.490716
0.238215 0.199984 -0.490907
0.236514 0.199984 -0.491098
0.234841 0.200728 -0.490098
0.233139 0.200728 -0.490290
0.231437 0.200728 -0.490481
0.229735 0.200728 -0.490673
0.228033 0.200728 -0.490864
0.226331 0.200728 -0.491055
0.224629 0.200728 -0.491247
0.222927 0.200728 -0.491438
0.221240 0.201474 -0.490438
0.219537 0.201474 -0.490629
0.217833 0.201474 -0.490821
0.216130 0.201474 -0.491012
0.214426 0.201474 -0.491204
0.212723 0.201474 -0.491396
0.211019 0.201474 -0.491587
0.209320 0.202220 -0.490586
0.207615 0.202220 -0.490778
0.205910 0.202220 -0.490969
0.204205 0.202220 -0.491161
0.202500 0.202220 -0.491353
0.200795 0.202220 -0.491545
0.199085 0.202968 -0.490542
0.197378 0.202968 -0.490734
0.195672 0.202968 -0.490926
0.193965 0.202968 -0.491118
0.192248 0.203717 -0.490115
0.190539 0.203717 -0.490307
0.188831 0.203717 -0.490499
0.187123 0.203717 -0.490691
0.185415 0.203717 -0.490883
0.183707 0.203717 -0.491075
0.181979 0.204468 -0.490071
0.180269 0.204468 -0.490263
0.178559 0.204468 -0.490455
0.176850 0.204468 -0.490648
0.175140 0.204468 -0.490840
0.173431 0.204468 -0.491032
0.171691 0.205220 -0.490027
0.169980 0.205220 -0.490219
0.168269 0.205220 -0.490412
0.166558 0.205220 -0.490604
0.164847 0.205220 -0.490797
0.163136 0.205220 -0.490989
0.161424 0.205220 -0.491182
0.159713 0.205220 -0.491374
0.158002 0.205220 -0.491566
0.156291 0.205220 -0.491759
0.154535 0.205973 -0.490753
0.152822 0.205973 -0.490946
0.151109 0.205973 -0.491138
0.149397 0.205973 -0.491331
0.147684 0.205973 -0.491524
0.145971 0.205973 -0.491716
0.144204 0.206728 -0.490710
0.142490 0.206728 -0.490903
0.140776 0.206728 -0.491095
0.139061 0.206728 -0.491288
0.137286 0.207484 -0.490280
0.135571 0.207484 -0.490473
0.133855 0.207484 -0.490666
0.132204 0.206728 -0.492059
0.130490 0.206728 -0.492252
0.128707 0.207484 -0.491245
0.126992 0.207484 -0.491438
0.125276 0.207484 -0.491631
0.123560 0.207484 -0.491824
0.121844 0.207484 -0.492017
0.120128 0.207484 -0.492210
0.118335 0.208242 -0.491202
0.116617 0.208242 -0.491395
0.114900 0.208242 -0.491588
0.113183 0.208242 -0.491781
0.111465 0.208242 -0.491975
0.109662 0.209000 -0.490965
0.107943 0.209000 -0.491159
0.106225 0.209000 -0.491352
0.104506 0.209000 -0.491545
0.102787 0.209000 -0.491739
0.100974 0.209761 -0.490728
0.099254 0.209761 -0.490922
0.097533 0.209761 -0.491115
0.095813 0.209761 -0.491309
0.094092 0.209761 -0.491502
0.092372 0.209761 -0.491696
0.090548 0.210522 -0.490685
0.088826 0.210522 -0.490878
0.087104 0.210522 -0.491072
0.085382 0.210522 -0.491266
0.083660 0.210522 -0.491459
0.081827 0.211285 -0.490447
0.080103 0.211285 -0.490641
0.078380 0.211285 -0.490835
0.076656 0.211285 -0.491029
0.074933 0.211285 -0.491223
0.073090 0.212049 -0.490209
0.071365 0.212049 -0.490403
0.069640 0.212049 -0.490597
0.067914 0.212049 -0.490791
0.066189 0.212049 -0.490985
0.064464 0.212049 -0.491179
0.062610 0.212815 -0.490165
0.060884 0.212815 -0.490359
0.059157 0.212815 -0.490553
0.057430 0.212815 -0.490747
0.055703 0.212815 -0.490942
0.053840 0.213582 -0.489926
0.052112 0.213582 -0.490120
0.050383 0.213582 -0.490315
0.048655 0.213582 -0.490509
0.046927 0.213582 -0.490703
0.045053 0.214351 -0.489687
0.043324 0.214351 -0.489881
0.041594 0.214351 -0.490076
0.039864 0.214351 -0.490270
0.038134 0.214351 -0.490465
0.036404 0.214351 -0.490660
0.034520 0.215121 -0.489642
0.032788 0.215121 -0.489837
0.031057 0.215121 -0.490031
0.029325 0.215121 -0.490226
0.027594 0.215121 -0.490421
0.025700 0.215892 -0.489402
0.023967 0.215892 -0.489597
0.022234 0.215892 -0.489792
0.020501 0.215892 -0.489987
0.018768 0.215892 -0.490182
0.016692 0.217439 -0.487945
0.014956 0.217439 -0.488140
0.013220 0.217439 -0.488335
0.011484 0.217439 -0.488530
0.009747 0.217439 -0.488726
0.008011 0.217439 -0.488921
0.006094 0.218214 -0.487898
0.004356 0.218214 -0.488093
0.002618 0.218214 -0.488289
0.000881 0.218214 -0.488484
-0.000857 0.218214 -0.488680
-0.002784 0.218991 -0.487656
-0.004524 0.218991 -0.487851
-0.006263 0.218991 -0.488047
-0.008003 0.218991 -0.488242
-0.009742 0.218991 -0.488438
-0.011679 0.219770 -0.487413
-0.013420 0.219770 -0.487609
-0.015161 0.219770 -0.487804
-0.016902 0.219770 -0.488000
-0.018643 0.219770 -0.488196
-0.020384 0.219770 -0.488392
-0.022332 0.220550 -0.487365
-0.024075 0.220550 -0.487561
-0.025818 0.220550 -0.487757
-0.027560 0.220550 -0.487953
-0.029303 0.220550 -0.488149
-0.031261 0.221331 -0.487122
-0.033005 0.221331 -0.487318
-0.034750 0.221331 -0.487514
-0.036494 0.221331 -0.487710
-0.038238 0.221331 -0.487907
-0.040206 0.222113 -0.486878
-0.041952 0.222113 -0.487074
-0.043698 0.222113 -0.487271
-0.045444 0.222113 -0.487467
-0.047189 0.222113 -0.487663
-0.048935 0.222113 -0.487860
-0.050915 0.222898 -0.486830
-0.052663 0.222898 -0.487027
-0.054410 0.222898 -0.487223
-0.056158 0.222898 -0.487420
-0.057905 0.222898 -0.487616
-0.059895 0.223683 -0.486585
-0.061644 0.223683 -0.486782
-0.063393 0.223683 -0.486979
-0.065142 0.223683 -0.487175
-0.066891 0.223683 -0.487372
-0.068892 0.224470 -0.486340
-0.070642 0.224470 -0.486537
-0.072393 0.224470 -0.486734
-0.074143 0.224470 -0.486931
-0.075894 0.224470 -0.487128
-0.077644 0.224470 -0.487325
-0.079657 0.225259 -0.486292
-0.081409 0.225259 -0.486489
-0.083161 0.225259 -0.486686
-0.084913 0.225259 -0.486883
-0.086665 0.225259 -0.487080
-0.088688 0.226048 -0.486046
-0.090442 0.226048 -0.486243
-0.092195 0.226048 -0.486440
-0.093949 0.226048 -0.486638
-0.095703 0.226048 -0.486835
-0.097736 0.226840 -0.485800
-0.099491 0.226840 -0.485997
-0.101246 0.226840 -0.486194
-0.103002 0.226840 -0.486392
-0.104757 0.226840 -0.486589
-0.106513 0.226840 -0.486787
-0.108557 0.227633 -0.485750
-0.110314 0.227633 -0.485948
-0.112071 0.227633 -0.486146
-0.113828 0.227633 -0.486343
-0.115585 0.227633 -0.486541
-0.117640 0.228427 -0.485503
-0.119399 0.228427 -0.485701
-0.121157 0.228427 -0.485899
-0.122916 0.228427 -0.486097
-0.124675 0.228427 -0.486295
-0.126740 0.229223 -0.485256
-0.128500 0.229223 -0.485454
-0.130260 0.229223 -0.485652
-0.132021 0.229223 -0.485850
-0.133781 0.229223 -0.486048
-0.135541 0.229223 -0.486246
-0.137618 0.230020 -0.485206
-0.139380 0.230020 -0.485404
-0.141142 0.230020 -0.485602
-0.142904 0.230020 -0.485801
-0.144666 0.230020 -0.485999
-0.146753 0.230819 -0.484958
-0.148517 0.230819 -0.485156
-0.150281 0.230819 -0.485355
-0.152044 0.230819 -0.485553
-0.153808 0.230819 -0.485751
-0.155906 0.231619 -0.484709
-0.157671 0.231619 -0.484908
-0.159436 0.231619 -0.485106
-0.161201 0.231619 -0.485305
-0.162966 0.231619 -0.485503
-0.164731 0.231619 -0.485702
-0.166842 0.232421 -0.484659
-0.168608 0.232421 -0.484857
-0.170375 0.232421 -0.485056
-0.172142 0.232421 -0.485255
-0.173909 0.232421 -0.485454
-0.175676 0.232421 -0.485652
-0.177442 0.232421 -0.485851
-0.179209 0.232421 -0.486050
-0.180976 0.232421 -0.486248
-0.183103 0.233224 -0.485205
-0.184872 0.233224 -0.485404
-0.186640 0.233224 -0.485603
-0.188409 0.233224 -0.485802
-0.190177 0.233224 -0.486000
-0.192315 0.234028 -0.484956
-0.194085 0.234028 -0.485155
-0.195855 0.234028 -0.485354
-0.197625 0.234028 -0.485553
-0.199772 0.234835 -0.484507
-0.201543 0.234835 -0.484706
-0.203315 0.234835 -0.484905
-0.205469 0.235642 -0.483858
-0.207243 0.235642 -0.484057
-0.209016 0.235642 -0.484256
-0.211177 0.236452 -0.483207
-0.212952 0.236452 -0.483407
-0.214727 0.236452 -0.483606
-0.216502 0.236452 -0.483806
-0.218278 0.236452 -0.484006
-0.220449 0.237262 -0.482955
-0.222226 0.237262 -0.483155
-0.224404 0.238074 -0.482103
-0.226182 0.238074 -0.482303
-0.228365 0.238888 -0.481249
-0.230146 0.238888 -0.481449
-0.232335 0.239703 -0.480393
-0.234528 0.240520 -0.479335
-0.236725 0.241339 -0.478275
-0.238510 0.241339 -0.478476
-0.240713 0.242158 -0.477414
-0.242921 0.242980 -0.476351
-0.245556 0.244627 -0.474016
-0.247348 0.244627 -0.474217
-0.249568 0.245453 -0.473147
-0.252223 0.247110 -0.470800
-0.254454 0.247941 -0.469724
-0.257564 0.250443 -0.466078
-0.260692 0.252959 -0.462411
-0.263837 0.255489 -0.458724
0.327125 0.202092 -0.474382
0.325092 0.199852 -0.478196
0.323069 0.197625 -0.481990
0.321162 0.196147 -0.484571
0.319364 0.195409 -0.485953
0.317569 0.194673 -0.487334
0.315777 0.193939 -0.488711
0.314085 0.193939 -0.488901
0.312394 0.193939 -0.489092
0.310702 0.193939 -0.489282
0.309011 0.193939 -0.489472
0.307411 0.194673 -0.488476
0.305718 0.194673 -0.488666
0.304025 0.194673 -0.488857
0.302333 0.194673 -0.489047
0.300640 0.194673 -0.489238
0.298947 0.194673 -0.489428
0.297337 0.195409 -0.488431
0.295642 0.195409 -0.488622
0.293948 0.195409 -0.488812
0.292253 0.195409 -0.489003
0.290559 0.195409 -0.489193
0.288865 0.195409 -0.489384
0.287170 0.195409 -0.489574
0.285476 0.195409 -0.489765
0.283781 0.195409 -0.489956
0.282087 0.195409 -0.490146
0.280460 0.196147 -0.489149
0.278764 0.196147 -0.489340
0.277068 0.196147 -0.489530
0.275373 0.196147 -0.489721
0.273677 0.196147 -0.489912
0.271981 0.196147 -0.490103
0.270285 0.196147 -0.490293
0.268589 0.196147 -0.490484
0.266893 0.196147 -0.490675
0.265197 0.196147 -0.490866
0.263501 0.196147 -0.491056
0.261805 0.196147 -0.491247
0.260159 0.196885 -0.490250
0.258462 0.196885 -0.490441
0.256764 0.196885 -0.490632
0.255067 0.196885 -0.490823
0.253369 0.196885 -0.491014
0.251672 0.196885 -0.491204
0.249974 0.196885 -0.491395
0.248277 0.196885 -0.491586
0.246617 0.197625 -0.490588
0.244918 0.197625 -0.490780
0.243219 0.197625 -0.490971
0.241520 0.197625 -0.491162
0.239821 0.197625 -0.491353
0.238123 0.197625 -0.491544
0.236424 0.197625 -0.491735
0.234752 0.198366 -0.490736
0.233051 0.198366 -0.490928
0.231351 0.198366 -0.491119
0.229650 0.198366 -0.491310
0.227950 0.198366 -0.491501
0.226249 0.198366 -0.491693
0.224549 0.198366 -0.491884
0.222848 0.198366 -0.492075
0.221163 0.199109 -0.491076
0.219461 0.199109 -0.491268
0.217759 0.199109 -0.491459
0.216057 0.199109 -0.491650
0.214355 0.199109 -0.491842
0.212660 0.199852 -0.490842
0.210957 0.199852 -0.491033
0.209253 0.199852 -0.491225
0.207550 0.199852 -0.491416
0.205846 0.199852 -0.491608
0.204143 0.199852 -0.491800
0.202439 0.199852 -0.491991
0.200732 0.200598 -0.490990
0.199027 0.200598 -0.491182
0.197322 0.200598 -0.491374
0.195617 0.200598 -0.491565
0.193912 0.200598 -0.491757
0.192196 0.201344 -0.490755
0.190490 0.201344 -0.490947
0.188783 0.201344 -0.491139
0.187076 0.201344 -0.491331
0.185353 0.202092 -0.490328
0.183645 0.202092 -0.490520
0.181936 0.202092 -0.490712
0.180228 0.202092 -0.490904
0.178520 0.202092 -0.491096
0.176812 0.202092 -0.491288
0.175104 0.202092 -0.491480
0.173368 0.202841 -0.490476
0.171658 0.202841 -0.490668
0.169949 0.202841 -0.490861
0.168239 0.202841 -0.491053
0.166529 0.202841 -0.491245
0.164820 0.202841 -0.491438
0.163110 0.202841 -0.491630
0.161401 0.202841 -0.491822
0.159691 0.202841 -0.492014
0.157939 0.203592 -0.491010
0.156228 0.203592 -0.491202
0.154517 0.203592 -0.491395
0.152806 0.203592 -0.491587
0.151095 0.203592 -0.491780
0.149384 0.203592 -0.491972
0.147672 0.203592 -0.492165
0.145908 0.204344 -0.491159
0.144196 0.204344 -0.491352
0.142483 0.204344 -0.491544
0.140770 0.204344 -0.491737
0.139058 0.204344 -0.491930
0.137284 0.205097 -0.490923
0.135632 0.204344 -0.492315
0.133919 0.204344 -0.492508
0.132142 0.205097 -0.491502
0.130427 0.205097 -0.491695
0.128713 0.205097 -0.491887
0.126999 0.205097 -0.492080
0.125285 0.205097 -0.492273
0.123497 0.205851 -0.491266
0.121781 0.205851 -0.491459
0.120066 0.205851 -0.491652
0.118350 0.205851 -0.491845
0.116634 0.205851 -0.492038
0.114918 0.205851 -0.492231
0.113120 0.206607 -0.491223
0.111403 0.206607 -0.491416
0.109685 0.206607 -0.491609
0.107968 0.206607 -0.491802
0.106250 0.206607 -0.491995
0.104443 0.207365 -0.490986
0.102632 0.208123 -0.489975
0.100911 0.208123 -0.490169
0.099191 0.208123 -0.490362
0.097470 0.208123 -0.490556
0.095750 0.208123 -0.490749
0.093929 0.208883 -0.489737
0.092207 0.208883 -0.489931
0.090485 0.208883 -0.490125
0.088763 0.208883 -0.490318
0.087041 0.208883 -0.490512
0.085319 0.208883 -0.490706
0.083488 0.209645 -0.489693
0.081764 0.209645 -0.489887
0.080040 0.209645 -0.490080
0.078317 0.209645 -0.490274
0.076593 0.209645 -0.490468
0.074752 0.210408 -0.489454
0.073027 0.210408 -0.489648
0.071302 0.210408 -0.489842
0.069577 0.210408 -0.490036
0.067851 0.210408 -0.490230
0.066001 0.211172 -0.489215
0.064274 0.211172 -0.489409
0.062547 0.211172 -0.489603
0.060820 0.211172 -0.489797
0.059094 0.211172 -0.489991
0.057367 0.211172 -0.490186
0.055505 0.211938 -0.489169
0.053777 0.211938 -0.489364
0.052048 0.211938 -0.489558
0.050320 0.211938 -0.489753
0.048592 0.211938 -0.489947
0.046720 0.212705 -0.488930
0.044990 0.212705 -0.489124
0.043260 0.212705 -0.489319
0.041530 0.212705 -0.489513
0.039801 0.212705 -0.489708
0.037919 0.213473 -0.488689
0.036188 0.213473 -0.488884
0.034456 0.213473 -0.489079
0.032725 0.213473 -0.489273
0.030993 0.213473 -0.489468
0.029262 0.213473 -0.489663
0.027369 0.214243 -0.488643
0.025799 0.213473 -0.490052
0.024068 0.213473 -0.490247
0.022336 0.213473 -0.490442
0.020605 0.213473 -0.490637
0.018704 0.214243 -0.489618
0.016971 0.214243 -0.489813
0.015238 0.214243 -0.490008
0.013505 0.214243 -0.490203
0.011772 0.214243 -0.490398
0.009684 0.215787 -0.488161
0.007948 0.215787 -0.488356
0.006212 0.215787 -0.488551
0.004475 0.215787 -0.488747
0.002739 0.215787 -0.488942
0.001003 0.215787 -0.489137
-0.000921 0.216561 -0.488114
-0.002848 0.217336 -0.487090
-0.004587 0.217336 -0.487285
-0.006327 0.217336 -0.487481
-0.008066 0.217336 -0.487677
-0.010002 0.218113 -0.486651
-0.011743 0.218113 -0.486846
-0.013484 0.218113 -0.487042
-0.015225 0.218113 -0.487238
-0.016966 0.218113 -0.487434
-0.018706 0.218113 -0.487630
-0.020447 0.218113 -0.487825
-0.022188 0.218113 -0.488021
-0.023929 0.218113 -0.488217
-0.025881 0.218891 -0.487191
-0.027624 0.218891 -0.487387
-0.029366 0.218891 -0.487583
-0.031109 0.218891 -0.487779
-0.033069 0.219671 -0.486751
-0.034813 0.219671 -0.486947
-0.036557 0.219671 -0.487143
-0.038302 0.219671 -0.487339
-0.040046 0.219671 -0.487535
-0.041790 0.219671 -0.487732
-0.043762 0.220452 -0.486703
-0.045508 0.220452 -0.486899
-0.047253 0.220452 -0.487095
-0.048999 0.220452 -0.487292
-0.050745 0.220452 -0.487488
-0.052491 0.220452 -0.487685
-0.054474 0.221235 -0.486655
-0.056221 0.221235 -0.486851
-0.057969 0.221235 -0.487048
-0.059716 0.221235 -0.487244
-0.061708 0.222019 -0.486213
-0.063457 0.222019 -0.486410
-0.065206 0.222019 -0.486607
-0.066955 0.222019 -0.486803
-0.068704 0.222019 -0.487000
-0.070453 0.222019 -0.487197
-0.072457 0.222804 -0.486165
-0.074207 0.222804 -0.486361
-0.075958 0.222804 -0.486558
-0.077708 0.222804 -0.486755
-0.079459 0.222804 -0.486952
-0.081210 0.222804 -0.487149
-0.083225 0.223591 -0.486116
-0.084977 0.223591 -0.486313
-0.086729 0.223591 -0.486510
-0.088482 0.223591 -0.486707
-0.090506 0.224380 -0.485673
-0.092259 0.224380 -0.485870
-0.094013 0.224380 -0.486067
-0.095767 0.224380 -0.486264
-0.097521 0.224380 -0.486462
-0.099275 0.224380 -0.486659
-0.101311 0.225169 -0.485623
-0.103066 0.225169 -0.485821
-0.104821 0.225169 -0.486018
-0.106577 0.225169 -0.486216
-0.108332 0.225169 -0.486413
-0.110088 0.225169 -0.486611
-0.112135 0.225961 -0.485574
-0.113892 0.225961 -0.485772
-0.115649 0.225961 -0.485969
-0.117109 0.225169 -0.487400
-0.119164 0.225961 -0.486365
-0.120921 0.225961 -0.486562
-0.122678 0.225961 -0.486760
-0.124435 0.225961 -0.486957
-0.126192 0.225961 -0.487155
-0.127949 0.225961 -0.487353
-0.130015 0.226753 -0.486316
-0.131774 0.226753 -0.486514
-0.133532 0.226753 -0.486711
-0.135291 0.226753 -0.486909
-0.137050 0.226753 -0.487107
-0.138808 0.226753 -0.487305
-0.140886 0.227548 -0.486267
-0.142647 0.227548 -0.486465
-0.144407 0.227548 -0.486663
-0.146167 0.227548 -0.486861
-0.148254 0.228343 -0.485822
-0.150016 0.228343 -0.486020
-0.151778 0.228343 -0.486218
-0.153540 0.228343 -0.486416
-0.155302 0.228343 -0.486615
-0.157064 0.228343 -0.486813
-0.159163 0.229141 -0.485773
-0.160926 0.229141 -0.485971
-0.162690 0.229141 -0.486169
-0.164453 0.229141 -0.486368
-0.166217 0.229141 -0.486566
-0.167981 0.229141 -0.486764
-0.170092 0.229939 -0.485723
-0.171857 0.229939 -0.485922
-0.173622 0.229939 -0.486120
-0.175387 0.229939 -0.486319
-0.177507 0.230739 -0.485276
-0.179274 0.230739 -0.485475
-0.181041 0.230739 -0.485674
-0.182808 0.230739 -0.485872
-0.184574 0.230739 -0.486071
-0.186705 0.231541 -0.485027
-0.188473 0.231541 -0.485226
-0.190242 0.231541 -0.485425
-0.192010 0.231541 -0.485624
-0.193779 0.231541 -0.485823
-0.195920 0.232344 -0.484778
-0.197690 0.232344 -0.484977
-0.199460 0.232344 -0.485176
-0.201230 0.232344 -0.485375
-0.203380 0.233149 -0.484329
-0.205152 0.233149 -0.484528
-0.206924 0.233149 -0.484728
-0.209081 0.233955 -0.483680
-0.210854 0.233955 -0.483879
