ply
format ascii 1.0
element vertex 1739
property float x
property float y
property float z
end_header
0.467537 0.109852 -0.100414
0.466560 0.109950 -0.102460
0.466853 0.109950 -0.104121
0.467146 0.109950 -0.105783
0.467438 0.109950 -0.107444
0.467731 0.109950 -0.109105
0.466753 0.110047 -0.111161
0.467046 0.110047 -0.112824
0.467339 0.110047 -0.114487
0.468903 0.109950 -0.115751
0.467926 0.110047 -0.117813
0.468219 0.110047 -0.119475
0.467240 0.110145 -0.121542
0.466260 0.110243 -0.123612
0.466554 0.110243 -0.125278
0.465572 0.110341 -0.127354
0.465866 0.110341 -0.129021
0.464882 0.110439 -0.131101
0.465176 0.110439 -0.132770
0.464191 0.110537 -0.134856
0.464486 0.110537 -0.136526
0.463499 0.110636 -0.138617
0.462511 0.110735 -0.140712
0.461521 0.110834 -0.142810
0.461817 0.110834 -0.144485
0.460825 0.110933 -0.146588
0.459832 0.111032 -0.148696
0.460128 0.111032 -0.150374
0.459133 0.111131 -0.152486
0.458136 0.111231 -0.154602
0.457138 0.111331 -0.156723
0.457435 0.111331 -0.158405
0.456435 0.111431 -0.160530
0.455433 0.111531 -0.162660
0.455731 0.111531 -0.164345
0.454727 0.111631 -0.166479
0.453722 0.111732 -0.168618
0.454020 0.111732 -0.170306
0.453014 0.111832 -0.172450
0.452005 0.111933 -0.174597
0.452304 0.111933 -0.176288
0.451294 0.112034 -0.178441
0.450282 0.112136 -0.180598
0.450581 0.112136 -0.182292
0.449568 0.112237 -0.184455
0.448553 0.112339 -0.186621
0.447536 0.112441 -0.188791
0.446517 0.112542 -0.190965
0.446817 0.112542 -0.192665
0.445797 0.112645 -0.194845
0.444775 0.112747 -0.197028
0.442424 0.112952 -0.199700
0.440065 0.113158 -0.202382
0.439033 0.113262 -0.204582
0.437999 0.113365 -0.206786
0.435624 0.113572 -0.209491
0.434584 0.113677 -0.211705
0.430846 0.113990 -0.214929
0.429798 0.114095 -0.217157
0.428748 0.114200 -0.219389
0.426338 0.114410 -0.222136
0.425282 0.114516 -0.224379
0.422859 0.114727 -0.227143
0.421797 0.114834 -0.229396
0.419360 0.115046 -0.232177
0.416915 0.115260 -0.234969
0.415843 0.115367 -0.237240
0.414768 0.115475 -0.239515
0.412305 0.115690 -0.242330
0.411225 0.115798 -0.244616
0.407352 0.116123 -0.247992
0.404861 0.116340 -0.250839
0.402361 0.116559 -0.253697
0.398438 0.116888 -0.257120
0.395914 0.117109 -0.260003
0.391955 0.117441 -0.263460
0.389407 0.117664 -0.266369
0.385410 0.117999 -0.269861
0.382837 0.118224 -0.272795
0.378803 0.118563 -0.276322
0.374745 0.118903 -0.279869
0.372132 0.119132 -0.282844
0.368036 0.119475 -0.286427
0.363916 0.119821 -0.290031
0.359772 0.120169 -0.293655
0.355604 0.120519 -0.297300
0.348389 0.121107 -0.302203
0.341103 0.121700 -0.307154
0.333746 0.122300 -0.312153
0.326316 0.122905 -0.317202
0.317238 0.123639 -0.322953
0.308050 0.124382 -0.328773
0.300365 0.125008 -0.333991
0.290974 0.125767 -0.339942
0.281469 0.126536 -0.345966
0.273515 0.127184 -0.351362
0.263795 0.127970 -0.357524
0.253954 0.128765 -0.363762
0.245717 0.129436 -0.369346
0.240873 0.129842 -0.373508
0.242951 0.129706 -0.374729
0.245026 0.129571 -0.375947
0.247096 0.129436 -0.377163
0.249162 0.129301 -0.378377
0.251223 0.129167 -0.379587
0.253281 0.129033 -0.380796
0.255334 0.128899 -0.382002
0.257382 0.128765 -0.383205
0.259427 0.128632 -0.384406
0.261467 0.128499 -0.385604
0.263504 0.128366 -0.386800
0.265535 0.128234 -0.387994
0.267563 0.128102 -0.389185
0.269587 0.127970 -0.390374
0.273282 0.127707 -0.390815
0.275293 0.127575 -0.391999
0.277301 0.127445 -0.393179
0.279304 0.127314 -0.394358
0.279643 0.127314 -0.396280
0.281642 0.127184 -0.397455
0.283637 0.127053 -0.398626
0.283975 0.127053 -0.400545
0.285966 0.126924 -0.401712
0.287952 0.126794 -0.402877
0.289935 0.126665 -0.404040
0.291913 0.126536 -0.405200
0.293888 0.126407 -0.406358
0.295858 0.126279 -0.407514
0.296194 0.126279 -0.409421
0.298160 0.126150 -0.410572
0.300122 0.126022 -0.411721
0.302080 0.125895 -0.412868
0.304035 0.125767 -0.414012
0.305985 0.125640 -0.415154
0.306319 0.125640 -0.417052
0.308265 0.125513 -0.418189
0.310207 0.125386 -0.419325
0.312146 0.125260 -0.420458
0.312479 0.125260 -0.422350
0.314413 0.125134 -0.423479
0.316343 0.125008 -0.424606
0.318269 0.124882 -0.425731
0.320192 0.124757 -0.426853
0.320524 0.124757 -0.428737
0.320856 0.124757 -0.430621
0.322774 0.124631 -0.431737
0.323106 0.124631 -0.433620
0.325020 0.124506 -0.434732
0.325351 0.124506 -0.436612
0.327261 0.124382 -0.437720
0.329166 0.124257 -0.438826
0.329497 0.124257 -0.440703
0.331399 0.124133 -0.441805
0.331729 0.124133 -0.443679
0.335191 0.123886 -0.444002
0.335521 0.123886 -0.445873
0.335850 0.123886 -0.447744
0.337740 0.123762 -0.448835
0.338070 0.123762 -0.450704
0.339955 0.123639 -0.451792
0.340285 0.123639 -0.453659
0.342166 0.123516 -0.454743
0.342495 0.123516 -0.456608
0.342824 0.123516 -0.458474
0.343153 0.123516 -0.460339
0.343482 0.123516 -0.462204
0.343811 0.123516 -0.464070
0.344140 0.123516 -0.465935
0.344469 0.123516 -0.467801
0.343248 0.123639 -0.470464
0.343577 0.123639 -0.472332
0.343906 0.123639 -0.474199
0.344235 0.123639 -0.476066
0.341459 0.123886 -0.479550
0.329243 0.124882 -0.487966
0.239382 0.119133 0.325209
0.241321 0.119017 0.323393
0.244867 0.118786 0.321596
0.248399 0.118556 0.319805
0.251917 0.118326 0.318021
0.255422 0.118098 0.316244
0.258914 0.117870 0.314473
0.260814 0.117756 0.312688
0.264285 0.117530 0.310929
0.264603 0.117530 0.309126
0.268060 0.117304 0.307378
0.269943 0.117192 0.305607
0.271821 0.117080 0.303840
0.273696 0.116968 0.302077
0.362359 0.110615 0.302209
0.372345 0.109919 0.300734
0.380848 0.109328 0.299244
0.390605 0.108648 0.297804
0.396252 0.108262 0.296277
0.401859 0.107880 0.294761
0.407426 0.107500 0.293256
0.411649 0.107217 0.291722
0.417149 0.106842 0.290236
0.420029 0.106655 0.288679
0.424186 0.106377 0.287169
0.427041 0.106192 0.285624
0.431163 0.105915 0.284128
0.433993 0.105732 0.282595
0.438079 0.105458 0.281114
0.442143 0.105185 0.279640
0.444936 0.105005 0.278125
0.448966 0.104734 0.276665
0.451735 0.104555 0.275161
0.453257 0.104466 0.273610
0.454777 0.104376 0.272061
0.456295 0.104287 0.270514
0.457809 0.104198 0.268970
0.459321 0.104109 0.267429
0.460831 0.104021 0.265891
0.462338 0.103932 0.264355
0.463843 0.103844 0.262821
0.466563 0.103667 0.261353
0.468060 0.103579 0.259827
0.470767 0.103404 0.258368
0.471047 0.103404 0.256780
0.473744 0.103229 0.255329
0.474024 0.103229 0.253744
0.474303 0.103229 0.252160
0.473375 0.103316 0.250503
0.473655 0.103316 0.248917
0.473935 0.103316 0.247332
0.474214 0.103316 0.245746
0.474494 0.103316 0.244160
0.474774 0.103316 0.242574
0.475053 0.103316 0.240988
0.476538 0.103229 0.239483
0.475613 0.103316 0.237816
0.475892 0.103316 0.236230
0.476172 0.103316 0.234645
0.476451 0.103316 0.233059
0.476731 0.103316 0.231473
0.477011 0.103316 0.229887
0.477290 0.103316 0.228301
0.477570 0.103316 0.226715
0.477850 0.103316 0.225129
0.478129 0.103316 0.223543
0.478409 0.103316 0.221957
0.478689 0.103316 0.220372
0.478968 0.103316 0.218786
0.479248 0.103316 0.217200
0.479527 0.103316 0.215614
0.478603 0.103404 0.213925
0.478883 0.103404 0.212338
0.479163 0.103404 0.210751
0.479443 0.103404 0.209164
0.479723 0.103404 0.207576
0.480003 0.103404 0.205989
0.480283 0.103404 0.204402
0.480563 0.103404 0.202815
0.478433 0.103579 0.201000
0.478713 0.103579 0.199410
0.478994 0.103579 0.197820
0.479274 0.103579 0.196230
0.479554 0.103579 0.194641
0.479835 0.103579 0.193051
0.480115 0.103579 0.191461
0.480395 0.103579 0.189871
0.479470 0.103667 0.188156
0.479750 0.103667 0.186565
0.480031 0.103667 0.184974
0.480312 0.103667 0.183382
0.480592 0.103667 0.181791
0.480873 0.103667 0.180200
0.481153 0.103667 0.178609
0.481434 0.103667 0.177018
0.480508 0.103755 0.175291
0.480789 0.103755 0.173698
0.481070 0.103755 0.172105
0.481351 0.103755 0.170513
0.481632 0.103755 0.168920
0.481913 0.103755 0.167328
0.482193 0.103755 0.165735
0.482474 0.103755 0.164142
0.481549 0.103844 0.162403
0.481830 0.103844 0.160809
0.482111 0.103844 0.159215
0.482392 0.103844 0.157621
0.482673 0.103844 0.156027
0.482954 0.103844 0.154434
0.483235 0.103844 0.152840
0.483516 0.103844 0.151246
0.482591 0.103932 0.149494
0.482872 0.103932 0.147899
0.483154 0.103932 0.146303
0.483435 0.103932 0.144708
0.483716 0.103932 0.143113
0.483998 0.103932 0.141518
0.484279 0.103932 0.139922
0.484560 0.103932 0.138327
0.484841 0.103932 0.136732
0.485123 0.103932 0.135136
0.485404 0.103932 0.133541
0.485685 0.103932 0.131946
0.485967 0.103932 0.130351
0.487451 0.103844 0.128931
0.487732 0.103844 0.127337
0.488013 0.103844 0.125743
0.488294 0.103844 0.124149
0.488575 0.103844 0.122555
0.488856 0.103844 0.120961
0.490337 0.103755 0.119550
0.489418 0.103844 0.117773
0.489700 0.103844 0.116179
0.489981 0.103844 0.114585
0.490262 0.103844 0.112991
0.491741 0.103755 0.111587
0.492022 0.103755 0.109994
0.492303 0.103755 0.108402
0.492584 0.103755 0.106809
0.492864 0.103755 0.105217
0.493145 0.103755 0.103624
0.493426 0.103755 0.102031
0.493707 0.103755 0.100439
0.493988 0.103755 0.098846
0.494268 0.103755 0.097254
0.494549 0.103755 0.095661
0.494830 0.103755 0.094069
0.495111 0.103755 0.092476
0.494196 0.103844 0.090676
0.494477 0.103844 0.089082
0.494758 0.103844 0.087488
0.493843 0.103932 0.085683
0.494124 0.103932 0.084087
0.494405 0.103932 0.082492
0.494687 0.103932 0.080897
0.494968 0.103932 0.079301
0.495249 0.103932 0.077706
0.495531 0.103932 0.076111
0.494615 0.104021 0.074294
0.494896 0.104021 0.072697
0.495178 0.104021 0.071101
0.495459 0.104021 0.069504
0.495741 0.104021 0.067907
0.494824 0.104109 0.066082
0.495106 0.104109 0.064484
0.494188 0.104198 0.062654
0.493269 0.104287 0.060821
0.492348 0.104376 0.058985
0.491426 0.104466 0.057146
0.491709 0.104466 0.055543
0.491991 0.104466 0.053939
0.491068 0.104555 0.052094
0.491351 0.104555 0.050490
0.491634 0.104555 0.048885
0.490709 0.104645 0.047034
0.490992 0.104645 0.045428
0.490066 0.104734 0.043572
0.490350 0.104734 0.041965
0.489422 0.104824 0.040105
0.489706 0.104824 0.038496
0.488778 0.104914 0.036631
0.489061 0.104914 0.035021
0.488131 0.105005 0.033152
0.485982 0.105185 0.031019
0.485047 0.105276 0.029141
0.482887 0.105458 0.026996
0.480719 0.105640 0.024843
0.479775 0.105732 0.022952
0.477597 0.105915 0.020786
0.475411 0.106099 0.018613
0.474458 0.106192 0.016709
0.472261 0.106377 0.014523
0.471304 0.106469 0.012610
0.469095 0.106655 0.010412
0.468132 0.106749 0.008490
0.465912 0.106935 0.006279
0.464944 0.107029 0.004349
0.463975 0.107123 0.002415
0.461740 0.107311 0.000185
0.460765 0.107406 -0.001757
0.459788 0.107500 -0.003702
0.457538 0.107690 -0.005951
0.456556 0.107785 -0.007905
0.454294 0.107975 -0.010167
0.450740 0.108262 -0.012744
0.448458 0.108455 -0.015024
0.448752 0.108455 -0.016689
0.450333 0.108359 -0.018040
0.450627 0.108359 -0.019703
0.450920 0.108359 -0.021366
0.451213 0.108359 -0.023029
0.452791 0.108262 -0.024374
0.453084 0.108262 -0.026035
0.453377 0.108262 -0.027697
0.453670 0.108262 -0.029358
0.455244 0.108167 -0.030696
0.455537 0.108167 -0.032356
0.455830 0.108167 -0.034016
0.456122 0.108167 -0.035676
0.456415 0.108167 -0.037336
0.457986 0.108071 -0.038666
0.458278 0.108071 -0.040324
0.458570 0.108071 -0.041983
0.458863 0.108071 -0.043641
0.460430 0.107975 -0.044964
0.460722 0.107975 -0.046621
0.461014 0.107975 -0.048278
0.461307 0.107975 -0.049935
0.461599 0.107975 -0.051592
0.463162 0.107880 -0.052907
0.463454 0.107880 -0.054563
0.462475 0.107975 -0.056563
0.462767 0.107975 -0.058220
0.463060 0.107975 -0.059877
0.463352 0.107975 -0.061534
0.463644 0.107975 -0.063192
0.463936 0.107975 -0.064849
0.465497 0.107880 -0.066152
0.464521 0.107975 -0.068163
0.464813 0.107975 -0.069820
0.465105 0.107975 -0.071477
0.465397 0.107975 -0.073134
0.465689 0.107975 -0.074791
0.465981 0.107975 -0.076448
0.466274 0.107975 -0.078105
0.465296 0.108071 -0.080128
0.465589 0.108071 -0.081786
0.465881 0.108071 -0.083445
0.466174 0.108071 -0.085103
0.466466 0.108071 -0.086762
0.466759 0.108071 -0.088420
0.467051 0.108071 -0.090079
0.467344 0.108071 -0.091737
0.467636 0.108071 -0.093396
0.466659 0.108167 -0.095434
0.466952 0.108167 -0.097094
0.467245 0.108167 -0.098754
0.467537 0.108167 -0.100414
0.466560 0.108262 -0.102460
0.466853 0.108262 -0.104121
0.467146 0.108262 -0.105783
0.467438 0.108262 -0.107444
0.467731 0.108262 -0.109105
0.466753 0.108359 -0.111161
0.467046 0.108359 -0.112824
0.467339 0.108359 -0.114487
0.468903 0.108262 -0.115751
0.467926 0.108359 -0.117813
0.468219 0.108359 -0.119475
0.467240 0.108455 -0.121542
0.467534 0.108455 -0.123206
0.466554 0.108551 -0.125278
0.465572 0.108648 -0.127354
0.465866 0.108648 -0.129021
0.464882 0.108744 -0.131101
0.465176 0.108744 -0.132770
0.464191 0.108841 -0.134856
0.464486 0.108841 -0.136526
0.463499 0.108938 -0.138617
0.462511 0.109036 -0.140712
0.461521 0.109133 -0.142810
0.461817 0.109133 -0.144485
0.460825 0.109231 -0.146588
0.459832 0.109328 -0.148696
0.460128 0.109328 -0.150374
0.459133 0.109426 -0.152486
0.458136 0.109524 -0.154602
0.457138 0.109623 -0.156723
0.457435 0.109623 -0.158405
0.456435 0.109721 -0.160530
0.455433 0.109820 -0.162660
0.455731 0.109820 -0.164345
0.454727 0.109919 -0.166479
0.453722 0.110018 -0.168618
0.454020 0.110018 -0.170306
0.453014 0.110117 -0.172450
0.452005 0.110216 -0.174597
0.452304 0.110216 -0.176288
0.451294 0.110316 -0.178441
0.451592 0.110316 -0.180134
0.450581 0.110415 -0.182292
0.449568 0.110515 -0.184455
0.448553 0.110615 -0.186621
0.447536 0.110715 -0.188791
0.447836 0.110715 -0.190490
0.446817 0.110816 -0.192665
0.445797 0.110916 -0.194845
0.444775 0.111017 -0.197028
0.442424 0.111219 -0.199700
0.440065 0.111422 -0.202382
0.439033 0.111524 -0.204582
0.437999 0.111626 -0.206786
0.435624 0.111830 -0.209491
0.434584 0.111933 -0.211705
0.430846 0.112241 -0.214929
0.429798 0.112344 -0.217157
0.428748 0.112448 -0.219389
0.426338 0.112655 -0.222136
0.425282 0.112759 -0.224379
0.422859 0.112967 -0.227143
0.421797 0.113072 -0.229396
0.419360 0.113282 -0.232177
0.418292 0.113387 -0.234441
0.415843 0.113597 -0.237240
0.414768 0.113703 -0.239515
0.412305 0.113915 -0.242330
0.411225 0.114021 -0.244616
0.408748 0.114235 -0.247449
0.406262 0.114449 -0.250292
0.403767 0.114663 -0.253146
0.399852 0.114987 -0.256565
0.395914 0.115312 -0.260003
0.393381 0.115530 -0.262897
0.389407 0.115859 -0.266369
0.386849 0.116079 -0.269288
0.382837 0.116411 -0.272795
0.380255 0.116633 -0.275740
0.376206 0.116968 -0.279282
0.372132 0.117304 -0.282844
0.368036 0.117643 -0.286427
0.363916 0.117984 -0.290031
0.359772 0.118326 -0.293655
0.355604 0.118671 -0.297300
0.349902 0.119133 -0.301584
0.342631 0.119717 -0.306527
0.333746 0.120424 -0.312153
0.326316 0.121020 -0.317202
0.318813 0.121622 -0.322301
0.309644 0.122352 -0.328111
0.300365 0.123091 -0.333991
0.292603 0.123713 -0.339262
0.283117 0.124469 -0.345275
0.273515 0.125233 -0.351362
0.265480 0.125878 -0.356813
0.255660 0.126660 -0.363041
0.245717 0.127452 -0.369346
0.242606 0.127718 -0.372770
0.244681 0.127585 -0.373991
0.246751 0.127452 -0.375209
0.247096 0.127452 -0.377163
0.249162 0.127319 -0.378377
0.251223 0.127187 -0.379587
0.253281 0.127054 -0.380796
0.255334 0.126923 -0.382002
0.257382 0.126791 -0.383205
0.259427 0.126660 -0.384406
0.261467 0.126529 -0.385604
0.263504 0.126398 -0.386800
0.265535 0.126268 -0.387994
0.267563 0.126137 -0.389185
0.269587 0.126007 -0.390374
0.273282 0.125748 -0.390815
0.275293 0.125619 -0.391999
0.277301 0.125490 -0.393179
0.279304 0.125362 -0.394358
0.279643 0.125362 -0.396280
0.281642 0.125233 -0.397455
0.283637 0.125105 -0.398626
0.285628 0.124978 -0.399796
0.285966 0.124978 -0.401712
0.287952 0.124850 -0.402877
0.289935 0.124723 -0.404040
0.291913 0.124596 -0.405200
0.293888 0.124469 -0.406358
0.295858 0.124342 -0.407514
0.296194 0.124342 -0.409421
0.298160 0.124216 -0.410572
0.300122 0.124090 -0.411721
0.302080 0.123964 -0.412868
0.304035 0.123839 -0.414012
0.305985 0.123713 -0.415154
0.306319 0.123713 -0.417052
0.308265 0.123588 -0.418189
0.310207 0.123464 -0.419325
0.312146 0.123339 -0.420458
0.312479 0.123339 -0.422350
0.314413 0.123215 -0.423479
0.316343 0.123091 -0.424606
0.318269 0.122967 -0.425731
0.320192 0.122844 -0.426853
0.320524 0.122844 -0.428737
0.320856 0.122844 -0.430621
0.322774 0.122720 -0.431737
0.323106 0.122720 -0.433620
0.325020 0.122597 -0.434732
0.325351 0.122597 -0.436612
0.327261 0.122474 -0.437720
0.329166 0.122352 -0.438826
0.329497 0.122352 -0.440703
0.331399 0.122230 -0.441805
0.331729 0.122230 -0.443679
0.335191 0.121986 -0.444002
0.335521 0.121986 -0.445873
0.337411 0.121864 -0.446966
0.337740 0.121864 -0.448835
0.339626 0.121743 -0.449925
0.339955 0.121743 -0.451792
0.341837 0.121622 -0.452877
0.342166 0.121622 -0.454743
0.342495 0.121622 -0.456608
0.342824 0.121622 -0.458474
0.343153 0.121622 -0.460339
0.343482 0.121622 -0.462204
0.343811 0.121622 -0.464070
0.344140 0.121622 -0.465935
0.344469 0.121622 -0.467801
0.344797 0.121622 -0.469666
0.345126 0.121622 -0.471531
0.343906 0.121743 -0.474199
0.344235 0.121743 -0.476066
0.341459 0.121986 -0.479550
0.332398 0.122720 -0.486320
0.237761 0.117392 0.325198
0.241321 0.117164 0.323393
0.244867 0.116936 0.321596
0.248399 0.116709 0.319805
0.251917 0.116483 0.318021
0.255422 0.116258 0.316244
0.258914 0.116034 0.314473
0.260814 0.115922 0.312688
0.262710 0.115811 0.310905
0.266175 0.115588 0.309152
0.268060 0.115477 0.307378
0.269943 0.115366 0.305607
0.271821 0.115256 0.303840
0.273696 0.115146 0.302077
0.363751 0.108793 0.302240
0.373719 0.108109 0.300765
0.383564 0.107432 0.299310
0.391947 0.106860 0.297838
0.397584 0.106481 0.296312
0.403181 0.106105 0.294797
0.407426 0.105825 0.293256
0.412955 0.105454 0.291761
0.417149 0.105177 0.290236
0.421321 0.104902 0.288720
0.424186 0.104719 0.287169
0.428322 0.104446 0.285667
0.432436 0.104174 0.284173
0.435262 0.103994 0.282641
0.439341 0.103725 0.281161
0.442143 0.103546 0.279640
0.446187 0.103279 0.278174
0.448966 0.103102 0.276665
0.451735 0.102925 0.275161
0.453257 0.102837 0.273610
0.454777 0.102749 0.272061
0.456295 0.102662 0.270514
0.457809 0.102574 0.268970
0.459321 0.102487 0.267429
0.460831 0.102399 0.265891
0.462338 0.102312 0.264355
0.463843 0.102225 0.262821
0.465344 0.102138 0.261290
0.466844 0.102052 0.259762
0.468341 0.101965 0.258237
0.471047 0.101792 0.256780
0.472537 0.101706 0.255261
0.474024 0.101620 0.253744
0.473096 0.101706 0.252089
0.473375 0.101706 0.250503
0.473655 0.101706 0.248917
0.473935 0.101706 0.247332
0.474214 0.101706 0.245746
0.474494 0.101706 0.244160
0.474774 0.101706 0.242574
0.475053 0.101706 0.240988
0.475333 0.101706 0.239402
0.475613 0.101706 0.237816
0.475892 0.101706 0.236230
0.474965 0.101792 0.234559
0.475245 0.101792 0.232972
0.475525 0.101792 0.231385
0.475805 0.101792 0.229797
0.476085 0.101792 0.228210
0.476364 0.101792 0.226623
0.477850 0.101706 0.225129
0.478129 0.101706 0.223543
0.478409 0.101706 0.221957
0.478689 0.101706 0.220372
0.477764 0.101792 0.218687
0.478044 0.101792 0.217100
0.478324 0.101792 0.215512
0.479807 0.101706 0.214028
0.478883 0.101792 0.212338
0.479163 0.101792 0.210751
0.479443 0.101792 0.209164
0.479723 0.101792 0.207576
0.480003 0.101792 0.205989
0.480283 0.101792 0.204402
0.480563 0.101792 0.202815
0.480842 0.101792 0.201228
0.481122 0.101792 0.199640
0.478994 0.101965 0.197820
0.479274 0.101965 0.196230
0.479554 0.101965 0.194641
0.479835 0.101965 0.193051
0.480115 0.101965 0.191461
0.480395 0.101965 0.189871
0.480676 0.101965 0.188281
0.480956 0.101965 0.186691
0.480031 0.102052 0.184974
0.480312 0.102052 0.183382
0.480592 0.102052 0.181791
0.480873 0.102052 0.180200
0.481153 0.102052 0.178609
0.481434 0.102052 0.177018
0.481715 0.102052 0.175426
0.481995 0.102052 0.173835
0.481070 0.102138 0.172105
0.481351 0.102138 0.170513
0.481632 0.102138 0.168920
0.481913 0.102138 0.167328
0.482193 0.102138 0.165735
0.482474 0.102138 0.164142
0.482755 0.102138 0.162550
0.483036 0.102138 0.160957
0.482111 0.102225 0.159215
0.482392 0.102225 0.157621
0.482673 0.102225 0.156027
0.482954 0.102225 0.154434
0.483235 0.102225 0.152840
0.483516 0.102225 0.151246
0.483797 0.102225 0.149652
0.484078 0.102225 0.148058
0.483154 0.102312 0.146303
0.483435 0.102312 0.144708
0.483716 0.102312 0.143113
0.483998 0.102312 0.141518
0.484279 0.102312 0.139922
0.483353 0.102399 0.138159
0.483635 0.102399 0.136563
0.485123 0.102312 0.135136
0.485404 0.102312 0.133541
0.485685 0.102312 0.131946
0.485967 0.102312 0.130351
0.486248 0.102312 0.128755
0.486529 0.102312 0.127160
0.488013 0.102225 0.125743
0.488294 0.102225 0.124149
0.488575 0.102225 0.122555
0.488856 0.102225 0.120961
0.489137 0.102225 0.119367
0.489418 0.102225 0.117773
0.489700 0.102225 0.116179
0.489981 0.102225 0.114585
0.490262 0.102225 0.112991
0.491741 0.102138 0.111587
0.492022 0.102138 0.109994
0.492303 0.102138 0.108402
0.492584 0.102138 0.106809
0.492864 0.102138 0.105217
0.491948 0.102225 0.103428
0.492229 0.102225 0.101834
0.492510 0.102225 0.100240
0.492791 0.102225 0.098646
0.493072 0.102225 0.097052
0.494549 0.102138 0.095661
0.493634 0.102225 0.093864
0.493915 0.102225 0.092270
0.494196 0.102225 0.090676
0.494477 0.102225 0.089082
0.494758 0.102225 0.087488
0.493843 0.102312 0.085683
0.494124 0.102312 0.084087
0.494405 0.102312 0.082492
0.494687 0.102312 0.080897
0.494968 0.102312 0.079301
0.494052 0.102399 0.077487
0.494333 0.102399 0.075891
0.494615 0.102399 0.074294
0.494896 0.102399 0.072697
0.495178 0.102399 0.071101
0.495459 0.102399 0.069504
0.494543 0.102487 0.067680
0.494824 0.102487 0.066082
0.493906 0.102574 0.064254
0.492987 0.102662 0.062422
0.493269 0.102662 0.060821
0.492348 0.102749 0.058985
0.492631 0.102749 0.057383
0.491709 0.102837 0.055543
0.490785 0.102925 0.053699
0.489859 0.103014 0.051852
0.490143 0.103014 0.050246
0.489216 0.103102 0.048395
0.489499 0.103102 0.046787
0.489783 0.103102 0.045180
0.488855 0.103191 0.043323
0.489139 0.103191 0.041714
0.488210 0.103279 0.039852
0.488494 0.103279 0.038242
0.487563 0.103368 0.036375
0.489061 0.103279 0.035021
0.486915 0.103457 0.032893
0.485982 0.103546 0.031019
0.485047 0.103635 0.029141
0.482887 0.103814 0.026996
0.480719 0.103994 0.024843
0.479775 0.104084 0.022952
0.477597 0.104265 0.020786
0.475411 0.104446 0.018613
0.474458 0.104537 0.016709
0.473504 0.104628 0.014801
0.471304 0.104810 0.012610
0.470344 0.104902 0.010694
0.468132 0.105085 0.008490
0.467168 0.105177 0.006565
0.464944 0.105361 0.004349
0.463975 0.105454 0.002415
0.463003 0.105546 0.000479
0.460765 0.105732 -0.001757
0.459788 0.105825 -0.003702
0.457538 0.106012 -0.005951
0.455280 0.106199 -0.008207
0.454294 0.106293 -0.010167
0.452025 0.106481 -0.012437
0.448458 0.106765 -0.015024
0.450040 0.106670 -0.016377
0.450333 0.106670 -0.018040
0.450627 0.106670 -0.019703
0.450920 0.106670 -0.021366
0.452498 0.106575 -0.022712
0.452791 0.106575 -0.024374
0.453084 0.106575 -0.026035
0.453377 0.106575 -0.027697
0.454952 0.106481 -0.029036
0.455244 0.106481 -0.030696
0.455537 0.106481 -0.032356
0.457108 0.106387 -0.033690
0.457401 0.106387 -0.035349
0.457693 0.106387 -0.037007
0.457986 0.106387 -0.038666
0.458278 0.106387 -0.040324
0.459846 0.106293 -0.041650
0.460138 0.106293 -0.043307
0.460430 0.106293 -0.044964
0.460722 0.106293 -0.046621
0.461014 0.106293 -0.048278
0.462578 0.106199 -0.049596
0.462870 0.106199 -0.051252
0.463162 0.106199 -0.052907
0.463454 0.106199 -0.054563
0.463746 0.106199 -0.056219
0.464038 0.106199 -0.057874
0.464330 0.106199 -0.059530
0.464622 0.106199 -0.061185
0.464914 0.106199 -0.062841
0.465205 0.106199 -0.064496
0.465497 0.106199 -0.066152
0.464521 0.106293 -0.068163
0.464813 0.106293 -0.069820
0.465105 0.106293 -0.071477
0.465397 0.106293 -0.073134
0.465689 0.106293 -0.074791
0.465981 0.106293 -0.076448
0.466274 0.106293 -0.078105
0.465296 0.106387 -0.080128
0.465589 0.106387 -0.081786
0.465881 0.106387 -0.083445
0.466174 0.106387 -0.085103
0.466466 0.106387 -0.086762
0.466759 0.106387 -0.088420
0.467051 0.106387 -0.090079
0.467344 0.106387 -0.091737
0.467636 0.106387 -0.093396
0.466659 0.106481 -0.095434
0.466952 0.106481 -0.097094
0.467245 0.106481 -0.098754
0.467537 0.106481 -0.100414
0.467830 0.106481 -0.102073
0.468123 0.106481 -0.103733
0.468415 0.106481 -0.105393
0.467438 0.106575 -0.107444
0.467731 0.106575 -0.109105
0.468024 0.106575 -0.110767
0.467046 0.106670 -0.112824
0.467339 0.106670 -0.114487
0.467633 0.106670 -0.116150
0.466653 0.106765 -0.118213
0.466947 0.106765 -0.119878
0.467240 0.106765 -0.121542
0.466260 0.106860 -0.123612
0.466554 0.106860 -0.125278
0.465572 0.106955 -0.127354
0.465866 0.106955 -0.129021
0.464882 0.107050 -0.131101
0.465176 0.107050 -0.132770
0.464191 0.107145 -0.134856
0.464486 0.107145 -0.136526
0.463499 0.107241 -0.138617
0.463794 0.107241 -0.140289
0.462806 0.107337 -0.142385
0.461817 0.107432 -0.144485
0.462112 0.107432 -0.146160
0.461121 0.107529 -0.148265
0.460128 0.107625 -0.150374
0.460423 0.107625 -0.152051
0.459429 0.107721 -0.154165
0.458433 0.107818 -0.156283
0.458729 0.107818 -0.157964
0.457731 0.107915 -0.160087
0.456732 0.108011 -0.162214
0.455731 0.108109 -0.164345
0.456028 0.108109 -0.166030
0.455025 0.108206 -0.168166
0.454020 0.108303 -0.170306
0.453014 0.108401 -0.172450
0.452005 0.108499 -0.174597
0.450995 0.108597 -0.176749
0.451294 0.108597 -0.178441
0.450282 0.108695 -0.180598
0.449269 0.108793 -0.182759
0.449568 0.108793 -0.184455
0.449867 0.108793 -0.186151
0.447536 0.108990 -0.188791
0.446517 0.109089 -0.190965
0.445497 0.109188 -0.193143
0.444475 0.109288 -0.195325
0.443450 0.109387 -0.197510
0.442424 0.109486 -0.199700
0.440065 0.109686 -0.202382
0.439033 0.109786 -0.204582
0.437999 0.109887 -0.206786
0.435624 0.110088 -0.209491
0.434584 0.110189 -0.211705
0.430846 0.110492 -0.214929
0.429798 0.110594 -0.217157
0.428748 0.110696 -0.219389
0.426338 0.110900 -0.222136
0.425282 0.111002 -0.224379
0.424224 0.111105 -0.226625
0.421797 0.111310 -0.229396
0.420733 0.111413 -0.231654
0.418292 0.111620 -0.234441
0.417222 0.111724 -0.236710
0.414768 0.111932 -0.239515
0.412305 0.112140 -0.242330
0.411225 0.112245 -0.244616
0.410142 0.112350 -0.246907
0.406262 0.112666 -0.250292
0.403767 0.112877 -0.253146
0.399852 0.113196 -0.256565
0.395914 0.113516 -0.260003
0.393381 0.113731 -0.262897
0.389407 0.114054 -0.266369
0.386849 0.114271 -0.269288
0.382837 0.114597 -0.272795
0.380255 0.114816 -0.275740
0.376206 0.115146 -0.279282
0.372132 0.115477 -0.282844
0.368036 0.115811 -0.286427
0.363916 0.116146 -0.290031
0.359772 0.116483 -0.293655
0.355604 0.116822 -0.297300
0.351412 0.117164 -0.300966
0.344155 0.117737 -0.305902
0.335288 0.118432 -0.311519
0.327873 0.119017 -0.316559
0.320385 0.119609 -0.321650
0.311235 0.120326 -0.327450
0.301975 0.121052 -0.333321
0.292603 0.121787 -0.339262
0.284762 0.122406 -0.344586
0.275180 0.123157 -0.350662
0.265480 0.123918 -0.356813
0.257362 0.124559 -0.362321
0.247440 0.125336 -0.368615
0.242606 0.125729 -0.372770
0.244681 0.125598 -0.373991
0.246751 0.125467 -0.375209
0.248817 0.125336 -0.376424
0.250879 0.125206 -0.377637
0.252937 0.125076 -0.378847
0.254990 0.124946 -0.380055
0.257039 0.124817 -0.381261
0.259084 0.124688 -0.382464
0.261125 0.124559 -0.383664
0.263162 0.124430 -0.384862
0.265194 0.124301 -0.386058
0.267222 0.124173 -0.387251
0.269246 0.124045 -0.388441
0.271266 0.123918 -0.389630
0.273282 0.123790 -0.390815
0.275293 0.123663 -0.391999
0.275633 0.123663 -0.393925
0.277640 0.123536 -0.395104
0.281304 0.123283 -0.395534
0.283299 0.123157 -0.396708
0.283637 0.123157 -0.398626
0.285628 0.123031 -0.399796
0.287615 0.122906 -0.400963
0.289597 0.122780 -0.402127
0.291576 0.122655 -0.403289
0.293551 0.122530 -0.404449
0.293888 0.122530 -0.406358
0.295858 0.122406 -0.407514
0.297824 0.122282 -0.408667
0.299787 0.122158 -0.409818
0.301745 0.122034 -0.410967
0.303700 0.121910 -0.412113
0.304035 0.121910 -0.414012
0.305985 0.121787 -0.415154
0.307931 0.121664 -0.416294
0.309874 0.121541 -0.417432
0.310207 0.121541 -0.419325
0.312146 0.121418 -0.420458
0.314080 0.121296 -0.421589
0.316010 0.121174 -0.422718
0.317937 0.121052 -0.423845
0.318269 0.121052 -0.425731
0.318602 0.121052 -0.427617
0.320524 0.120930 -0.428737
0.322442 0.120809 -0.429855
0.324356 0.120688 -0.430971
0.324688 0.120688 -0.432852
0.326598 0.120567 -0.433964
0.326929 0.120567 -0.435842
0.327261 0.120567 -0.437720
0.329166 0.120446 -0.438826
0.329497 0.120446 -0.440703
0.329828 0.120446 -0.442579
0.331729 0.120326 -0.443679
0.332060 0.120326 -0.445554
0.335521 0.120086 -0.445873
0.335850 0.120086 -0.447744
0.337740 0.119966 -0.448835
0.338070 0.119966 -0.450704
0.339955 0.119847 -0.451792
0.340285 0.119847 -0.453659
0.342166 0.119728 -0.454743
0.342495 0.119728 -0.456608
0.344373 0.119609 -0.457688
0.344701 0.119609 -0.459551
0.345030 0.119609 -0.461415
0.345358 0.119609 -0.463278
0.344140 0.119728 -0.465935
0.344469 0.119728 -0.467801
0.344797 0.119728 -0.469666
0.345126 0.119728 -0.471531
0.343906 0.119847 -0.474199
0.344235 0.119847 -0.476066
0.343013 0.119966 -0.478741
0.337107 0.120446 -0.483863
0.235815 0.115648 0.327019
0.239382 0.115422 0.325209
0.242935 0.115198 0.323406
0.246474 0.114974 0.321609
0.250000 0.114751 0.319820
0.253512 0.114529 0.318038
0.257010 0.114308 0.316263
0.258914 0.114198 0.314473
0.260814 0.114088 0.312688
0.264285 0.113868 0.310929
0.266175 0.113759 0.309152
0.268060 0.113650 0.307378
0.269943 0.113541 0.305607
0.271821 0.113432 0.303840
0.338008 0.108844 0.303409
0.365140 0.106974 0.302270
0.375091 0.106302 0.300797
0.384918 0.105638 0.299342
0.393286 0.105075 0.297872
0.397584 0.104796 0.296312
0.403181 0.104426 0.294797
0.408740 0.104058 0.293293
0.412955 0.103784 0.291761
0.417149 0.103512 0.290236
0.421321 0.103241 0.288720
0.425471 0.102971 0.287211
0.428322 0.102792 0.285667
0.432436 0.102525 0.284173
0.435262 0.102348 0.282641
0.439341 0.102083 0.281161
0.442143 0.101907 0.279640
0.446187 0.101644 0.278174
0.448966 0.101470 0.276665
0.451735 0.101296 0.275161
0.453257 0.101209 0.273610
0.454777 0.101123 0.272061
0.456295 0.101036 0.270514
0.457809 0.100950 0.268970
0.459321 0.100864 0.267429
0.460831 0.100778 0.265891
0.461112 0.100778 0.264294
0.462619 0.100692 0.262759
0.464124 0.100607 0.261227
0.466844 0.100436 0.259762
0.468341 0.100350 0.258237
0.471047 0.100180 0.256780
0.472537 0.100096 0.255261
0.472816 0.100096 0.253675
0.473096 0.100096 0.252089
0.472166 0.100180 0.250431
0.472446 0.100180 0.248844
0.472726 0.100180 0.247257
0.473006 0.100180 0.245670
0.473286 0.100180 0.244083
0.473566 0.100180 0.242495
0.473846 0.100180 0.240908
0.475333 0.100096 0.239402
0.475613 0.100096 0.237816
0.475892 0.100096 0.236230
0.474965 0.100180 0.234559
0.475245 0.100180 0.232972
0.475525 0.100180 0.231385
0.475805 0.100180 0.229797
0.476085 0.100180 0.228210
0.476364 0.100180 0.226623
0.476644 0.100180 0.225036
0.476924 0.100180 0.223449
0.478409 0.100096 0.221957
0.478689 0.100096 0.220372
0.477764 0.100180 0.218687
0.478044 0.100180 0.217100
0.478324 0.100180 0.215512
0.478603 0.100180 0.213925
0.478883 0.100180 0.212338
0.479163 0.100180 0.210751
0.479443 0.100180 0.209164
0.479723 0.100180 0.207576
0.480003 0.100180 0.205989
0.480283 0.100180 0.204402
0.480563 0.100180 0.202815
0.478433 0.100350 0.201000
0.478713 0.100350 0.199410
0.478994 0.100350 0.197820
0.479274 0.100350 0.196230
0.479554 0.100350 0.194641
0.479835 0.100350 0.193051
0.480115 0.100350 0.191461
0.480395 0.100350 0.189871
0.479470 0.100436 0.188156
0.479750 0.100436 0.186565
0.480031 0.100436 0.184974
0.480312 0.100436 0.183382
0.480592 0.100436 0.181791
0.480873 0.100436 0.180200
0.481153 0.100436 0.178609
0.481434 0.100436 0.177018
0.481715 0.100436 0.175426
0.480789 0.100521 0.173698
0.481070 0.100521 0.172105
0.481351 0.100521 0.170513
0.481632 0.100521 0.168920
0.481913 0.100521 0.167328
0.482193 0.100521 0.165735
0.482474 0.100521 0.164142
0.482755 0.100521 0.162550
0.481830 0.100607 0.160809
0.482111 0.100607 0.159215
0.482392 0.100607 0.157621
0.482673 0.100607 0.156027
0.482954 0.100607 0.154434
0.483235 0.100607 0.152840
0.483516 0.100607 0.151246
0.483797 0.100607 0.149652
0.482872 0.100692 0.147899
0.483154 0.100692 0.146303
0.483435 0.100692 0.144708
0.483716 0.100692 0.143113
0.483998 0.100692 0.141518
0.484279 0.100692 0.139922
0.483353 0.100778 0.138159
0.483635 0.100778 0.136563
0.483916 0.100778 0.134966
0.485404 0.100692 0.133541
0.485685 0.100692 0.131946
0.485967 0.100692 0.130351
0.486248 0.100692 0.128755
0.486529 0.100692 0.127160
0.488013 0.100607 0.125743
0.488294 0.100607 0.124149
0.488575 0.100607 0.122555
0.488856 0.100607 0.120961
0.489137 0.100607 0.119367
0.489418 0.100607 0.117773
0.489700 0.100607 0.116179
0.489981 0.100607 0.114585
0.490262 0.100607 0.112991
0.490543 0.100607 0.111397
0.490824 0.100607 0.109803
0.492303 0.100521 0.108402
0.492584 0.100521 0.106809
0.492864 0.100521 0.105217
0.491948 0.100607 0.103428
0.492229 0.100607 0.101834
0.492510 0.100607 0.100240
0.492791 0.100607 0.098646
0.494268 0.100521 0.097254
0.493353 0.100607 0.095458
0.493634 0.100607 0.093864
0.493915 0.100607 0.092270
0.494196 0.100607 0.090676
0.494477 0.100607 0.089082
0.494758 0.100607 0.087488
0.493843 0.100692 0.085683
0.494124 0.100692 0.084087
0.494405 0.100692 0.082492
0.493488 0.100778 0.080681
0.493770 0.100778 0.079084
0.494052 0.100778 0.077487
0.494333 0.100778 0.075891
0.494615 0.100778 0.074294
0.494896 0.100778 0.072697
0.495178 0.100778 0.071101
0.494261 0.100864 0.069278
0.494543 0.100864 0.067680
0.493624 0.100950 0.065853
0.493906 0.100950 0.064254
0.492987 0.101036 0.062422
0.492066 0.101123 0.060587
0.492348 0.101123 0.058985
0.492631 0.101123 0.057383
0.491709 0.101209 0.055543
0.489576 0.101383 0.053459
0.489859 0.101383 0.051852
0.490143 0.101383 0.050246
0.489216 0.101470 0.048395
0.489499 0.101470 0.046787
0.488571 0.101557 0.044932
0.488855 0.101557 0.043323
0.487926 0.101644 0.041462
0.488210 0.101644 0.039852
0.487279 0.101732 0.037987
0.487563 0.101732 0.036375
0.487847 0.101732 0.034764
0.488131 0.101732 0.033152
0.485982 0.101907 0.031019
0.483825 0.102083 0.028878
0.482887 0.102171 0.026996
0.480719 0.102348 0.024843
0.479775 0.102436 0.022952
0.477597 0.102614 0.020786
0.475411 0.102792 0.018613
0.474458 0.102882 0.016709
0.472261 0.103061 0.014523
0.471304 0.103151 0.012610
0.470344 0.103241 0.010694
0.468132 0.103421 0.008490
0.467168 0.103512 0.006565
0.464944 0.103693 0.004349
0.463975 0.103784 0.002415
0.461740 0.103967 0.000185
0.460765 0.104058 -0.001757
0.458519 0.104242 -0.004000
0.457538 0.104333 -0.005951
0.455280 0.104518 -0.008207
0.454294 0.104610 -0.010167
0.452025 0.104796 -0.012437
0.449747 0.104981 -0.014714
0.450040 0.104981 -0.016377
0.450333 0.104981 -0.018040
0.450627 0.104981 -0.019703
0.452205 0.104888 -0.021051
0.452498 0.104888 -0.022712
0.452791 0.104888 -0.024374
0.453084 0.104888 -0.026035
0.454659 0.104796 -0.027376
0.454952 0.104796 -0.029036
0.455244 0.104796 -0.030696
0.455537 0.104796 -0.032356
0.457108 0.104703 -0.033690
0.457401 0.104703 -0.035349
0.457693 0.104703 -0.037007
0.457986 0.104703 -0.038666
0.459554 0.104610 -0.039993
0.459846 0.104610 -0.041650
0.460138 0.104610 -0.043307
0.460430 0.104610 -0.044964
0.460722 0.104610 -0.046621
0.462286 0.104518 -0.047941
0.462578 0.104518 -0.049596
0.462870 0.104518 -0.051252
0.463162 0.104518 -0.052907
0.463454 0.104518 -0.054563
0.463746 0.104518 -0.056219
0.464038 0.104518 -0.057874
0.464330 0.104518 -0.059530
0.464622 0.104518 -0.061185
0.464914 0.104518 -0.062841
0.465205 0.104518 -0.064496
0.465497 0.104518 -0.066152
0.464521 0.104610 -0.068163
0.464813 0.104610 -0.069820
0.465105 0.104610 -0.071477
0.465397 0.104610 -0.073134
0.465689 0.104610 -0.074791
0.465981 0.104610 -0.076448
0.466274 0.104610 -0.078105
0.465296 0.104703 -0.080128
0.465589 0.104703 -0.081786
0.465881 0.104703 -0.083445
0.466174 0.104703 -0.085103
0.466466 0.104703 -0.086762
0.466759 0.104703 -0.088420
0.467051 0.104703 -0.090079
0.467344 0.104703 -0.091737
0.466367 0.104796 -0.093774
0.466659 0.104796 -0.095434
0.466952 0.104796 -0.097094
0.467245 0.104796 -0.098754
0.467537 0.104796 -0.100414
0.467830 0.104796 -0.102073
0.468123 0.104796 -0.103733
0.468415 0.104796 -0.105393
0.467438 0.104888 -0.107444
0.467731 0.104888 -0.109105
0.468024 0.104888 -0.110767
0.468317 0.104888 -0.112428
0.467339 0.104981 -0.114487
0.467633 0.104981 -0.116150
0.467926 0.104981 -0.117813
0.466947 0.105075 -0.119878
0.467240 0.105075 -0.121542
0.466260 0.105168 -0.123612
0.466554 0.105168 -0.125278
0.465572 0.105262 -0.127354
0.465866 0.105262 -0.129021
0.464882 0.105355 -0.131101
0.465176 0.105355 -0.132770
0.464191 0.105449 -0.134856
0.464486 0.105449 -0.136526
0.463499 0.105543 -0.138617
0.463794 0.105543 -0.140289
0.462806 0.105638 -0.142385
0.461817 0.105732 -0.144485
0.462112 0.105732 -0.146160
0.461121 0.105826 -0.148265
0.460128 0.105921 -0.150374
0.460423 0.105921 -0.152051
0.459429 0.106016 -0.154165
0.458433 0.106111 -0.156283
0.458729 0.106111 -0.157964
0.457731 0.106206 -0.160087
0.456732 0.106302 -0.162214
0.455731 0.106397 -0.164345
0.456028 0.106397 -0.166030
0.455025 0.106493 -0.168166
0.454020 0.106589 -0.170306
0.453014 0.106685 -0.172450
0.452005 0.106781 -0.174597
0.450995 0.106878 -0.176749
0.451294 0.106878 -0.178441
0.450282 0.106974 -0.180598
0.449269 0.107071 -0.182759
0.449568 0.107071 -0.184455
0.449867 0.107071 -0.186151
0.447536 0.107265 -0.188791
0.446517 0.107363 -0.190965
0.445497 0.107460 -0.193143
0.444475 0.107558 -0.195325
0.443450 0.107656 -0.197510
0.442424 0.107754 -0.199700
0.440065 0.107950 -0.202382
0.439033 0.108049 -0.204582
0.437999 0.108147 -0.206786
0.435624 0.108345 -0.209491
0.434584 0.108445 -0.211705
0.430846 0.108744 -0.214929
0.429798 0.108844 -0.217157
0.428748 0.108944 -0.219389
0.426338 0.109145 -0.222136
0.425282 0.109245 -0.224379
0.422859 0.109447 -0.227143
0.421797 0.109549 -0.229396
0.420733 0.109650 -0.231654
0.418292 0.109854 -0.234441
0.417222 0.109956 -0.236710
0.414768 0.110160 -0.239515
0.413692 0.110263 -0.241794
0.411225 0.110469 -0.244616
0.410142 0.110572 -0.246907
0.407661 0.110779 -0.249746
0.403767 0.111091 -0.253146
0.401263 0.111300 -0.256011
0.397333 0.111614 -0.259444
0.394805 0.111825 -0.262334
0.390838 0.112143 -0.265801
0.386849 0.112463 -0.269288
0.384282 0.112677 -0.272218
0.380255 0.112999 -0.275740
0.376206 0.113324 -0.279282
0.372132 0.113650 -0.282844
0.368036 0.113978 -0.286427
0.363916 0.114308 -0.290031
0.359772 0.114640 -0.293655
0.355604 0.114974 -0.297300
0.351412 0.115310 -0.300966
0.344155 0.115874 -0.305902
0.336828 0.116443 -0.310885
0.329428 0.117019 -0.315918
0.321955 0.117600 -0.321000
0.311235 0.118422 -0.327450
0.303581 0.119017 -0.332651
0.294228 0.119739 -0.338582
0.284762 0.120470 -0.344586
0.276841 0.121085 -0.349964
0.267161 0.121832 -0.356104
0.257362 0.122588 -0.362321
0.249160 0.123226 -0.367885
0.242606 0.123740 -0.372770
0.244681 0.123611 -0.373991
0.246751 0.123483 -0.375209
0.248817 0.123354 -0.376424
0.250879 0.123226 -0.377637
0.252937 0.123098 -0.378847
0.254990 0.122970 -0.380055
0.257039 0.122843 -0.381261
0.259084 0.122715 -0.382464
0.261125 0.122588 -0.383664
0.263162 0.122462 -0.384862
0.266881 0.122209 -0.385316
0.268905 0.122083 -0.386509
0.270926 0.121958 -0.387699
0.272942 0.121832 -0.388887
0.273282 0.121832 -0.390815
0.275293 0.121707 -0.391999
0.277301 0.121582 -0.393179
0.277640 0.121582 -0.395104
0.281304 0.121333 -0.395534
0.283299 0.121209 -0.396708
0.283637 0.121209 -0.398626
0.285628 0.121085 -0.399796
0.287615 0.120962 -0.400963
0.289597 0.120838 -0.402127
0.291576 0.120715 -0.403289
0.293551 0.120592 -0.404449
0.293888 0.120592 -0.406358
0.295858 0.120470 -0.407514
0.297824 0.120347 -0.408667
0.299787 0.120225 -0.409818
0.301745 0.120103 -0.410967
0.303700 0.119982 -0.412113
0.305650 0.119860 -0.413257
0.305985 0.119860 -0.415154
0.307931 0.119739 -0.416294
0.309874 0.119618 -0.417432
0.311812 0.119498 -0.418567
0.312146 0.119498 -0.420458
0.314080 0.119377 -0.421589
0.316010 0.119257 -0.422718
0.317937 0.119137 -0.423845
0.318269 0.119137 -0.425731
0.320192 0.119017 -0.426853
0.320524 0.119017 -0.428737
0.322442 0.118898 -0.429855
0.324356 0.118779 -0.430971
0.324688 0.118779 -0.432852
0.326598 0.118660 -0.433964
0.326929 0.118660 -0.435842
0.328835 0.118541 -0.436950
0.329166 0.118541 -0.438826
0.329497 0.118541 -0.440703
0.331399 0.118422 -0.441805
0.331729 0.118422 -0.443679
0.335191 0.118186 -0.444002
0.335521 0.118186 -0.445873
0.335850 0.118186 -0.447744
0.337740 0.118068 -0.448835
0.338070 0.118068 -0.450704
0.339955 0.117951 -0.451792
0.340285 0.117951 -0.453659
0.342166 0.117833 -0.454743
0.342495 0.117833 -0.456608
0.344373 0.117716 -0.457688
0.344701 0.117716 -0.459551
0.345030 0.117716 -0.461415
0.345358 0.117716 -0.463278
0.344140 0.117833 -0.465935
0.344469 0.117833 -0.467801
0.344797 0.117833 -0.469666
0.345126 0.117833 -0.471531
0.345455 0.117833 -0.473397
0.344235 0.117951 -0.476066
0.344565 0.117951 -0.477933
0.341789 0.118186 -0.481421
0.237439 0.113677 0.327027
0.239382 0.113567 0.325209
0.244545 0.113235 0.323418
0.248078 0.113016 0.321623
0.250000 0.112906 0.319820
0.253512 0.112688 0.318038
0.257010 0.112470 0.316263
0.258914 0.112362 0.314473
0.260814 0.112254 0.312688
0.264285 0.112038 0.310929
0.266175 0.111930 0.309152
0.268060 0.111823 0.307378
0.269943 0.111715 0.305607
0.271821 0.111608 0.303840
0.352246 0.106117 0.303703
0.366526 0.105159 0.302300
0.376460 0.104498 0.300828
0.386270 0.103846 0.299375
0.393286 0.103385 0.297872
0.398914 0.103019 0.296347
0.403181 0.102746 0.294797
0.408740 0.102384 0.293293
0.414259 0.102025 0.291799
0.417149 0.101847 0.290236
0.421321 0.101580 0.288720
0.425471 0.101315 0.287211
0.428322 0.101139 0.285667
0.432436 0.100876 0.284173
0.435262 0.100701 0.282641
0.439341 0.100441 0.281161
0.442143 0.100267 0.279640
0.446187 0.100009 0.278174
0.448966 0.099837 0.276665
0.450493 0.099752 0.275110
0.452018 0.099666 0.273557
0.453540 0.099581 0.272006
0.455060 0.099496 0.270459
0.456577 0.099411 0.268913
0.459321 0.099241 0.267429
0.460831 0.099157 0.265891
0.461112 0.099157 0.264294
0.462619 0.099072 0.262759
0.464124 0.098988 0.261227
0.466844 0.098820 0.259762
0.468341 0.098736 0.258237
0.471047 0.098569 0.256780
0.472537 0.098485 0.255261
0.472816 0.098485 0.253675
0.473096 0.098485 0.252089
0.473375 0.098485 0.250503
0.472446 0.098569 0.248844
0.472726 0.098569 0.247257
0.473006 0.098569 0.245670
0.473286 0.098569 0.244083
0.473566 0.098569 0.242495
0.473846 0.098569 0.240908
0.474126 0.098569 0.239321
0.474405 0.098569 0.237734
0.474685 0.098569 0.236146
0.474965 0.098569 0.234559
0.475245 0.098569 0.232972
0.475525 0.098569 0.231385
0.475805 0.098569 0.229797
0.476085 0.098569 0.228210
0.473948 0.098736 0.226439
0.474228 0.098736 0.224849
0.474508 0.098736 0.223259
0.474789 0.098736 0.221669
0.475069 0.098736 0.220079
0.475349 0.098736 0.218489
0.478044 0.098569 0.217100
0.478324 0.098569 0.215512
0.478603 0.098569 0.213925
0.478883 0.098569 0.212338
0.479163 0.098569 0.210751
0.479443 0.098569 0.209164
0.479723 0.098569 0.207576
0.480003 0.098569 0.205989
0.477872 0.098736 0.204180
0.478153 0.098736 0.202590
0.478433 0.098736 0.201000
0.478713 0.098736 0.199410
0.478994 0.098736 0.197820
0.479274 0.098736 0.196230
0.479554 0.098736 0.194641
0.479835 0.098736 0.193051
0.480115 0.098736 0.191461
0.479189 0.098820 0.189747
0.479470 0.098820 0.188156
0.479750 0.098820 0.186565
0.480031 0.098820 0.184974
0.480312 0.098820 0.183382
0.480592 0.098820 0.181791
0.480873 0.098820 0.180200
0.479947 0.098904 0.178476
0.480228 0.098904 0.176883
0.480508 0.098904 0.175291
0.480789 0.098904 0.173698
0.481070 0.098904 0.172105
0.481351 0.098904 0.170513
0.481632 0.098904 0.168920
0.481913 0.098904 0.167328
0.482193 0.098904 0.165735
0.481268 0.098988 0.163997
0.481549 0.098988 0.162403
0.481830 0.098988 0.160809
0.482111 0.098988 0.159215
0.482392 0.098988 0.157621
0.482673 0.098988 0.156027
0.482954 0.098988 0.154434
0.483235 0.098988 0.152840
0.482310 0.099072 0.151089
0.482591 0.099072 0.149494
0.482872 0.099072 0.147899
0.483154 0.099072 0.146303
0.483435 0.099072 0.144708
0.483716 0.099072 0.143113
0.483998 0.099072 0.141518
0.484279 0.099072 0.139922
0.483353 0.099157 0.138159
0.483635 0.099157 0.136563
0.483916 0.099157 0.134966
0.484198 0.099157 0.133370
0.485685 0.099072 0.131946
0.485967 0.099072 0.130351
0.486248 0.099072 0.128755
0.486529 0.099072 0.127160
0.486810 0.099072 0.125565
0.488294 0.098988 0.124149
0.488575 0.098988 0.122555
0.488856 0.098988 0.120961
0.489137 0.098988 0.119367
0.489418 0.098988 0.117773
0.489700 0.098988 0.116179
0.489981 0.098988 0.114585
0.490262 0.098988 0.112991
0.490543 0.098988 0.111397
0.490824 0.098988 0.109803
0.491105 0.098988 0.108209
0.491386 0.098988 0.106615
0.491667 0.098988 0.105021
0.491948 0.098988 0.103428
0.492229 0.098988 0.101834
0.492510 0.098988 0.100240
0.492791 0.098988 0.098646
0.493072 0.098988 0.097052
0.493353 0.098988 0.095458
0.493634 0.098988 0.093864
0.493915 0.098988 0.092270
0.494196 0.098988 0.090676
0.494477 0.098988 0.089082
0.493561 0.099072 0.087278
0.493843 0.099072 0.085683
0.492925 0.099157 0.083874
0.493207 0.099157 0.082277
0.493488 0.099157 0.080681
0.493770 0.099157 0.079084
0.494052 0.099157 0.077487
0.494333 0.099157 0.075891
0.494615 0.099157 0.074294
0.493697 0.099241 0.072474
0.493979 0.099241 0.070876
0.495459 0.099157 0.069504
0.494543 0.099241 0.067680
0.493624 0.099326 0.065853
0.492705 0.099411 0.064023
0.492987 0.099411 0.062422
0.492066 0.099496 0.060587
0.492348 0.099496 0.058985
0.491426 0.099581 0.057146
0.491709 0.099581 0.055543
0.489576 0.099752 0.053459
0.489859 0.099752 0.051852
0.488932 0.099837 0.050003
0.489216 0.099837 0.048395
0.488288 0.099923 0.046541
0.488571 0.099923 0.044932
0.488855 0.099923 0.043323
0.487926 0.100009 0.041462
0.488210 0.100009 0.039852
0.487279 0.100095 0.037987
0.487563 0.100095 0.036375
0.487847 0.100095 0.034764
0.486915 0.100181 0.032893
0.485982 0.100267 0.031019
0.483825 0.100441 0.028878
0.482887 0.100527 0.026996
0.480719 0.100701 0.024843
0.479775 0.100789 0.022952
0.477597 0.100963 0.020786
0.475411 0.101139 0.018613
0.474458 0.101227 0.016709
0.472261 0.101403 0.014523
0.471304 0.101492 0.012610
0.469095 0.101669 0.010412
0.468132 0.101758 0.008490
0.467168 0.101847 0.006565
0.464944 0.102025 0.004349
0.463975 0.102115 0.002415
0.461740 0.102294 0.000185
0.460765 0.102384 -0.001757
0.458519 0.102565 -0.004000
0.457538 0.102655 -0.005951
0.455280 0.102837 -0.008207
0.454294 0.102928 -0.010167
0.452025 0.103110 -0.012437
0.449747 0.103293 -0.014714
0.450040 0.103293 -0.016377
0.450333 0.103293 -0.018040
0.451912 0.103201 -0.019389
0.452205 0.103201 -0.021051
0.452498 0.103201 -0.022712
0.452791 0.103201 -0.024374
0.454366 0.103110 -0.025716
0.454659 0.103110 -0.027376
0.456231 0.103019 -0.028715
0.455244 0.103110 -0.030696
0.456816 0.103019 -0.032032
0.457108 0.103019 -0.033690
0.457401 0.103019 -0.035349
0.457693 0.103019 -0.037007
0.457986 0.103019 -0.038666
0.459554 0.102928 -0.039993
0.459846 0.102928 -0.041650
0.460138 0.102928 -0.043307
0.460430 0.102928 -0.044964
0.460722 0.102928 -0.046621
0.462286 0.102837 -0.047941
0.462578 0.102837 -0.049596
0.462870 0.102837 -0.051252
0.463162 0.102837 -0.052907
0.463454 0.102837 -0.054563
0.463746 0.102837 -0.056219
0.464038 0.102837 -0.057874
0.464330 0.102837 -0.059530
0.464622 0.102837 -0.061185
0.463644 0.102928 -0.063192
0.463936 0.102928 -0.064849
0.464228 0.102928 -0.066506
0.464521 0.102928 -0.068163
0.464813 0.102928 -0.069820
0.465105 0.102928 -0.071477
0.465397 0.102928 -0.073134
0.465689 0.102928 -0.074791
0.465981 0.102928 -0.076448
0.465004 0.103019 -0.078469
0.465296 0.103019 -0.080128
0.465589 0.103019 -0.081786
0.465881 0.103019 -0.083445
0.466174 0.103019 -0.085103
0.466466 0.103019 -0.086762
0.466759 0.103019 -0.088420
0.467051 0.103019 -0.090079
0.467344 0.103019 -0.091737
0.466367 0.103110 -0.093774
0.466659 0.103110 -0.095434
0.466952 0.103110 -0.097094
0.467245 0.103110 -0.098754
0.467537 0.103110 -0.100414
0.467830 0.103110 -0.102073
0.468123 0.103110 -0.103733
0.467146 0.103201 -0.105783
0.467438 0.103201 -0.107444
0.467731 0.103201 -0.109105
0.468024 0.103201 -0.110767
0.468317 0.103201 -0.112428
0.468610 0.103201 -0.114090
