ply
format ascii 1.0
element vertex 1748
property float x
property float y
property float z
end_header
0.354121 0.167519 0.295288
0.355878 0.167519 0.295090
0.357635 0.167519 0.294893
0.359392 0.167519 0.294695
0.361150 0.167519 0.294498
0.362907 0.167519 0.294300
0.364812 0.167091 0.292690
0.366570 0.167091 0.292492
0.368329 0.167091 0.292294
0.370088 0.167091 0.292097
0.371846 0.167091 0.291899
0.373605 0.167091 0.291701
0.375364 0.167091 0.291503
0.377122 0.167091 0.291305
0.378881 0.167091 0.291108
0.380640 0.167091 0.290910
0.382398 0.167091 0.290712
0.384157 0.167091 0.290514
0.385916 0.167091 0.290316
0.387674 0.167091 0.290119
0.389433 0.167091 0.289921
0.391192 0.167091 0.289723
0.393125 0.166663 0.288108
0.394885 0.166663 0.287910
0.396645 0.166663 0.287712
0.398406 0.166663 0.287514
0.400166 0.166663 0.287316
0.401926 0.166663 0.287118
0.403686 0.166663 0.286920
0.405633 0.166233 0.285300
0.407395 0.166233 0.285102
0.409347 0.165803 0.283479
0.411110 0.165803 0.283281
0.412874 0.165803 0.283082
0.414832 0.165372 0.281456
0.416598 0.165372 0.281258
0.418363 0.165372 0.281059
0.420328 0.164941 0.279429
0.422095 0.164941 0.279231
0.423862 0.164941 0.279032
0.425834 0.164508 0.277399
0.427603 0.164508 0.277200
0.429581 0.164075 0.275564
0.431351 0.164075 0.275365
0.433121 0.164075 0.275166
0.434891 0.164075 0.274967
0.436661 0.164075 0.274768
0.438649 0.163641 0.273128
0.440421 0.163641 0.272928
0.442193 0.163641 0.272729
0.444188 0.163206 0.271086
0.445961 0.163206 0.270886
0.447735 0.163206 0.270687
0.449737 0.162770 0.269040
0.451743 0.162333 0.267390
0.453753 0.161896 0.265737
0.455531 0.161896 0.265537
0.457546 0.161458 0.263880
0.459565 0.161019 0.262221
0.461347 0.161019 0.262021
0.463371 0.160579 0.260358
0.465399 0.160138 0.258692
0.467431 0.159697 0.257023
0.469716 0.158811 0.253877
0.472010 0.157922 0.250719
0.474568 0.156583 0.246061
0.477140 0.155235 0.241376
-0.371443 0.039882 -0.031859
-0.366525 0.042642 -0.023443
-0.362313 0.044695 -0.017244
-0.358130 0.046734 -0.011088
-0.353976 0.048759 -0.004976
-0.349212 0.051437 0.003191
-0.345753 0.052767 0.007123
-0.341685 0.054750 0.013111
-0.337644 0.056720 0.019057
-0.333631 0.058676 0.024962
-0.329645 0.060619 0.030828
-0.326286 0.061907 0.034635
-0.322942 0.063189 0.038426
-0.319023 0.065102 0.044199
-0.315714 0.066369 0.047947
-0.313000 0.067001 0.049695
-0.309716 0.068261 0.053417
-0.307017 0.068888 0.055153
-0.303757 0.070139 0.058851
-0.300511 0.071384 0.062533
-0.297280 0.072624 0.066198
-0.294616 0.073242 0.067906
-0.291409 0.074473 0.071547
-0.288760 0.075087 0.073244
-0.285576 0.076311 0.076861
-0.282943 0.076920 0.078546
-0.280315 0.077529 0.080228
-0.277164 0.078741 0.083814
-0.274551 0.079346 0.085484
-0.271423 0.080550 0.089047
-0.269343 0.080550 0.088813
-0.266747 0.081151 0.090472
-0.263646 0.082347 0.094012
-0.261065 0.082944 0.095660
-0.258490 0.083539 0.097305
-0.255920 0.084133 0.098945
-0.253356 0.084726 0.100583
-0.250798 0.085317 0.102216
-0.248245 0.085907 0.103847
-0.245697 0.086496 0.105473
-0.243640 0.086496 0.105242
-0.241100 0.087083 0.106865
-0.238566 0.087669 0.108485
-0.236037 0.088254 0.110101
-0.233986 0.088254 0.109871
-0.231465 0.088838 0.111484
-0.228949 0.089420 0.113093
-0.226439 0.090001 0.114700
-0.224395 0.090001 0.114470
-0.221892 0.090581 0.116073
-0.219395 0.091160 0.117672
-0.217355 0.091160 0.117443
-0.214865 0.091737 0.119039
-0.212827 0.091737 0.118810
-0.210345 0.092314 0.120403
-0.207868 0.092889 0.121993
-0.205835 0.092889 0.121764
-0.203365 0.093462 0.123351
-0.201334 0.093462 0.123122
-0.198872 0.094035 0.124706
-0.196415 0.094606 0.126286
-0.194388 0.094606 0.126058
-0.191939 0.095176 0.127635
-0.189495 0.095745 0.129209
-0.187472 0.095745 0.128981
-0.185035 0.096313 0.130552
-0.182604 0.096879 0.132119
-0.180586 0.096879 0.131892
-0.178161 0.097444 0.133456
-0.176145 0.097444 0.133229
-0.173728 0.098008 0.134790
-0.171714 0.098008 0.134564
-0.169304 0.098571 0.136122
-0.166899 0.099133 0.137676
-0.164890 0.099133 0.137450
-0.162880 0.099133 0.137224
-0.160485 0.099693 0.138776
-0.158477 0.099693 0.138550
-0.156470 0.099693 0.138325
-0.154462 0.099693 0.138099
-0.152455 0.099693 0.137873
-0.150447 0.099693 0.137647
-0.148067 0.100253 0.139197
-0.146432 0.099693 0.137196
-0.144425 0.099693 0.136970
-0.142051 0.100253 0.138520
-0.140046 0.100253 0.138295
-0.138040 0.100253 0.138069
-0.136035 0.100253 0.137844
-0.134030 0.100253 0.137618
-0.132024 0.100253 0.137393
-0.130019 0.100253 0.137167
-0.128013 0.100253 0.136941
-0.126008 0.100253 0.136716
-0.124003 0.100253 0.136490
-0.121653 0.100811 0.138040
-0.119650 0.100811 0.137814
-0.117647 0.100811 0.137589
-0.115643 0.100811 0.137364
-0.113640 0.100811 0.137138
-0.111637 0.100811 0.136913
-0.109633 0.100811 0.136688
-0.107630 0.100811 0.136463
-0.105627 0.100811 0.136237
-0.103624 0.100811 0.136012
-0.101620 0.100811 0.135787
-0.099617 0.100811 0.135561
-0.097614 0.100811 0.135336
-0.095611 0.100811 0.135111
-0.093607 0.100811 0.134885
-0.091604 0.100811 0.134660
-0.089601 0.100811 0.134435
-0.087597 0.100811 0.134209
-0.085594 0.100811 0.133984
-0.083591 0.100811 0.133759
-0.081588 0.100811 0.133533
-0.079584 0.100811 0.133308
-0.077581 0.100811 0.133083
-0.075578 0.100811 0.132858
-0.073574 0.100811 0.132632
-0.071571 0.100811 0.132407
-0.069568 0.100811 0.132182
-0.067565 0.100811 0.131956
-0.065561 0.100811 0.131731
-0.063558 0.100811 0.131506
-0.061555 0.100811 0.131280
-0.059552 0.100811 0.131055
-0.057548 0.100811 0.130830
-0.055545 0.100811 0.130604
-0.053542 0.100811 0.130379
-0.051538 0.100811 0.130154
-0.049268 0.101368 0.131708
-0.047267 0.101368 0.131483
-0.045265 0.101368 0.131258
-0.043264 0.101368 0.131033
-0.041263 0.101368 0.130808
-0.039262 0.101368 0.130583
-0.037261 0.101368 0.130358
-0.035260 0.101368 0.130133
-0.033258 0.101368 0.129908
-0.031257 0.101368 0.129682
-0.029256 0.101368 0.129457
-0.027255 0.101368 0.129232
-0.025254 0.101368 0.129007
-0.023253 0.101368 0.128782
-0.021251 0.101368 0.128557
-0.019250 0.101368 0.128332
-0.017483 0.100811 0.126323
-0.015479 0.100811 0.126098
-0.013476 0.100811 0.125873
-0.011473 0.100811 0.125647
-0.009470 0.100811 0.125422
-0.007466 0.100811 0.125197
-0.005463 0.100811 0.124971
-0.003460 0.100811 0.124746
-0.001456 0.100811 0.124521
0.000547 0.100811 0.124296
0.002550 0.100811 0.124070
0.004553 0.100811 0.123845
0.006557 0.100811 0.123620
0.008560 0.100811 0.123394
0.010563 0.100811 0.123169
0.012566 0.100811 0.122944
0.014570 0.100811 0.122718
0.016573 0.100811 0.122493
0.018576 0.100811 0.122268
0.020580 0.100811 0.122042
0.022583 0.100811 0.121817
0.024586 0.100811 0.121592
0.026589 0.100811 0.121366
0.028593 0.100811 0.121141
0.030596 0.100811 0.120916
0.032599 0.100811 0.120691
0.034603 0.100811 0.120465
0.036606 0.100811 0.120240
0.038609 0.100811 0.120015
0.040612 0.100811 0.119789
0.042616 0.100811 0.119564
0.044619 0.100811 0.119339
0.046788 0.101368 0.120904
0.048790 0.101368 0.120679
0.050791 0.101368 0.120454
0.052792 0.101368 0.120229
0.054793 0.101368 0.120004
0.056794 0.101368 0.119779
0.058795 0.101368 0.119554
0.060797 0.101368 0.119329
0.062798 0.101368 0.119104
0.064799 0.101368 0.118879
0.066800 0.101368 0.118654
0.068801 0.101368 0.118429
0.070802 0.101368 0.118204
0.072804 0.101368 0.117978
0.074805 0.101368 0.117753
0.076806 0.101368 0.117528
0.078675 0.100811 0.115508
0.080678 0.100811 0.115283
0.082681 0.100811 0.115058
0.084684 0.100811 0.114832
0.086688 0.100811 0.114607
0.088691 0.100811 0.114382
0.090694 0.100811 0.114156
0.092698 0.100811 0.113931
0.094701 0.100811 0.113706
0.096704 0.100811 0.113480
0.098707 0.100811 0.113255
0.100711 0.100811 0.113030
0.102714 0.100811 0.112805
0.104717 0.100811 0.112579
0.106721 0.100811 0.112354
0.108724 0.100811 0.112129
0.110727 0.100811 0.111903
0.112730 0.100811 0.111678
0.114734 0.100811 0.111453
0.116737 0.100811 0.111227
0.118740 0.100811 0.111002
0.120743 0.100811 0.110777
0.122660 0.100253 0.108747
0.124666 0.100253 0.108522
0.126835 0.101368 0.111901
0.128916 0.101924 0.113473
0.130992 0.102478 0.115042
0.133064 0.103032 0.116607
0.135059 0.103032 0.116383
0.137125 0.103584 0.117945
0.139186 0.104135 0.119504
0.141177 0.104135 0.119280
0.143232 0.104685 0.120836
0.145220 0.104685 0.120613
0.147269 0.105234 0.122166
0.149313 0.105781 0.123716
0.151297 0.105781 0.123492
0.153335 0.106328 0.125039
0.155369 0.106873 0.126583
0.157349 0.106873 0.126360
0.159377 0.107418 0.127901
0.161400 0.107961 0.129438
0.163376 0.107961 0.129216
0.165393 0.108503 0.130750
0.167367 0.108503 0.130528
0.169378 0.109044 0.132059
0.171384 0.109583 0.133588
0.173354 0.109583 0.133366
0.175355 0.110122 0.134891
0.177351 0.110659 0.136414
0.179317 0.110659 0.136193
0.181307 0.111196 0.137712
0.183271 0.111196 0.137491
0.185471 0.117547 0.157883
0.187567 0.122210 0.172798
0.189609 0.126284 0.185806
0.191581 0.128797 0.193751
0.193533 0.131285 0.201617
0.195466 0.133748 0.209405
0.197366 0.135215 0.213956
0.199255 0.136673 0.218481
0.201132 0.138122 0.222979
0.202997 0.139083 0.225894
0.204855 0.140518 0.230349
0.206701 0.141945 0.234777
0.208541 0.142892 0.237646
0.210368 0.144305 0.242032
0.212192 0.145242 0.244874
0.213999 0.146642 0.249218
0.215807 0.147570 0.252031
0.217596 0.148956 0.256334
0.219388 0.149876 0.259121
0.221158 0.151248 0.263383
0.222918 0.152613 0.267620
0.224687 0.153519 0.270365
0.226428 0.154871 0.274562
0.228182 0.155768 0.277280
0.229905 0.157108 0.281439
0.231644 0.157996 0.284131
0.233350 0.159323 0.288251
0.235046 0.160643 0.292348
0.236792 0.161081 0.293575
0.238536 0.161518 0.294800
0.240276 0.161955 0.296023
0.242013 0.162390 0.297243
0.243746 0.162825 0.298462
0.245477 0.163259 0.299678
0.247204 0.163693 0.300891
0.248969 0.163693 0.300693
0.250691 0.164125 0.301904
0.252455 0.164125 0.301706
0.254218 0.164125 0.301508
0.255982 0.164125 0.301309
0.257696 0.164557 0.302519
0.259458 0.164557 0.302321
0.261220 0.164557 0.302123
0.263036 0.164125 0.300516
0.264856 0.163693 0.298906
0.266621 0.163693 0.298707
0.268445 0.163259 0.297094
0.270212 0.163259 0.296895
0.272042 0.162825 0.295279
0.273810 0.162825 0.295080
0.275645 0.162390 0.293461
0.277415 0.162390 0.293261
0.279255 0.161955 0.291639
0.281027 0.161955 0.291440
0.282798 0.161955 0.291240
0.284496 0.162390 0.292465
0.286266 0.162390 0.292266
0.288114 0.161955 0.290642
0.289806 0.162390 0.291868
0.291576 0.162390 0.291669
0.293264 0.162825 0.292892
0.295032 0.162825 0.292693
0.296800 0.162825 0.292494
0.298569 0.162825 0.292296
0.300337 0.162825 0.292097
0.302015 0.163259 0.293319
0.303782 0.163259 0.293120
0.305549 0.163259 0.292921
0.307316 0.163259 0.292722
0.308985 0.163693 0.293943
0.310751 0.163693 0.293744
0.312516 0.163693 0.293545
0.314179 0.164125 0.294764
0.315943 0.164125 0.294565
0.317706 0.164125 0.294367
0.319470 0.164125 0.294169
0.321125 0.164557 0.295385
0.322887 0.164557 0.295187
0.324649 0.164557 0.294989
0.326411 0.164557 0.294791
0.328173 0.164557 0.294592
0.329935 0.164557 0.294394
0.331579 0.164988 0.295610
0.333339 0.164988 0.295412
0.335100 0.164988 0.295214
0.336860 0.164988 0.295016
0.338620 0.164988 0.294818
0.340380 0.164988 0.294620
0.342013 0.165418 0.295834
0.343772 0.165418 0.295636
0.345531 0.165418 0.295438
0.347289 0.165418 0.295240
0.349048 0.165418 0.295042
0.350672 0.165847 0.296255
0.352429 0.165847 0.296057
0.354186 0.165847 0.295860
0.355943 0.165847 0.295662
0.357700 0.165847 0.295464
0.359457 0.165847 0.295267
0.361359 0.165418 0.293658
0.363117 0.165418 0.293460
0.364876 0.165418 0.293262
0.366635 0.165418 0.293064
0.368393 0.165418 0.292867
0.370152 0.165418 0.292669
0.371911 0.165418 0.292471
0.373669 0.165418 0.292273
0.375428 0.165418 0.292075
0.377187 0.165418 0.291878
0.378945 0.165418 0.291680
0.380704 0.165418 0.291482
0.382463 0.165418 0.291284
0.384221 0.165418 0.291086
0.385980 0.165418 0.290889
0.387739 0.165418 0.290691
0.389669 0.164988 0.289076
0.391429 0.164988 0.288878
0.393189 0.164988 0.288680
0.394949 0.164988 0.288482
0.396710 0.164988 0.288284
0.398470 0.164988 0.288086
0.400230 0.164988 0.287888
0.401991 0.164988 0.287690
0.403935 0.164557 0.286071
0.405697 0.164557 0.285873
0.407459 0.164557 0.285675
0.409221 0.164557 0.285477
0.410983 0.164557 0.285279
0.412938 0.164125 0.283656
0.414702 0.164125 0.283458
0.416465 0.164125 0.283259
0.418427 0.163693 0.281633
0.420193 0.163693 0.281435
0.422160 0.163259 0.279806
0.423927 0.163259 0.279607
0.425693 0.163259 0.279408
0.427668 0.162825 0.277775
0.429436 0.162825 0.277576
0.431205 0.162825 0.277378
0.433186 0.162390 0.275741
0.434956 0.162390 0.275542
0.436942 0.161955 0.273903
0.438714 0.161955 0.273704
0.440486 0.161955 0.273505
0.442479 0.161518 0.271862
0.444253 0.161518 0.271662
0.446026 0.161518 0.271463
0.448027 0.161081 0.269817
0.449802 0.161081 0.269617
0.451808 0.160643 0.267968
0.453818 0.160204 0.266315
0.455596 0.160204 0.266115
0.457611 0.159764 0.264459
0.459630 0.159323 0.262801
0.461653 0.158882 0.261139
0.463436 0.158882 0.260938
0.465464 0.158439 0.259273
0.467496 0.157996 0.257604
0.469782 0.157108 0.254459
0.472076 0.156216 0.251302
0.474634 0.154871 0.246646
0.476948 0.153971 0.243459
-0.376827 0.032136 -0.048706
-0.367782 0.039144 -0.027041
-0.362893 0.041901 -0.018667
-0.358703 0.043953 -0.012499
-0.353895 0.046665 -0.004260
-0.349770 0.048683 0.001808
-0.345673 0.050688 0.007834
-0.341605 0.052678 0.013819
-0.337564 0.054655 0.019763
-0.334164 0.055965 0.023622
-0.330172 0.057920 0.029498
-0.326207 0.059861 0.035335
-0.322863 0.061147 0.039124
-0.319534 0.062428 0.042895
-0.316221 0.063704 0.046650
-0.312922 0.064973 0.050388
-0.310213 0.065606 0.052131
-0.306939 0.066867 0.055844
-0.304246 0.067495 0.057575
-0.300434 0.069372 0.063221
-0.297761 0.069995 0.064936
-0.294539 0.071236 0.068592
-0.291881 0.071855 0.070295
-0.288683 0.073088 0.073927
-0.286041 0.073703 0.075619
-0.282866 0.074928 0.079227
-0.280239 0.075538 0.080908
-0.277617 0.076148 0.082585
-0.274475 0.077362 0.086162
-0.271868 0.077967 0.087827
-0.269267 0.078571 0.089489
-0.267187 0.078571 0.089256
-0.264594 0.079174 0.090914
-0.261497 0.080375 0.094453
-0.258919 0.080973 0.096101
-0.256346 0.081571 0.097745
-0.253778 0.082167 0.099385
-0.251217 0.082761 0.101022
-0.248660 0.083355 0.102655
-0.246110 0.083947 0.104285
-0.243564 0.084538 0.105911
-0.241025 0.085127 0.107534
-0.238970 0.085127 0.107302
-0.236438 0.085716 0.108922
-0.233911 0.086303 0.110538
-0.231390 0.086888 0.112150
-0.228874 0.087473 0.113759
-0.226828 0.087473 0.113529
-0.224320 0.088056 0.115135
-0.221817 0.088638 0.116737
-0.219320 0.089219 0.118336
-0.217733 0.088638 0.116278
-0.215240 0.089219 0.117877
-0.212753 0.089798 0.119473
-0.210715 0.089798 0.119243
-0.208235 0.090377 0.120836
-0.205760 0.090954 0.122426
-0.203727 0.090954 0.122197
-0.201260 0.091530 0.123783
-0.198798 0.092104 0.125366
-0.196769 0.092104 0.125138
-0.194314 0.092678 0.126717
-0.191865 0.093250 0.128293
-0.189840 0.093250 0.128066
-0.187398 0.093821 0.129639
-0.184962 0.094390 0.131209
-0.182530 0.094959 0.132775
-0.180512 0.094959 0.132548
-0.178494 0.094959 0.132321
-0.176071 0.095526 0.133885
-0.174055 0.095526 0.133658
-0.171640 0.096092 0.135219
-0.169231 0.096657 0.136776
-0.167219 0.096657 0.136550
-0.164816 0.097221 0.138104
-0.162807 0.097221 0.137878
-0.160797 0.097221 0.137652
-0.158787 0.097221 0.137426
-0.156778 0.097221 0.137200
-0.154389 0.097783 0.138752
-0.152381 0.097783 0.138526
-0.150374 0.097783 0.138300
-0.148366 0.097783 0.138074
-0.146359 0.097783 0.137849
-0.144351 0.097783 0.137623
-0.142344 0.097783 0.137397
-0.140336 0.097783 0.137171
-0.138329 0.097783 0.136945
-0.135962 0.098344 0.138496
-0.133956 0.098344 0.138270
-0.131951 0.098344 0.138045
-0.129945 0.098344 0.137819
-0.127940 0.098344 0.137594
-0.125935 0.098344 0.137368
-0.123929 0.098344 0.137143
-0.121924 0.098344 0.136917
-0.119918 0.098344 0.136692
-0.117913 0.098344 0.136466
-0.115908 0.098344 0.136240
-0.113567 0.098905 0.137790
-0.111563 0.098905 0.137565
-0.109560 0.098905 0.137339
-0.107557 0.098905 0.137114
-0.105554 0.098905 0.136889
-0.103550 0.098905 0.136664
-0.101547 0.098905 0.136438
-0.099544 0.098905 0.136213
-0.097541 0.098905 0.135988
-0.095854 0.098344 0.133985
-0.093534 0.098905 0.135537
-0.091531 0.098905 0.135312
-0.089527 0.098905 0.135086
-0.087524 0.098905 0.134861
-0.085521 0.098905 0.134636
-0.083518 0.098905 0.134410
-0.081816 0.098344 0.132406
-0.079811 0.098344 0.132181
-0.077805 0.098344 0.131955
-0.075800 0.098344 0.131729
-0.073794 0.098344 0.131504
-0.071789 0.098344 0.131278
-0.069784 0.098344 0.131053
-0.067778 0.098344 0.130827
-0.065773 0.098344 0.130602
-0.063768 0.098344 0.130376
-0.061482 0.098905 0.131932
-0.059478 0.098905 0.131707
-0.057475 0.098905 0.131481
-0.055472 0.098905 0.131256
-0.053468 0.098905 0.131031
-0.051465 0.098905 0.130805
-0.049462 0.098905 0.130580
-0.047459 0.098905 0.130355
-0.045455 0.098905 0.130129
-0.043452 0.098905 0.129904
-0.041449 0.098905 0.129679
-0.039445 0.098905 0.129453
-0.037442 0.098905 0.129228
-0.035439 0.098905 0.129003
-0.033436 0.098905 0.128778
-0.031432 0.098905 0.128552
-0.029183 0.099464 0.130108
-0.027182 0.099464 0.129883
-0.025180 0.099464 0.129658
-0.023179 0.099464 0.129433
-0.021178 0.099464 0.129208
-0.019177 0.099464 0.128983
-0.017409 0.098905 0.126975
-0.015406 0.098905 0.126750
-0.013403 0.098905 0.126524
-0.011400 0.098905 0.126299
-0.009396 0.098905 0.126074
-0.007393 0.098905 0.125848
-0.005390 0.098905 0.125623
-0.003386 0.098905 0.125398
-0.001383 0.098905 0.125172
0.000620 0.098905 0.124947
0.002623 0.098905 0.124722
0.004627 0.098905 0.124497
0.006630 0.098905 0.124271
0.008633 0.098905 0.124046
0.010636 0.098905 0.123821
0.012640 0.098905 0.123595
0.014643 0.098905 0.123370
0.016646 0.098905 0.123145
0.018650 0.098905 0.122919
0.020653 0.098905 0.122694
0.022656 0.098905 0.122469
0.024659 0.098905 0.122243
0.026663 0.098905 0.122018
0.028666 0.098905 0.121793
0.030669 0.098905 0.121567
0.032673 0.098905 0.121342
0.034676 0.098905 0.121117
0.036679 0.098905 0.120892
0.038682 0.098905 0.120666
0.040686 0.098905 0.120441
0.042689 0.098905 0.120216
0.044692 0.098905 0.119990
0.046695 0.098905 0.119765
0.048699 0.098905 0.119540
0.050702 0.098905 0.119314
0.052705 0.098905 0.119089
0.054866 0.099464 0.120655
0.056867 0.099464 0.120430
0.058869 0.099464 0.120205
0.060870 0.099464 0.119980
0.062871 0.099464 0.119755
0.064872 0.099464 0.119530
0.066873 0.099464 0.119305
0.068874 0.099464 0.119080
0.070876 0.099464 0.118854
0.072877 0.099464 0.118629
0.074878 0.099464 0.118404
0.076879 0.099464 0.118179
0.078748 0.098905 0.116160
0.080751 0.098905 0.115935
0.082754 0.098905 0.115709
0.084758 0.098905 0.115484
0.086761 0.098905 0.115259
0.088764 0.098905 0.115033
0.090768 0.098905 0.114808
0.092771 0.098905 0.114583
0.094774 0.098905 0.114357
0.096777 0.098905 0.114132
0.098781 0.098905 0.113907
0.100784 0.098905 0.113681
0.102787 0.098905 0.113456
0.104791 0.098905 0.113231
0.106794 0.098905 0.113005
0.108797 0.098905 0.112780
0.110800 0.098905 0.112555
0.112804 0.098905 0.112330
0.114807 0.098905 0.112104
0.116810 0.098905 0.111879
0.118723 0.098344 0.109851
0.120728 0.098344 0.109625
0.122734 0.098344 0.109400
0.124739 0.098344 0.109174
0.126908 0.099464 0.112552
0.128989 0.100021 0.114123
0.131065 0.100578 0.115692
0.133062 0.100578 0.115467
0.135132 0.101133 0.117032
0.137127 0.101133 0.116807
0.139190 0.101688 0.118369
0.141250 0.102241 0.119928
0.143240 0.102241 0.119704
0.145293 0.102793 0.121260
0.147341 0.103343 0.122812
0.149328 0.103343 0.122589
0.151370 0.103893 0.124138
0.153408 0.104442 0.125684
0.155441 0.104989 0.127227
0.157422 0.104989 0.127004
0.159449 0.105535 0.128544
0.161427 0.105535 0.128322
0.163448 0.106080 0.129858
0.165425 0.106080 0.129636
0.167439 0.106624 0.131170
0.169450 0.107167 0.132701
0.171422 0.107167 0.132479
0.173426 0.107709 0.134007
0.175427 0.108249 0.135532
0.177395 0.108249 0.135310
0.179389 0.108789 0.136832
0.181355 0.108789 0.136611
0.183343 0.109327 0.138130
0.185581 0.116749 0.161899
0.187671 0.121409 0.176748
0.189694 0.124976 0.188064
0.191676 0.127993 0.197608
0.193624 0.130480 0.205439
0.195544 0.132452 0.211606
0.197442 0.133921 0.216146
0.199328 0.135381 0.220660
0.201204 0.136833 0.225148
0.203068 0.138276 0.229609
0.204922 0.139233 0.232499
0.206767 0.140663 0.236917
0.208604 0.141611 0.239780
0.210429 0.143026 0.244155
0.212244 0.144433 0.248506
0.214057 0.145367 0.251323
0.215852 0.146760 0.255632
0.217650 0.147685 0.258423
0.219426 0.149066 0.262691
0.221209 0.149981 0.265455
0.222967 0.151349 0.269683
0.224734 0.152256 0.272420
0.226473 0.153610 0.276608
0.228225 0.154509 0.279320
0.229947 0.155851 0.283469
0.231659 0.157185 0.287594
0.233388 0.158070 0.290265
0.235111 0.158952 0.292926
0.236857 0.159392 0.294152
0.238569 0.160269 0.296798
0.240307 0.160706 0.298018
0.242042 0.161142 0.299236
0.243811 0.161142 0.299037
0.245541 0.161578 0.300252
0.247268 0.162013 0.301465
0.249034 0.162013 0.301267
0.250756 0.162447 0.302478
0.252519 0.162447 0.302280
0.254237 0.162880 0.303489
0.255999 0.162880 0.303291
0.257761 0.162880 0.303092
0.259523 0.162880 0.302894
0.261285 0.162880 0.302696
0.263101 0.162447 0.301090
0.264920 0.162013 0.299480
0.266685 0.162013 0.299282
0.268510 0.161578 0.297669
0.270277 0.161578 0.297470
0.272107 0.161142 0.295854
0.273875 0.161142 0.295655
0.275710 0.160706 0.294036
0.277480 0.160706 0.293837
0.279320 0.160269 0.292215
0.281091 0.160269 0.292016
0.282863 0.160269 0.291817
0.284635 0.160269 0.291617
0.286407 0.160269 0.291418
0.288178 0.160269 0.291219
0.289950 0.160269 0.291019
0.291641 0.160706 0.292245
0.293411 0.160706 0.292045
0.295181 0.160706 0.291846
0.296865 0.161142 0.293070
0.298634 0.161142 0.292871
0.300402 0.161142 0.292672
0.302171 0.161142 0.292473
0.303847 0.161578 0.293694
0.305614 0.161578 0.293496
0.307380 0.161578 0.293297
0.309050 0.162013 0.294517
0.310815 0.162013 0.294318
0.312580 0.162013 0.294120
0.314346 0.162013 0.293921
0.316007 0.162447 0.295139
0.317771 0.162447 0.294941
0.319534 0.162447 0.294742
0.321298 0.162447 0.294544
0.323062 0.162447 0.294346
0.324714 0.162880 0.295562
0.326476 0.162880 0.295364
0.328237 0.162880 0.295166
0.329999 0.162880 0.294967
0.331761 0.162880 0.294769
0.333523 0.162880 0.294571
0.335164 0.163312 0.295786
0.336924 0.163312 0.295588
0.338685 0.163312 0.295390
0.340445 0.163312 0.295192
0.342205 0.163312 0.294994
0.343836 0.163744 0.296208
0.345595 0.163744 0.296010
0.347354 0.163744 0.295812
0.349112 0.163744 0.295614
0.350871 0.163744 0.295417
0.352493 0.164175 0.296629
0.354250 0.164175 0.296431
0.356147 0.163744 0.294823
0.357906 0.163744 0.294625
0.359664 0.163744 0.294428
0.361423 0.163744 0.294230
0.363182 0.163744 0.294032
0.364940 0.163744 0.293834
0.366699 0.163744 0.293636
0.368458 0.163744 0.293439
0.370216 0.163744 0.293241
0.371975 0.163744 0.293043
0.373734 0.163744 0.292845
0.375492 0.163744 0.292647
0.377251 0.163744 0.292450
0.379010 0.163744 0.292252
0.380768 0.163744 0.292054
0.382527 0.163744 0.291856
0.384452 0.163312 0.290243
0.386212 0.163312 0.290045
0.387973 0.163312 0.289847
0.389733 0.163312 0.289649
0.391493 0.163312 0.289451
0.393254 0.163312 0.289253
0.395014 0.163312 0.289055
0.396774 0.163312 0.288857
0.398534 0.163312 0.288659
0.400295 0.163312 0.288461
0.402055 0.163312 0.288263
0.404000 0.162880 0.286644
0.405762 0.162880 0.286446
0.407524 0.162880 0.286248
0.409286 0.162880 0.286050
0.411239 0.162447 0.284428
0.413003 0.162447 0.284230
0.414766 0.162447 0.284031
0.416727 0.162013 0.282406
0.418492 0.162013 0.282207
0.420257 0.162013 0.282009
0.422224 0.161578 0.280380
0.423991 0.161578 0.280181
0.425758 0.161578 0.279983
0.427732 0.161142 0.278351
0.429501 0.161142 0.278152
0.431269 0.161142 0.277953
0.433251 0.160706 0.276317
0.435235 0.160269 0.274679
0.437007 0.160269 0.274480
0.438779 0.160269 0.274280
0.440771 0.159830 0.272638
0.442544 0.159830 0.272439
0.444318 0.159830 0.272239
0.446317 0.159392 0.270594
0.448092 0.159392 0.270394
0.449867 0.159392 0.270195
0.451873 0.158952 0.268546
0.453883 0.158511 0.266894
0.455661 0.158511 0.266694
0.457676 0.158070 0.265039
0.459695 0.157628 0.263380
0.461718 0.157185 0.261719
0.463502 0.157185 0.261518
0.465530 0.156741 0.259853
0.467809 0.155851 0.256716
0.470097 0.154957 0.253566
0.472141 0.154509 0.251886
0.474444 0.153610 0.248718
0.477014 0.152256 0.244046
-0.368373 0.036327 -0.028484
-0.363474 0.039101 -0.020093
-0.359278 0.041164 -0.013913
-0.355110 0.043213 -0.007777
-0.350330 0.045923 0.000422
-0.346227 0.047939 0.006460
-0.342152 0.049941 0.012456
-0.338105 0.051930 0.018411
-0.334085 0.053905 0.024326
-0.330701 0.055214 0.028165
-0.326729 0.057166 0.034013
-0.323380 0.058461 0.037809
-0.319456 0.060391 0.043592
-0.316143 0.061671 0.047345
-0.313425 0.062309 0.049095
-0.310136 0.063580 0.052823
-0.307433 0.064213 0.054562
-0.304169 0.065476 0.058265
-0.300919 0.066733 0.061952
-0.297683 0.067985 0.065623
-0.295016 0.068608 0.067334
-0.291804 0.069852 0.070980
-0.289152 0.070471 0.072679
-0.285964 0.071706 0.076302
-0.283327 0.072321 0.077989
-0.280162 0.073548 0.081588
-0.277541 0.074160 0.083264
-0.274924 0.074770 0.084937
-0.271792 0.075986 0.088505
-0.269710 0.075986 0.088271
-0.267111 0.076592 0.089932
-0.264518 0.077196 0.091590
-0.261422 0.078402 0.095128
-0.258843 0.079003 0.096775
-0.256270 0.079602 0.098418
-0.253703 0.080200 0.100057
-0.251141 0.080797 0.101693
-0.248585 0.081393 0.103326
-0.246034 0.081987 0.104955
-0.243975 0.081987 0.104723
-0.241432 0.082580 0.106349
-0.238894 0.083172 0.107971
-0.236362 0.083762 0.109590
-0.233836 0.084351 0.111205
-0.231785 0.084351 0.110974
-0.229266 0.084939 0.112586
-0.226753 0.085526 0.114194
-0.224245 0.086111 0.115800
-0.222201 0.086111 0.115570
-0.219701 0.086695 0.117171
-0.217659 0.086695 0.116942
-0.215166 0.087278 0.118540
-0.213126 0.087278 0.118311
-0.210641 0.087860 0.119906
-0.208161 0.088440 0.121498
-0.206125 0.088440 0.121269
-0.203653 0.089019 0.122858
-0.201186 0.089597 0.124444
-0.199154 0.089597 0.124215
-0.196695 0.090173 0.125798
-0.194240 0.090749 0.127376
-0.192213 0.090749 0.127149
-0.189766 0.091323 0.128724
-0.187324 0.091896 0.130297
-0.184888 0.092468 0.131866
-0.182867 0.092468 0.131639
-0.180847 0.092468 0.131411
-0.178420 0.093038 0.132978
-0.176402 0.093038 0.132751
-0.173982 0.093608 0.134314
-0.171567 0.094176 0.135874
-0.169553 0.094176 0.135647
-0.167145 0.094743 0.137204
-0.165134 0.094743 0.136978
-0.163122 0.094743 0.136752
-0.160723 0.095308 0.138306
-0.158714 0.095308 0.138080
-0.156704 0.095308 0.137854
-0.154695 0.095308 0.137628
-0.152685 0.095308 0.137402
-0.150300 0.095873 0.138953
-0.148293 0.095873 0.138727
-0.146656 0.095308 0.136723
-0.144278 0.095873 0.138276
-0.142270 0.095873 0.138050
-0.140263 0.095873 0.137824
-0.138255 0.095873 0.137598
-0.136248 0.095873 0.137373
-0.134240 0.095873 0.137147
-0.132233 0.095873 0.136921
-0.130225 0.095873 0.136695
-0.128218 0.095873 0.136469
-0.126210 0.095873 0.136244
-0.123856 0.096436 0.137795
-0.121850 0.096436 0.137569
-0.119845 0.096436 0.137344
-0.117840 0.096436 0.137118
-0.115834 0.096436 0.136893
-0.113829 0.096436 0.136667
-0.111824 0.096436 0.136442
-0.109818 0.096436 0.136216
-0.107813 0.096436 0.135991
-0.105807 0.096436 0.135765
-0.103802 0.096436 0.135539
-0.101797 0.096436 0.135314
-0.099791 0.096436 0.135088
-0.097786 0.096436 0.134863
-0.095780 0.096436 0.134637
-0.093775 0.096436 0.134412
-0.091770 0.096436 0.134186
-0.089764 0.096436 0.133961
-0.087759 0.096436 0.133735
-0.085753 0.096436 0.133510
-0.083748 0.096436 0.133284
-0.081743 0.096436 0.133058
-0.079737 0.096436 0.132833
-0.077732 0.096436 0.132607
-0.075726 0.096436 0.132382
-0.073721 0.096436 0.132156
-0.071716 0.096436 0.131931
-0.069710 0.096436 0.131705
-0.067705 0.096436 0.131480
-0.065700 0.096436 0.131254
-0.063694 0.096436 0.131028
-0.061689 0.096436 0.130803
-0.059683 0.096436 0.130577
-0.057678 0.096436 0.130352
-0.055673 0.096436 0.130126
-0.053667 0.096436 0.129901
-0.051662 0.096436 0.129675
-0.049389 0.096998 0.131232
-0.047385 0.096998 0.131006
-0.045382 0.096998 0.130781
-0.043379 0.096998 0.130556
-0.041375 0.096998 0.130330
-0.039372 0.096998 0.130105
-0.037369 0.096998 0.129880
-0.035366 0.096998 0.129654
-0.033362 0.096998 0.129429
-0.031359 0.096998 0.129204
-0.029356 0.096998 0.128979
-0.027353 0.096998 0.128753
-0.025349 0.096998 0.128528
-0.023346 0.096998 0.128303
-0.021343 0.096998 0.128077
-0.019339 0.096998 0.127852
-0.017336 0.096998 0.127627
-0.015333 0.096998 0.127401
-0.013330 0.096998 0.127176
-0.011326 0.096998 0.126951
-0.009323 0.096998 0.126725
-0.007320 0.096998 0.126500
-0.005316 0.096998 0.126275
-0.003313 0.096998 0.126049
-0.001310 0.096998 0.125824
0.000693 0.096998 0.125599
0.002697 0.096998 0.125373
0.004700 0.096998 0.125148
0.006703 0.096998 0.124923
0.008706 0.096998 0.124698
0.010710 0.096998 0.124472
0.012713 0.096998 0.124247
0.014716 0.096998 0.124022
0.016720 0.096998 0.123796
0.018723 0.096998 0.123571
0.020726 0.096998 0.123346
0.022729 0.096998 0.123120
0.024733 0.096998 0.122895
0.026736 0.096998 0.122670
0.028739 0.096998 0.122444
0.030743 0.096998 0.122219
0.032746 0.096998 0.121994
0.034749 0.096998 0.121768
0.036752 0.096998 0.121543
0.038756 0.096998 0.121318
0.040759 0.096998 0.121093
0.042762 0.096998 0.120867
0.044765 0.096998 0.120642
0.046769 0.096998 0.120417
0.048772 0.096998 0.120191
0.050775 0.096998 0.119966
0.052779 0.096998 0.119741
0.054782 0.096998 0.119515
0.056785 0.096998 0.119290
0.058788 0.096998 0.119065
0.060792 0.096998 0.118839
0.062795 0.096998 0.118614
0.064945 0.097559 0.120181
0.066802 0.096998 0.118163
0.068805 0.096998 0.117938
0.070808 0.096998 0.117713
0.072811 0.096998 0.117487
0.074815 0.096998 0.117262
0.076818 0.096998 0.117037
0.078821 0.096998 0.116812
0.080824 0.096998 0.116586
0.082828 0.096998 0.116361
0.084831 0.096998 0.116136
0.086834 0.096998 0.115910
0.088838 0.096998 0.115685
0.090841 0.096998 0.115460
0.092844 0.096998 0.115234
0.094847 0.096998 0.115009
0.096851 0.096998 0.114784
0.098743 0.096436 0.112759
0.100748 0.096436 0.112533
0.102753 0.096436 0.112308
0.104759 0.096436 0.112082
0.106764 0.096436 0.111856
0.108769 0.096436 0.111631
0.110874 0.096998 0.113206
0.112877 0.096998 0.112981
0.114880 0.096998 0.112756
0.116883 0.096998 0.112531
0.118887 0.096998 0.112305
0.120890 0.096998 0.112080
0.122893 0.096998 0.111855
0.124897 0.096998 0.111629
0.126982 0.097559 0.113203
0.128983 0.097559 0.112978
0.131061 0.098119 0.114549
0.133135 0.098678 0.116116
0.135132 0.098678 0.115892
0.137200 0.099235 0.117456
0.139263 0.099791 0.119018
0.141256 0.099791 0.118793
0.143313 0.100346 0.120352
0.145366 0.100900 0.121906
0.147414 0.101453 0.123458
0.149401 0.101453 0.123235
0.151443 0.102005 0.124783
0.153480 0.102555 0.126329
0.155463 0.102555 0.126106
0.157494 0.103104 0.127648
0.159475 0.103104 0.127425
0.161500 0.103653 0.128965
0.163478 0.103653 0.128743
0.165497 0.104200 0.130279
0.167512 0.104746 0.131812
0.169486 0.104746 0.131590
0.171494 0.105290 0.133121
0.173498 0.105834 0.134648
0.175468 0.105834 0.134426
0.177467 0.106376 0.135950
0.179435 0.106376 0.135729
0.181427 0.106918 0.137250
0.183436 0.107997 0.140504
0.185690 0.115953 0.165899
0.187775 0.120611 0.180682
0.189793 0.124176 0.191948
0.191758 0.126692 0.199838
0.193704 0.129184 0.207650
0.195621 0.131159 0.213802
0.197524 0.133118 0.219906
0.199406 0.134578 0.224400
0.201275 0.135546 0.227312
0.203137 0.136992 0.231762
0.204989 0.137951 0.234646
0.206832 0.139382 0.239053
0.208664 0.140806 0.243435
0.210491 0.141750 0.246274
0.212303 0.143159 0.250614
0.214115 0.144094 0.253425
0.215908 0.145490 0.257724
0.217704 0.146417 0.260508
0.219479 0.147799 0.264766
0.221259 0.148717 0.267523
0.223015 0.150086 0.271741
0.224761 0.151448 0.275935
0.226518 0.152352 0.278650
0.228246 0.153701 0.282805
0.229988 0.154596 0.285495
0.231699 0.155932 0.289611
0.233426 0.156819 0.292275
0.235147 0.157702 0.294929
0.236892 0.158143 0.296153
0.238634 0.158583 0.297375
0.240372 0.159021 0.298594
0.242107 0.159459 0.299811
0.243839 0.159897 0.301026
0.245568 0.160333 0.302238
0.247333 0.160333 0.302040
0.249057 0.160769 0.303250
0.250820 0.160769 0.303052
0.252584 0.160769 0.302853
0.254301 0.161203 0.304062
0.256063 0.161203 0.303864
0.257825 0.161203 0.303665
0.259587 0.161203 0.303467
0.261349 0.161203 0.303269
0.263220 0.160333 0.300253
0.264985 0.160333 0.300054
0.266808 0.159897 0.298442
0.268575 0.159897 0.298244
0.270342 0.159897 0.298045
0.272171 0.159459 0.296430
0.273940 0.159459 0.296231
0.275774 0.159021 0.294612
0.277545 0.159021 0.294413
0.279384 0.158583 0.292791
0.281228 0.158143 0.291167
0.282928 0.158583 0.292393
0.284700 0.158583 0.292194
0.286471 0.158583 0.291994
0.288243 0.158583 0.291795
0.290015 0.158583 0.291596
0.291706 0.159021 0.292820
0.293476 0.159021 0.292621
0.295246 0.159021 0.292422
0.297016 0.159021 0.292223
0.298698 0.159459 0.293446
0.300467 0.159459 0.293247
0.302235 0.159459 0.293048
0.303911 0.159897 0.294269
0.305678 0.159897 0.294071
0.307445 0.159897 0.293872
0.309212 0.159897 0.293673
0.310880 0.160333 0.294892
0.312645 0.160333 0.294694
0.314410 0.160333 0.294495
0.316175 0.160333 0.294297
0.317835 0.160769 0.295514
0.319599 0.160769 0.295316
0.321362 0.160769 0.295118
0.323126 0.160769 0.294919
0.324890 0.160769 0.294721
0.326653 0.160769 0.294523
0.328302 0.161203 0.295739
0.330064 0.161203 0.295541
0.331826 0.161203 0.295342
0.333588 0.161203 0.295144
0.335350 0.161203 0.294946
0.336989 0.161637 0.296161
0.338749 0.161637 0.295963
0.340509 0.161637 0.295765
0.342270 0.161637 0.295567
0.344030 0.161637 0.295369
0.345659 0.162071 0.296582
0.347418 0.162071 0.296384
0.349177 0.162071 0.296186
0.350935 0.162071 0.295989
0.352694 0.162071 0.295791
0.354453 0.162071 0.295593
0.356211 0.162071 0.295395
0.357970 0.162071 0.295197
0.359729 0.162071 0.295000
0.361487 0.162071 0.294802
0.363246 0.162071 0.294604
0.365005 0.162071 0.294406
0.366763 0.162071 0.294208
0.368522 0.162071 0.294011
0.370434 0.161637 0.292399
0.372194 0.161637 0.292201
0.373955 0.161637 0.292003
0.375557 0.162071 0.293219
0.377315 0.162071 0.293022
0.379236 0.161637 0.291409
0.380996 0.161637 0.291211
0.382756 0.161637 0.291013
0.384516 0.161637 0.290815
0.386277 0.161637 0.290617
0.388037 0.161637 0.290419
0.389797 0.161637 0.290221
0.391558 0.161637 0.290023
0.393318 0.161637 0.289825
0.395078 0.161637 0.289627
0.396838 0.161637 0.289429
0.398779 0.161203 0.287812
0.400541 0.161203 0.287614
0.402303 0.161203 0.287416
0.404064 0.161203 0.287217
0.405826 0.161203 0.287019
0.407777 0.160769 0.285398
0.409540 0.160769 0.285200
0.411304 0.160769 0.285002
0.413067 0.160769 0.284803
0.414831 0.160769 0.284605
0.416791 0.160333 0.282980
0.418556 0.160333 0.282782
0.420322 0.160333 0.282583
0.422289 0.159897 0.280955
0.424056 0.159897 0.280756
0.426029 0.159459 0.279125
0.427797 0.159459 0.278926
0.429566 0.159459 0.278727
0.431545 0.159021 0.277092
0.433315 0.159021 0.276893
0.435300 0.158583 0.275255
0.437072 0.158583 0.275056
0.438844 0.158583 0.274857
0.440836 0.158143 0.273215
0.442609 0.158143 0.273016
0.444383 0.158143 0.272816
0.446382 0.157702 0.271171
0.448157 0.157702 0.270972
0.450161 0.157261 0.269323
0.451938 0.157261 0.269124
0.453948 0.156819 0.267472
0.455961 0.156376 0.265818
0.457741 0.156376 0.265618
0.459761 0.155932 0.263960
0.461783 0.155488 0.262299
0.463567 0.155488 0.262098
0.465595 0.155042 0.260434
0.467875 0.154149 0.257297
0.470163 0.153252 0.254149
0.472207 0.152802 0.252469
0.474510 0.151900 0.249303
0.477080 0.150541 0.244632
-0.370315 0.032099 -0.034290
-0.364058 0.036294 -0.021523
-0.359854 0.038370 -0.015331
-0.355679 0.040431 -0.009182
-0.350891 0.043157 -0.000968
-0.346146 0.045858 0.007171
-0.342072 0.047867 0.013165
-0.338646 0.049199 0.017057
-0.334620 0.051185 0.022983
-0.330622 0.053158 0.028868
-0.327253 0.054466 0.032689
-0.323899 0.055768 0.036492
-0.319968 0.057710 0.042285
-0.316650 0.058997 0.046046
-0.313346 0.060278 0.049789
-0.310635 0.060917 0.051535
-0.307356 0.062190 0.055253
-0.304659 0.062824 0.056987
-0.300841 0.064719 0.062641
-0.298165 0.065347 0.064359
-0.295494 0.065975 0.066072
-0.292277 0.067225 0.069726
-0.289622 0.067848 0.071428
-0.286429 0.069090 0.075058
-0.283789 0.069709 0.076748
-0.280619 0.070943 0.080354
-0.277994 0.071558 0.082033
-0.274848 0.072784 0.085616
-0.272238 0.073395 0.087284
-0.269634 0.074004 0.088948
-0.267035 0.074612 0.090609
-0.264442 0.075219 0.092266
-0.261346 0.076429 0.095802
-0.259272 0.076429 0.095569
-0.256194 0.077634 0.099091
-0.253627 0.078234 0.100730
-0.251561 0.078234 0.100497
-0.249001 0.078833 0.102133
-0.246448 0.079431 0.103765
-0.243899 0.080027 0.105393
-0.241356 0.080622 0.107018
-0.238819 0.081216 0.108640
-0.236764 0.081216 0.108408
-0.234234 0.081808 0.110027
-0.231710 0.082400 0.111641
-0.229191 0.082990 0.113252
-0.226678 0.083578 0.114860
-0.224632 0.083578 0.114630
-0.222126 0.084166 0.116235
-0.219626 0.084752 0.117836
-0.217584 0.084752 0.117606
-0.215542 0.084752 0.117376
-0.213051 0.085337 0.118974
-0.210566 0.085921 0.120569
-0.208528 0.085921 0.120340
-0.206051 0.086503 0.121932
-0.203578 0.087084 0.123520
-0.201545 0.087084 0.123291
-0.199080 0.087664 0.124876
-0.196620 0.088243 0.126458
-0.194592 0.088243 0.126229
-0.192139 0.088820 0.127808
-0.189692 0.089396 0.129383
-0.187250 0.089971 0.130955
-0.185228 0.089971 0.130727
-0.182793 0.090545 0.132296
-0.180773 0.090545 0.132069
-0.178753 0.090545 0.131841
-0.176328 0.091118 0.133407
-0.173908 0.091689 0.134970
-0.171892 0.091689 0.134743
-0.169479 0.092259 0.136302
-0.167465 0.092259 0.136076
-0.165060 0.092828 0.137632
-0.163048 0.092828 0.137406
-0.161036 0.092828 0.137180
-0.158640 0.093396 0.138733
-0.156631 0.093396 0.138507
-0.154621 0.093396 0.138281
-0.152611 0.093396 0.138055
-0.150602 0.093396 0.137829
-0.148592 0.093396 0.137603
-0.146583 0.093396 0.137377
-0.144573 0.093396 0.137151
-0.142563 0.093396 0.136925
-0.140554 0.093396 0.136699
-0.138182 0.093963 0.138251
-0.136174 0.093963 0.138026
-0.134167 0.093963 0.137800
-0.132159 0.093963 0.137574
-0.130152 0.093963 0.137348
-0.128144 0.093963 0.137122
-0.126137 0.093963 0.136897
-0.124129 0.093963 0.136671
-0.122122 0.093963 0.136445
-0.120114 0.093963 0.136219
-0.118107 0.093963 0.135994
-0.115761 0.094528 0.137545
-0.113756 0.094528 0.137320
-0.111750 0.094528 0.137094
-0.109745 0.094528 0.136868
-0.107739 0.094528 0.136643
-0.105734 0.094528 0.136417
-0.103729 0.094528 0.136192
-0.101723 0.094528 0.135966
-0.099718 0.094528 0.135741
-0.097712 0.094528 0.135515
-0.095707 0.094528 0.135290
-0.093702 0.094528 0.135064
-0.091696 0.094528 0.134838
-0.089691 0.094528 0.134613
-0.087685 0.094528 0.134387
-0.085680 0.094528 0.134162
-0.083675 0.094528 0.133936
-0.081972 0.093963 0.131929
-0.079964 0.093963 0.131704
-0.077957 0.093963 0.131478
-0.075949 0.093963 0.131252
-0.073941 0.093963 0.131026
-0.071934 0.093963 0.130800
-0.069926 0.093963 0.130575
-0.067919 0.093963 0.130349
-0.065626 0.094528 0.131906
-0.063621 0.094528 0.131681
-0.061615 0.094528 0.131455
-0.059610 0.094528 0.131230
-0.057605 0.094528 0.131004
-0.055599 0.094528 0.130779
-0.053594 0.094528 0.130553
-0.051588 0.094528 0.130327
-0.049583 0.094528 0.130102
-0.047578 0.094528 0.129876
-0.045572 0.094528 0.129651
-0.043567 0.094528 0.129425
-0.041561 0.094528 0.129200
-0.039556 0.094528 0.128974
-0.037551 0.094528 0.128749
-0.035545 0.094528 0.128523
-0.033289 0.095092 0.130081
-0.031286 0.095092 0.129855
-0.029283 0.095092 0.129630
-0.027279 0.095092 0.129405
-0.025276 0.095092 0.129180
-0.023273 0.095092 0.128954
-0.021269 0.095092 0.128729
-0.019266 0.095092 0.128504
-0.017497 0.094528 0.126493
-0.015491 0.094528 0.126268
-0.013486 0.094528 0.126042
-0.011481 0.094528 0.125816
-0.009475 0.094528 0.125591
-0.007470 0.094528 0.125365
-0.005464 0.094528 0.125140
-0.003459 0.094528 0.124914
-0.001237 0.095092 0.126476
0.000767 0.095092 0.126250
0.002770 0.095092 0.126025
0.004773 0.095092 0.125800
0.006776 0.095092 0.125574
0.008780 0.095092 0.125349
0.010783 0.095092 0.125124
0.012786 0.095092 0.124899
0.014790 0.095092 0.124673
0.016793 0.095092 0.124448
0.018796 0.095092 0.124223
0.020799 0.095092 0.123997
0.022803 0.095092 0.123772
0.024806 0.095092 0.123547
0.026809 0.095092 0.123321
0.028813 0.095092 0.123096
0.030816 0.095092 0.122871
0.032819 0.095092 0.122645
0.034822 0.095092 0.122420
0.036826 0.095092 0.122195
0.038829 0.095092 0.121969
0.040832 0.095092 0.121744
0.042835 0.095092 0.121519
0.044839 0.095092 0.121294
0.046842 0.095092 0.121068
0.048845 0.095092 0.120843
0.050849 0.095092 0.120618
0.052852 0.095092 0.120392
0.054855 0.095092 0.120167
0.056858 0.095092 0.119942
0.058862 0.095092 0.119716
0.060865 0.095092 0.119491
0.062868 0.095092 0.119266
0.064872 0.095092 0.119040
0.066875 0.095092 0.118815
0.068878 0.095092 0.118590
0.070881 0.095092 0.118364
0.072885 0.095092 0.118139
0.074888 0.095092 0.117914
0.076891 0.095092 0.117688
0.078894 0.095092 0.117463
0.080898 0.095092 0.117238
0.082901 0.095092 0.117013
0.084778 0.094528 0.114990
0.086784 0.094528 0.114764
0.088789 0.094528 0.114539
0.090794 0.094528 0.114313
0.092800 0.094528 0.114088
0.094805 0.094528 0.113862
0.096810 0.094528 0.113637
0.098816 0.094528 0.113411
0.100821 0.094528 0.113185
0.102827 0.094528 0.112960
0.104832 0.094528 0.112734
0.106837 0.094528 0.112509
0.108843 0.094528 0.112283
0.110947 0.095092 0.113858
0.112950 0.095092 0.113633
0.114953 0.095092 0.113407
0.116864 0.094528 0.111381
0.118870 0.094528 0.111156
0.120875 0.094528 0.110930
0.122881 0.094528 0.110704
0.124886 0.094528 0.110479
0.126973 0.095092 0.112056
0.129056 0.095655 0.113629
0.131134 0.096217 0.115199
0.133133 0.096217 0.114974
0.135205 0.096777 0.116541
0.137273 0.097337 0.118105
0.139268 0.097337 0.117881
0.141329 0.097895 0.119442
0.143386 0.098452 0.120999
0.145439 0.099008 0.122553
0.147427 0.099008 0.122330
0.149473 0.099563 0.123881
0.151460 0.099563 0.123657
0.153500 0.100116 0.125206
0.155535 0.100669 0.126751
0.157518 0.100669 0.126528
0.159547 0.101220 0.128070
0.161527 0.101220 0.127847
0.163550 0.101770 0.129386
0.165569 0.102319 0.130922
0.167545 0.102319 0.130700
0.169558 0.102867 0.132232
0.171566 0.103414 0.133762
0.173538 0.103414 0.133540
0.175541 0.103959 0.135067
0.177511 0.103959 0.134845
0.179507 0.104504 0.136369
0.181498 0.105047 0.137890
0.183573 0.107747 0.146326
0.185798 0.115161 0.169883
0.187879 0.119817 0.184600
0.189892 0.123380 0.195816
0.191865 0.126395 0.205275
0.193794 0.128385 0.211449
0.195707 0.130360 0.217574
0.197599 0.131831 0.222084
0.199480 0.133293 0.226567
0.201346 0.134263 0.229472
0.203206 0.135710 0.233912
0.205056 0.137150 0.238326
0.206897 0.138105 0.241185
0.208727 0.139530 0.245557
0.210552 0.140476 0.248388
0.212363 0.141888 0.252718
0.214163 0.143292 0.257023
0.215964 0.144223 0.259811
0.217745 0.145613 0.264075
0.219531 0.146536 0.266836
0.221293 0.147913 0.271060
0.223063 0.148826 0.273795
0.224808 0.150190 0.277979
0.226563 0.151096 0.280688
0.228289 0.152447 0.284833
0.230030 0.153344 0.287517
0.231738 0.154682 0.291623
0.233437 0.156013 0.295706
0.235212 0.156013 0.295507
0.236927 0.156897 0.298150
0.238667 0.157337 0.299369
0.240403 0.157777 0.300585
0.242137 0.158215 0.301799
0.243904 0.158215 0.301600
0.245632 0.158653 0.302812
0.247358 0.159091 0.304022
0.249121 0.159091 0.303824
0.250842 0.159527 0.305031
0.252604 0.159527 0.304833
0.254366 0.159527 0.304635
0.256128 0.159527 0.304437
0.257890 0.159527 0.304239
0.259652 0.159527 0.304040
0.261466 0.159091 0.302435
0.263284 0.158653 0.300827
0.265049 0.158653 0.300628
0.266873 0.158215 0.299017
0.268639 0.158215 0.298818
0.270467 0.157777 0.297204
0.272236 0.157777 0.297005
0.274069 0.157337 0.295387
0.275839 0.157337 0.295188
0.277677 0.156897 0.293567
0.279449 0.156897 0.293368
0.281293 0.156455 0.291744
0.283066 0.156455 0.291544
0.284839 0.156455 0.291345
0.286613 0.156455 0.291145
0.288386 0.156455 0.290946
0.290080 0.156897 0.292172
0.291770 0.157337 0.293396
0.293540 0.157337 0.293197
0.295311 0.157337 0.292998
0.297081 0.157337 0.292799
0.298763 0.157777 0.294021
0.300532 0.157777 0.293822
0.302300 0.157777 0.293623
0.304069 0.157777 0.293425
0.305743 0.158215 0.294645
0.307510 0.158215 0.294446
0.309276 0.158215 0.294248
0.311043 0.158215 0.294049
0.312710 0.158653 0.295268
0.314475 0.158653 0.295069
0.316240 0.158653 0.294871
0.318005 0.158653 0.294672
0.319663 0.159091 0.295890
0.321427 0.159091 0.295691
0.323191 0.159091 0.295493
0.324954 0.159091 0.295295
0.326718 0.159091 0.295096
0.328481 0.159091 0.294898
0.330128 0.159527 0.296114
0.331890 0.159527 0.295916
0.333652 0.159527 0.295717
0.335414 0.159527 0.295519
0.337176 0.159527 0.295321
0.338813 0.159962 0.296535
0.340574 0.159962 0.296337
0.342334 0.159962 0.296139
0.344094 0.159962 0.295941
0.345855 0.159962 0.295743
0.347615 0.159962 0.295545
0.349241 0.160397 0.296759
0.351000 0.160397 0.296561
0.352758 0.160397 0.296363
0.354517 0.160397 0.296165
0.356276 0.160397 0.295967
0.358034 0.160397 0.295770
0.359793 0.160397 0.295572
0.361552 0.160397 0.295374
0.363310 0.160397 0.295176
0.365218 0.159962 0.293566
0.366978 0.159962 0.293368
0.368738 0.159962 0.293170
0.370499 0.159962 0.292972
0.372259 0.159962 0.292774
0.374019 0.159962 0.292576
0.375779 0.159962 0.292378
0.377540 0.159962 0.292180
0.379300 0.159962 0.291982
0.381060 0.159962 0.291784
0.382821 0.159962 0.291586
0.384581 0.159962 0.291388
0.386341 0.159962 0.291190
0.388101 0.159962 0.290992
0.389862 0.159962 0.290794
0.391622 0.159962 0.290596
0.393557 0.159527 0.288980
0.395319 0.159527 0.288781
0.397081 0.159527 0.288583
0.398843 0.159527 0.288385
0.400605 0.159527 0.288187
0.402367 0.159527 0.287989
0.404129 0.159527 0.287791
0.406078 0.159091 0.286170
0.407841 0.159091 0.285972
0.409605 0.159091 0.285774
0.411368 0.159091 0.285575
0.413132 0.159091 0.285377
0.415091 0.158653 0.283753
0.416856 0.158653 0.283554
0.418621 0.158653 0.283356
0.420587 0.158215 0.281728
0.422354 0.158215 0.281530
0.424121 0.158215 0.281331
0.426093 0.157777 0.279700
0.427862 0.157777 0.279501
0.429630 0.157777 0.279302
0.431610 0.157337 0.277668
0.433593 0.156897 0.276031
0.435365 0.156897 0.275831
0.437137 0.156897 0.275632
0.439127 0.156455 0.273991
0.440901 0.156455 0.273792
0.442674 0.156455 0.273592
0.444672 0.156013 0.271948
0.446447 0.156013 0.271749
0.448222 0.156013 0.271549
0.450226 0.155570 0.269901
0.452003 0.155570 0.269702
0.454013 0.155127 0.268051
0.456027 0.154682 0.266397
0.458044 0.154237 0.264740
0.459826 0.154237 0.264539
0.461849 0.153791 0.262879
0.463875 0.153344 0.261215
0.465906 0.152896 0.259549
0.467940 0.152447 0.257879
0.470228 0.151547 0.254732
0.472525 0.150643 0.251572
0.474576 0.150190 0.249887
0.477146 0.148826 0.245218
-0.371590 0.028552 -0.037940
-0.365978 0.032081 -0.027284
-0.360431 0.035569 -0.016752
-0.356250 0.037642 -0.010591
-0.351453 0.040384 -0.002360
-0.347337 0.042424 0.003701
-0.342620 0.045122 0.011800
-0.338566 0.047129 0.017764
-0.335156 0.048459 0.021636
-0.331151 0.050444 0.027533
-0.327777 0.051759 0.031361
-0.323820 0.053721 0.037192
-0.320482 0.055022 0.040976
-0.316572 0.056962 0.046741
-0.313850 0.057606 0.048494
-0.310557 0.058889 0.052228
-0.307851 0.059528 0.053969
-0.304582 0.060803 0.057678
-0.301327 0.062072 0.061370
-0.298647 0.062704 0.063091
-0.295416 0.063965 0.066760
-0.292751 0.064593 0.068469
-0.289545 0.065845 0.072113
-0.286895 0.066469 0.073811
-0.283712 0.067712 0.077431
-0.281078 0.068332 0.079117
-0.277918 0.069568 0.082714
-0.275299 0.070184 0.084389
-0.272685 0.070798 0.086060
-0.270077 0.071411 0.087727
-0.267475 0.072023 0.089391
-0.264879 0.072633 0.091051
-0.262288 0.073242 0.092708
-0.259197 0.074456 0.096243
-0.256621 0.075061 0.097889
-0.254050 0.075665 0.099531
-0.251485 0.076268 0.101169
-0.248926 0.076869 0.102804
-0.246372 0.077468 0.104435
-0.243824 0.078067 0.106063
-0.241764 0.078067 0.105831
-0.239224 0.078664 0.107456
-0.236689 0.079260 0.109077
