ply
format ascii 1.0
element vertex 1612
property float x
property float y
property float z
end_header
-0.205743 -0.096952 0.018266
-0.205743 -0.097319 0.016290
-0.206147 -0.099488 0.014652
-0.206147 -0.099854 0.012678
-0.206147 -0.100220 0.010704
-0.206549 -0.102384 0.009073
-0.206549 -0.102749 0.007101
-0.206549 -0.103115 0.005130
-0.206951 -0.105274 0.003506
-0.206951 -0.105639 0.001537
-0.207352 -0.107792 -0.000081
-0.207352 -0.108157 -0.002049
-0.207352 -0.108522 -0.004016
-0.207752 -0.110671 -0.005627
-0.207752 -0.111035 -0.007592
-0.207752 -0.111399 -0.009558
-0.208151 -0.113543 -0.011161
-0.208151 -0.113907 -0.013124
-0.208151 -0.114271 -0.015088
-0.208151 -0.114635 -0.017051
-0.208549 -0.116772 -0.018645
-0.208549 -0.117136 -0.020606
-0.208549 -0.117500 -0.022568
-0.208947 -0.119632 -0.024154
-0.208947 -0.119995 -0.026113
-0.208947 -0.120359 -0.028072
-0.209343 -0.122486 -0.029651
-0.209343 -0.122849 -0.031608
-0.209343 -0.123212 -0.033566
-0.209739 -0.125334 -0.035137
-0.209739 -0.125696 -0.037092
-0.209739 -0.126059 -0.039048
-0.210134 -0.128176 -0.040612
-0.210134 -0.128538 -0.042565
-0.210134 -0.128900 -0.044518
-0.210134 -0.129262 -0.046472
-0.210528 -0.131373 -0.048026
-0.210528 -0.131735 -0.049977
-0.210528 -0.132097 -0.051929
-0.210922 -0.134203 -0.053476
-0.210922 -0.134565 -0.055425
-0.210922 -0.134926 -0.057375
-0.211314 -0.137027 -0.058915
-0.211314 -0.137388 -0.060862
-0.211314 -0.137749 -0.062809
-0.211706 -0.139845 -0.064342
-0.211706 -0.140206 -0.066287
-0.211706 -0.140566 -0.068232
-0.212097 -0.142657 -0.069758
-0.212487 -0.144744 -0.071281
-0.212097 -0.143378 -0.073645
-0.212097 -0.143738 -0.075588
-0.212487 -0.145824 -0.077104
-0.212487 -0.146184 -0.079046
-0.212487 -0.146544 -0.080987
-0.212877 -0.148624 -0.082496
-0.213265 -0.150700 -0.084003
-0.213265 -0.151059 -0.085940
-0.213265 -0.151419 -0.087877
-0.213653 -0.153490 -0.089376
-0.213653 -0.153849 -0.091311
-0.213653 -0.154207 -0.093247
-0.213653 -0.154566 -0.095182
-0.214040 -0.156632 -0.096672
-0.214040 -0.156990 -0.098605
-0.213653 -0.155643 -0.100988
-0.214040 -0.157707 -0.102472
-0.214040 -0.158066 -0.104405
-0.214426 -0.160126 -0.105884
-0.214426 -0.160484 -0.107815
-0.214426 -0.160842 -0.109747
-0.214426 -0.161200 -0.111678
-0.214811 -0.163255 -0.113148
-0.214811 -0.163612 -0.115077
-0.214811 -0.163970 -0.117007
-0.214811 -0.164328 -0.118936
-0.214811 -0.164686 -0.120865
-0.214811 -0.165043 -0.122794
-0.215196 -0.167092 -0.124252
-0.215196 -0.167449 -0.126179
-0.215196 -0.167807 -0.128106
-0.215196 -0.168164 -0.130034
-0.215196 -0.168521 -0.131961
-0.215580 -0.170564 -0.133407
-0.215580 -0.170921 -0.135333
-0.215580 -0.171278 -0.137258
-0.215580 -0.171635 -0.139183
-0.215580 -0.171992 -0.141109
-0.215580 -0.172349 -0.143034
-0.215580 -0.172706 -0.144959
-0.215580 -0.173063 -0.146885
-0.215580 -0.173420 -0.148810
-0.215963 -0.175456 -0.150238
-0.215963 -0.175813 -0.152161
-0.215580 -0.174491 -0.154586
-0.215580 -0.174848 -0.156511
-0.215580 -0.175205 -0.158437
-0.215196 -0.173881 -0.160870
-0.215196 -0.174238 -0.162798
-0.215196 -0.174596 -0.164725
-0.215196 -0.174953 -0.166652
-0.215196 -0.175310 -0.168580
-0.215196 -0.175668 -0.170507
-0.214811 -0.174343 -0.172956
-0.215196 -0.176382 -0.174361
-0.214811 -0.175059 -0.176814
-0.214811 -0.175416 -0.178743
-0.214811 -0.175774 -0.180673
-0.214811 -0.176132 -0.182602
-0.214811 -0.176489 -0.184531
-0.214811 -0.176847 -0.186460
-0.214811 -0.177205 -0.188390
-0.214811 -0.177562 -0.190319
-0.214426 -0.176238 -0.192791
-0.214426 -0.176596 -0.194722
-0.214426 -0.176955 -0.196653
-0.214426 -0.177313 -0.198584
-0.214426 -0.177671 -0.200516
-0.214426 -0.178029 -0.202447
-0.214426 -0.178387 -0.204378
-0.214426 -0.178745 -0.206309
-0.214040 -0.177421 -0.208800
-0.214040 -0.177779 -0.210733
-0.214040 -0.178137 -0.212666
-0.214040 -0.178496 -0.214600
-0.214040 -0.178854 -0.216533
-0.214040 -0.179213 -0.218466
-0.214040 -0.179571 -0.220399
-0.214040 -0.179930 -0.222333
-0.214040 -0.180288 -0.224266
-0.214040 -0.180646 -0.226199
-0.213653 -0.179323 -0.228713
-0.213265 -0.177997 -0.231231
-0.213265 -0.178356 -0.233169
-0.213653 -0.180399 -0.234518
-0.213653 -0.180758 -0.236453
-0.213653 -0.181117 -0.238389
-0.213653 -0.181476 -0.240324
-0.213653 -0.181835 -0.242259
-0.213653 -0.182193 -0.244194
-0.213653 -0.182552 -0.246130
-0.213653 -0.182911 -0.248065
-0.213265 -0.181588 -0.250604
-0.213265 -0.181947 -0.252541
-0.213265 -0.182307 -0.254478
-0.213265 -0.182666 -0.256415
-0.213265 -0.183025 -0.258352
-0.213265 -0.183384 -0.260290
-0.213265 -0.183743 -0.262227
-0.212877 -0.182420 -0.264783
-0.212877 -0.182780 -0.266722
-0.212877 -0.183139 -0.268661
-0.212487 -0.181814 -0.271226
-0.212487 -0.182174 -0.273168
-0.212487 -0.182534 -0.275109
-0.212097 -0.181207 -0.277683
-0.212097 -0.181567 -0.279626
-0.212097 -0.181928 -0.281570
-0.211706 -0.180598 -0.284153
-0.211706 -0.180959 -0.286099
-0.211706 -0.181320 -0.288044
-0.211706 -0.181680 -0.289989
-0.211314 -0.180350 -0.292584
-0.211314 -0.180711 -0.294532
-0.211314 -0.181072 -0.296479
-0.211314 -0.181433 -0.298426
-0.210922 -0.180100 -0.301033
-0.210922 -0.180462 -0.302982
-0.210528 -0.179127 -0.305596
-0.210528 -0.179489 -0.307547
-0.210528 -0.179851 -0.309499
-0.210134 -0.178514 -0.312122
-0.210134 -0.178876 -0.314076
-0.210134 -0.179238 -0.316029
-0.209739 -0.177900 -0.318662
-0.209739 -0.178262 -0.320617
-0.209343 -0.176921 -0.323258
-0.209343 -0.177284 -0.325215
-0.209343 -0.177647 -0.327173
-0.208947 -0.176303 -0.329823
-0.208947 -0.176667 -0.331782
-0.208947 -0.177030 -0.333742
-0.208549 -0.175685 -0.336401
-0.208549 -0.176048 -0.338363
-0.208549 -0.176412 -0.340324
-0.208151 -0.175065 -0.342994
-0.208151 -0.175429 -0.344957
-0.207752 -0.174079 -0.347634
-0.207752 -0.174444 -0.349600
-0.207352 -0.173091 -0.352284
-0.207352 -0.173456 -0.354252
-0.206951 -0.172102 -0.356945
-0.206951 -0.172467 -0.358914
-0.206549 -0.171110 -0.361614
-0.206549 -0.171475 -0.363586
-0.206147 -0.170116 -0.366294
-0.205743 -0.168753 -0.369007
-0.204934 -0.165653 -0.372471
-0.204528 -0.164281 -0.375200
-0.204121 -0.162907 -0.377934
-0.204121 -0.163275 -0.379919
-0.204121 -0.163643 -0.381903
-0.203714 -0.162266 -0.384647
-0.203305 -0.160887 -0.387397
-0.202896 -0.159505 -0.390153
-0.202896 -0.159874 -0.392144
-0.202486 -0.158489 -0.394908
-0.202075 -0.157101 -0.397677
-0.201663 -0.155711 -0.400453
-0.201250 -0.154317 -0.403235
-0.200836 -0.152920 -0.406022
-0.200836 -0.153291 -0.408023
-0.200421 -0.151892 -0.410819
-0.200006 -0.150490 -0.413620
-0.199590 -0.149085 -0.416428
-0.199172 -0.147677 -0.419241
-0.199172 -0.148049 -0.421251
-0.198754 -0.146639 -0.424072
-0.198335 -0.145225 -0.426900
-0.197915 -0.143808 -0.429734
-0.197494 -0.142388 -0.432574
-0.197494 -0.142762 -0.434592
-0.197073 -0.141340 -0.437440
-0.196650 -0.139914 -0.440294
-0.196226 -0.138486 -0.443155
-0.195802 -0.137054 -0.446021
-0.195376 -0.135619 -0.448894
-0.195376 -0.135995 -0.450923
-0.194950 -0.134558 -0.453804
-0.194523 -0.133117 -0.456691
-0.194095 -0.131673 -0.459585
-0.193666 -0.130227 -0.462485
-0.193666 -0.130604 -0.464523
-0.193236 -0.129155 -0.467431
-0.193236 -0.129533 -0.469471
-0.192805 -0.128081 -0.472388
-0.192373 -0.126625 -0.475311
-0.170642 0.097375 0.134764
-0.173045 0.086018 0.133762
-0.174947 0.076945 0.132539
-0.176832 0.067956 0.131327
-0.178701 0.059047 0.130127
-0.180552 0.050219 0.128937
-0.182387 0.041469 0.127758
-0.183752 0.034862 0.126355
-0.185108 0.028298 0.124962
-0.185558 0.025861 0.123107
-0.186455 0.021391 0.121493
-0.186902 0.018970 0.119647
-0.187793 0.014530 0.118047
-0.188237 0.012124 0.116211
-0.189123 0.007714 0.114624
-0.190004 0.003323 0.113043
-0.190443 0.000943 0.111223
-0.191319 -0.003419 0.109655
-0.191755 -0.005783 0.107844
-0.192191 -0.008143 0.106038
-0.193059 -0.012466 0.104488
-0.193491 -0.014810 0.102691
-0.193923 -0.017149 0.100898
-0.194354 -0.019484 0.099109
-0.194783 -0.021813 0.097323
-0.195640 -0.026078 0.095803
-0.196067 -0.028392 0.094027
-0.196493 -0.030702 0.092255
-0.196918 -0.033006 0.090486
-0.197342 -0.035306 0.088722
-0.197766 -0.037600 0.086961
-0.198609 -0.041799 0.085474
-0.199030 -0.044080 0.083723
-0.199450 -0.046355 0.081975
-0.199868 -0.048625 0.080231
-0.200286 -0.050891 0.078491
-0.200703 -0.053151 0.076755
-0.201119 -0.055407 0.075022
-0.201534 -0.057658 0.073293
-0.201949 -0.059904 0.071567
-0.201949 -0.060276 0.069562
-0.202362 -0.062517 0.067842
-0.202362 -0.062889 0.065839
-0.202775 -0.065125 0.064125
-0.203186 -0.067356 0.062415
-0.203186 -0.067726 0.060416
-0.203597 -0.069952 0.058712
-0.204007 -0.072174 0.057011
-0.204007 -0.072543 0.055016
-0.204416 -0.074760 0.053321
-0.204824 -0.076971 0.051630
-0.204824 -0.077340 0.049639
-0.204824 -0.077709 0.047649
-0.205232 -0.079915 0.045965
-0.205232 -0.080284 0.043977
-0.205638 -0.082485 0.042299
-0.205638 -0.082853 0.040312
-0.206044 -0.085049 0.038640
-0.206044 -0.085417 0.036656
-0.206044 -0.085785 0.034672
-0.206448 -0.087975 0.033007
-0.206448 -0.088343 0.031025
-0.206448 -0.088710 0.029043
-0.206852 -0.090896 0.027386
-0.206852 -0.091263 0.025406
-0.207255 -0.093443 0.023754
-0.207255 -0.093809 0.021776
-0.207255 -0.094176 0.019798
-0.207658 -0.096351 0.018154
-0.207658 -0.096717 0.016179
-0.208059 -0.098887 0.014540
-0.208059 -0.099253 0.012566
-0.208059 -0.099619 0.010593
-0.208459 -0.101784 0.008962
-0.208459 -0.102149 0.006990
-0.208459 -0.102515 0.005018
-0.208859 -0.104674 0.003395
-0.208859 -0.105039 0.001426
-0.208859 -0.105404 -0.000544
-0.209258 -0.107558 -0.002160
-0.209258 -0.107923 -0.004127
-0.209656 -0.110072 -0.005738
-0.209656 -0.110437 -0.007703
-0.209656 -0.110801 -0.009669
-0.210053 -0.112945 -0.011271
-0.210053 -0.113309 -0.013235
-0.210053 -0.113673 -0.015198
-0.210053 -0.114037 -0.017162
-0.210450 -0.116175 -0.018755
-0.210450 -0.116539 -0.020717
-0.210450 -0.116903 -0.022678
-0.210845 -0.119036 -0.024264
-0.210845 -0.119399 -0.026223
-0.210845 -0.119762 -0.028183
-0.211240 -0.121890 -0.029761
-0.211240 -0.122253 -0.031719
-0.211240 -0.122616 -0.033676
-0.211634 -0.124739 -0.035247
-0.211634 -0.125101 -0.037203
-0.211634 -0.125464 -0.039158
-0.212027 -0.127581 -0.040722
-0.212027 -0.127943 -0.042675
-0.212027 -0.128305 -0.044628
-0.212027 -0.128668 -0.046582
-0.212419 -0.130780 -0.048136
-0.212419 -0.131141 -0.050087
-0.212419 -0.131503 -0.052039
-0.212810 -0.133610 -0.053586
-0.212810 -0.133971 -0.055535
-0.212810 -0.134333 -0.057485
-0.213201 -0.136434 -0.059025
-0.213201 -0.136795 -0.060972
-0.213201 -0.137157 -0.062919
-0.213591 -0.139253 -0.064452
-0.213591 -0.139614 -0.066397
-0.213591 -0.139975 -0.068342
-0.213980 -0.142066 -0.069868
-0.213980 -0.142426 -0.071811
-0.213980 -0.142787 -0.073754
-0.213980 -0.143147 -0.075697
-0.214368 -0.145233 -0.077214
-0.214368 -0.145593 -0.079155
-0.214755 -0.147674 -0.080666
-0.214755 -0.148034 -0.082606
-0.215142 -0.150111 -0.084112
-0.215142 -0.150470 -0.086049
-0.215142 -0.150829 -0.087986
-0.215528 -0.152901 -0.089485
-0.215528 -0.153260 -0.091421
-0.215528 -0.153618 -0.093356
-0.215528 -0.153977 -0.095291
-0.215528 -0.154336 -0.097226
-0.215913 -0.156402 -0.098714
-0.215913 -0.156760 -0.100648
-0.215913 -0.157119 -0.102581
-0.215913 -0.157477 -0.104514
-0.216297 -0.159538 -0.105993
-0.216297 -0.159896 -0.107924
-0.216297 -0.160254 -0.109856
-0.216297 -0.160612 -0.111787
-0.216297 -0.160970 -0.113718
-0.216680 -0.163025 -0.115186
-0.216680 -0.163383 -0.117115
-0.216680 -0.163741 -0.119045
-0.216680 -0.164098 -0.120974
-0.216680 -0.164456 -0.122903
-0.216680 -0.164814 -0.124833
-0.217063 -0.166863 -0.126288
-0.217063 -0.167220 -0.128215
-0.217063 -0.167577 -0.130142
-0.217063 -0.167935 -0.132070
-0.217063 -0.168292 -0.133997
-0.217445 -0.170335 -0.135441
-0.217445 -0.170692 -0.137367
-0.217445 -0.171049 -0.139292
-0.217445 -0.171406 -0.141217
-0.217445 -0.171763 -0.143143
-0.217445 -0.172120 -0.145068
-0.217445 -0.172477 -0.146993
-0.217445 -0.172834 -0.148919
-0.217445 -0.173191 -0.150844
-0.217445 -0.173548 -0.152769
-0.217445 -0.173905 -0.154695
-0.217445 -0.174262 -0.156620
-0.217445 -0.174619 -0.158545
-0.217063 -0.173294 -0.160979
-0.217063 -0.173652 -0.162906
-0.217063 -0.174009 -0.164834
-0.217063 -0.174366 -0.166761
-0.217063 -0.174724 -0.168688
-0.216680 -0.173398 -0.171135
-0.216680 -0.173756 -0.173064
-0.216680 -0.174114 -0.174994
-0.216680 -0.174471 -0.176923
-0.216680 -0.174829 -0.178852
-0.216680 -0.175187 -0.180782
-0.216680 -0.175544 -0.182711
-0.216680 -0.175902 -0.184640
-0.216680 -0.176260 -0.186569
-0.216680 -0.176618 -0.188499
-0.216680 -0.176975 -0.190428
-0.216297 -0.175651 -0.192900
-0.216297 -0.176009 -0.194831
-0.216297 -0.176367 -0.196762
-0.216297 -0.176725 -0.198693
-0.216297 -0.177083 -0.200625
-0.216297 -0.177441 -0.202556
-0.215913 -0.176115 -0.205043
-0.215913 -0.176474 -0.206976
-0.215913 -0.176832 -0.208909
-0.215913 -0.177191 -0.210842
-0.215913 -0.177549 -0.212775
-0.215913 -0.177908 -0.214709
-0.215913 -0.178266 -0.216642
-0.215913 -0.178624 -0.218575
-0.215913 -0.178983 -0.220508
-0.215913 -0.179341 -0.222442
-0.215913 -0.179700 -0.224375
-0.215913 -0.180058 -0.226308
-0.215528 -0.178734 -0.228822
-0.215142 -0.177407 -0.231341
-0.215142 -0.177766 -0.233278
-0.215528 -0.179810 -0.234627
-0.215528 -0.180169 -0.236563
-0.215528 -0.180528 -0.238498
-0.215528 -0.180887 -0.240433
-0.215528 -0.181246 -0.242368
-0.215528 -0.181604 -0.244304
-0.215528 -0.181963 -0.246239
-0.215528 -0.182322 -0.248174
-0.215142 -0.180999 -0.250713
-0.215142 -0.181358 -0.252650
-0.215142 -0.181717 -0.254587
-0.215142 -0.182076 -0.256524
-0.215142 -0.182435 -0.258462
-0.215142 -0.182795 -0.260399
-0.215142 -0.183154 -0.262336
-0.214755 -0.181830 -0.264892
-0.214755 -0.182190 -0.266831
-0.214755 -0.182549 -0.268771
-0.214368 -0.181223 -0.271336
-0.214368 -0.181583 -0.273277
-0.214368 -0.181943 -0.275218
-0.213980 -0.180616 -0.277793
-0.213980 -0.180976 -0.279736
-0.213980 -0.181336 -0.281679
-0.213591 -0.180007 -0.284263
-0.213591 -0.180367 -0.286208
-0.213591 -0.180728 -0.288154
-0.213201 -0.179396 -0.290747
-0.213201 -0.179757 -0.292694
-0.213201 -0.180118 -0.294642
-0.212810 -0.178784 -0.297244
-0.212810 -0.179146 -0.299194
-0.212810 -0.179507 -0.301143
-0.212810 -0.179869 -0.303092
-0.212419 -0.178533 -0.305706
-0.212419 -0.178895 -0.307657
-0.212419 -0.179257 -0.309609
-0.212027 -0.177920 -0.312232
-0.212027 -0.178282 -0.314186
-0.212027 -0.178644 -0.316139
-0.211634 -0.177304 -0.318772
-0.211634 -0.177667 -0.320728
-0.211240 -0.176325 -0.323368
-0.211240 -0.176688 -0.325326
-0.211240 -0.177051 -0.327283
-0.210845 -0.175707 -0.329933
-0.210845 -0.176070 -0.331893
-0.210845 -0.176434 -0.333852
-0.210450 -0.175088 -0.336512
-0.210450 -0.175452 -0.338473
-0.210450 -0.175815 -0.340435
-0.210053 -0.174467 -0.343104
-0.210053 -0.174831 -0.345068
-0.210053 -0.175195 -0.347031
-0.209656 -0.173845 -0.349711
-0.209656 -0.174210 -0.351676
-0.209258 -0.172857 -0.354363
-0.209258 -0.173222 -0.356331
-0.208859 -0.171867 -0.359025
-0.208459 -0.170510 -0.361726
-0.208459 -0.170875 -0.363697
-0.208059 -0.169515 -0.366405
-0.207255 -0.166419 -0.369860
-0.206852 -0.165050 -0.372583
-0.206448 -0.163678 -0.375312
-0.206044 -0.162303 -0.378046
-0.206044 -0.162671 -0.380031
-0.206044 -0.163039 -0.382015
-0.205638 -0.161662 -0.384759
-0.205232 -0.160282 -0.387510
-0.204824 -0.158899 -0.390266
-0.204416 -0.157513 -0.393028
-0.204416 -0.157883 -0.395020
-0.204007 -0.156494 -0.397790
-0.203597 -0.155103 -0.400566
-0.203186 -0.153709 -0.403347
-0.202775 -0.152311 -0.406135
-0.202362 -0.150911 -0.408929
-0.202362 -0.151283 -0.410932
-0.201949 -0.149880 -0.413733
-0.201534 -0.148474 -0.416541
-0.201119 -0.147065 -0.419355
-0.200703 -0.145653 -0.422174
-0.200703 -0.146026 -0.424186
-0.200286 -0.144612 -0.427014
-0.199868 -0.143194 -0.429848
-0.199450 -0.141774 -0.432688
-0.199030 -0.140350 -0.435534
-0.199030 -0.140725 -0.437554
-0.198609 -0.139299 -0.440408
-0.198188 -0.137869 -0.443269
-0.197766 -0.136437 -0.446135
-0.197342 -0.135002 -0.449008
-0.196918 -0.133563 -0.451887
-0.196918 -0.133940 -0.453919
-0.196493 -0.132498 -0.456806
-0.196493 -0.132875 -0.458840
-0.196067 -0.131431 -0.461736
-0.195640 -0.129984 -0.464638
-0.195212 -0.128534 -0.467546
-0.195212 -0.128912 -0.469586
-0.194354 -0.125624 -0.473382
-0.193059 -0.120475 -0.478081
-0.172260 0.100242 0.134410
-0.175132 0.086673 0.133640
-0.177025 0.077598 0.132418
-0.178901 0.068605 0.131207
-0.180760 0.059694 0.130007
-0.182602 0.050863 0.128817
-0.183972 0.044194 0.127405
-0.185786 0.035500 0.126237
-0.186686 0.030989 0.124609
-0.187583 0.026497 0.122989
-0.188030 0.024065 0.121137
-0.188920 0.019604 0.119530
-0.189364 0.017188 0.117689
-0.190249 0.012756 0.116094
-0.190690 0.010356 0.114263
-0.191569 0.005954 0.112681
-0.192444 0.001571 0.111106
-0.193315 -0.002792 0.109538
-0.193315 -0.003174 0.107478
-0.194182 -0.007517 0.105922
-0.195046 -0.011841 0.104372
-0.195476 -0.014186 0.102575
-0.195906 -0.016526 0.100782
-0.196334 -0.018861 0.098993
-0.196762 -0.021191 0.097208
-0.197614 -0.025458 0.095688
-0.198039 -0.027773 0.093912
-0.198463 -0.030083 0.092140
-0.198886 -0.032388 0.090372
-0.199308 -0.034688 0.088608
-0.199729 -0.036983 0.086847
-0.200150 -0.039274 0.085090
-0.200987 -0.043465 0.083609
-0.201405 -0.045741 0.081861
-0.201822 -0.048012 0.080117
-0.202237 -0.050278 0.078377
-0.202652 -0.052539 0.076641
-0.203066 -0.054796 0.074908
-0.203479 -0.057047 0.073179
-0.203479 -0.057420 0.071172
-0.203892 -0.059666 0.069449
-0.204303 -0.061908 0.067729
-0.204303 -0.062279 0.065726
-0.204713 -0.064516 0.064012
-0.205123 -0.066747 0.062302
-0.205123 -0.067118 0.060303
-0.205532 -0.069345 0.058599
-0.205940 -0.071567 0.056899
-0.205940 -0.071936 0.054904
-0.206347 -0.074153 0.053209
-0.206347 -0.074523 0.051216
-0.206753 -0.076734 0.049527
-0.206753 -0.077103 0.047537
-0.207158 -0.079310 0.045853
-0.207158 -0.079679 0.043865
-0.207562 -0.081880 0.042187
-0.207562 -0.082249 0.040200
-0.207966 -0.084445 0.038528
-0.207966 -0.084813 0.036544
-0.207966 -0.085181 0.034560
-0.208369 -0.087372 0.032895
-0.208369 -0.087740 0.030913
-0.208369 -0.088107 0.028931
-0.208771 -0.090293 0.027274
-0.208771 -0.090660 0.025294
-0.208771 -0.091027 0.023314
-0.209172 -0.093208 0.021665
-0.209172 -0.093574 0.019687
-0.209572 -0.095750 0.018043
-0.209572 -0.096116 0.016067
-0.209971 -0.098287 0.014429
-0.209971 -0.098652 0.012455
-0.209971 -0.099018 0.010481
-0.210370 -0.101184 0.008851
-0.210370 -0.101549 0.006879
-0.210370 -0.101915 0.004907
-0.210767 -0.104075 0.003284
-0.210767 -0.104440 0.001314
-0.210767 -0.104805 -0.000655
-0.211164 -0.106960 -0.002271
-0.211164 -0.107324 -0.004238
-0.211164 -0.107689 -0.006206
-0.211560 -0.109839 -0.007814
-0.211560 -0.110203 -0.009780
-0.211560 -0.110567 -0.011745
-0.211955 -0.112712 -0.013346
-0.211955 -0.113076 -0.015309
-0.211955 -0.113440 -0.017273
-0.212350 -0.115579 -0.018866
-0.212350 -0.115942 -0.020827
-0.212350 -0.116306 -0.022789
-0.212350 -0.116669 -0.024750
-0.212743 -0.118803 -0.026334
-0.212743 -0.119166 -0.028293
-0.212743 -0.119529 -0.030253
-0.213136 -0.121657 -0.031829
-0.213136 -0.122020 -0.033787
-0.213136 -0.122383 -0.035744
-0.213528 -0.124506 -0.037313
-0.213528 -0.124869 -0.039268
-0.213528 -0.125231 -0.041224
-0.213919 -0.127349 -0.042785
-0.213919 -0.127711 -0.044739
-0.213919 -0.128073 -0.046692
-0.214309 -0.130186 -0.048246
-0.214309 -0.130548 -0.050198
-0.214309 -0.130909 -0.052149
-0.214309 -0.131271 -0.054100
-0.214699 -0.133378 -0.055645
-0.214699 -0.133740 -0.057595
-0.214699 -0.134101 -0.059544
-0.215087 -0.136203 -0.061082
-0.215087 -0.136564 -0.063029
-0.215087 -0.136925 -0.064976
-0.215475 -0.139022 -0.066507
-0.215475 -0.139383 -0.068452
-0.215475 -0.139743 -0.070397
-0.215862 -0.141835 -0.071921
-0.215862 -0.142195 -0.073864
-0.215862 -0.142556 -0.075807
-0.216249 -0.144642 -0.077323
-0.216634 -0.146725 -0.078837
-0.216634 -0.147084 -0.080776
-0.216634 -0.147444 -0.082715
-0.217019 -0.149521 -0.084221
-0.217019 -0.149880 -0.086158
-0.217019 -0.150240 -0.088096
-0.217019 -0.150599 -0.090033
-0.217403 -0.152671 -0.091530
-0.217403 -0.153030 -0.093465
-0.217403 -0.153388 -0.095400
-0.217403 -0.153747 -0.097335
-0.217403 -0.154106 -0.099271
-0.217786 -0.156172 -0.100757
-0.217786 -0.156531 -0.102690
-0.217786 -0.156889 -0.104623
-0.217786 -0.157247 -0.106556
-0.218168 -0.159308 -0.108033
-0.218168 -0.159667 -0.109965
-0.218168 -0.160025 -0.111896
-0.218168 -0.160383 -0.113827
-0.218168 -0.160741 -0.115758
-0.218550 -0.162796 -0.117224
-0.218550 -0.163154 -0.119154
-0.218550 -0.163511 -0.121083
-0.218550 -0.163869 -0.123012
-0.218550 -0.164227 -0.124941
-0.218550 -0.164584 -0.126871
-0.218930 -0.166633 -0.128324
-0.218930 -0.166991 -0.130251
-0.218930 -0.167348 -0.132178
-0.218930 -0.167705 -0.134106
-0.218930 -0.168063 -0.136033
-0.218930 -0.168420 -0.137960
-0.218930 -0.168777 -0.139888
-0.219310 -0.170820 -0.141326
-0.219310 -0.171177 -0.143251
-0.219310 -0.171534 -0.145177
-0.219310 -0.171891 -0.147102
-0.219310 -0.172248 -0.149027
-0.219310 -0.172605 -0.150953
-0.219310 -0.172962 -0.152878
-0.219310 -0.173319 -0.154803
-0.219310 -0.173676 -0.156729
-0.219310 -0.174033 -0.158654
-0.218930 -0.172708 -0.161088
-0.218930 -0.173065 -0.163015
-0.218930 -0.173423 -0.164942
-0.218930 -0.173780 -0.166870
-0.218550 -0.172454 -0.169315
-0.218550 -0.172811 -0.171244
-0.218550 -0.173169 -0.173173
-0.218550 -0.173527 -0.175103
-0.218550 -0.173884 -0.177032
-0.218550 -0.174242 -0.178961
-0.218550 -0.174600 -0.180890
-0.218550 -0.174957 -0.182820
-0.218550 -0.175315 -0.184749
-0.218550 -0.175673 -0.186678
-0.218168 -0.174347 -0.189146
-0.218168 -0.174705 -0.191077
-0.218168 -0.175063 -0.193008
-0.218168 -0.175421 -0.194940
-0.218168 -0.175779 -0.196871
-0.217786 -0.174452 -0.199352
-0.217786 -0.174810 -0.201285
-0.217786 -0.175169 -0.203218
-0.217786 -0.175527 -0.205152
-0.217786 -0.175885 -0.207085
-0.217786 -0.176244 -0.209018
-0.217786 -0.176602 -0.210951
-0.217786 -0.176961 -0.212885
-0.217786 -0.177319 -0.214818
-0.217786 -0.177678 -0.216751
-0.217786 -0.178036 -0.218684
-0.217403 -0.176710 -0.221190
-0.217403 -0.177069 -0.223125
-0.217786 -0.179111 -0.224484
-0.217786 -0.179470 -0.226417
-0.217403 -0.178145 -0.228931
-0.217019 -0.176818 -0.231450
-0.217019 -0.177177 -0.233387
-0.217403 -0.179221 -0.234737
-0.217403 -0.179580 -0.236672
-0.217403 -0.179939 -0.238607
-0.217403 -0.180298 -0.240542
-0.217403 -0.180657 -0.242478
-0.217403 -0.181015 -0.244413
-0.217403 -0.181374 -0.246348
-0.217019 -0.180050 -0.248885
-0.217019 -0.180409 -0.250822
-0.217019 -0.180768 -0.252759
-0.217019 -0.181128 -0.254697
-0.217019 -0.181487 -0.256634
-0.217019 -0.181846 -0.258571
-0.217019 -0.182205 -0.260508
-0.217019 -0.182564 -0.262445
-0.216634 -0.181240 -0.265002
-0.216634 -0.181599 -0.266941
-0.216249 -0.180273 -0.269504
-0.216249 -0.180633 -0.271445
-0.216249 -0.180993 -0.273387
-0.215862 -0.179664 -0.275959
-0.215862 -0.180024 -0.277902
-0.215862 -0.180385 -0.279846
-0.215862 -0.180745 -0.281789
-0.215475 -0.179415 -0.284373
-0.215475 -0.179775 -0.286318
-0.215475 -0.180136 -0.288263
-0.215087 -0.178803 -0.290857
-0.215087 -0.179164 -0.292804
-0.215087 -0.179526 -0.294751
-0.214699 -0.178191 -0.297354
-0.214699 -0.178553 -0.299303
-0.214699 -0.178914 -0.301253
-0.214699 -0.179275 -0.303202
-0.214309 -0.177940 -0.305816
-0.214309 -0.178301 -0.307768
-0.214309 -0.178663 -0.309719
-0.213919 -0.177325 -0.312343
-0.213919 -0.177687 -0.314296
-0.213919 -0.178049 -0.316249
-0.213528 -0.176709 -0.318883
-0.213528 -0.177072 -0.320838
-0.213528 -0.177434 -0.322793
-0.213136 -0.176092 -0.325436
-0.213136 -0.176455 -0.327393
-0.212743 -0.175111 -0.330044
-0.212743 -0.175474 -0.332003
-0.212743 -0.175837 -0.333963
-0.212350 -0.174491 -0.336623
-0.212350 -0.174855 -0.338584
-0.212350 -0.175218 -0.340546
-0.211955 -0.173870 -0.343215
-0.211955 -0.174234 -0.345179
-0.211955 -0.174598 -0.347142
-0.211560 -0.173247 -0.349822
-0.211560 -0.173612 -0.351787
-0.211164 -0.172259 -0.354474
-0.211164 -0.172623 -0.356442
-0.210767 -0.171268 -0.359136
-0.210370 -0.169910 -0.361837
-0.210370 -0.170275 -0.363809
-0.209971 -0.168914 -0.366517
-0.209172 -0.165817 -0.369972
-0.208771 -0.164448 -0.372695
-0.208369 -0.163075 -0.375424
-0.207966 -0.161699 -0.378158
-0.207966 -0.162067 -0.380143
-0.207562 -0.160689 -0.382885
-0.207562 -0.161057 -0.384871
-0.207158 -0.159677 -0.387622
-0.206753 -0.158293 -0.390378
-0.206347 -0.156907 -0.393140
-0.205940 -0.155517 -0.395908
-0.205940 -0.155887 -0.397903
-0.205532 -0.154495 -0.400678
-0.205123 -0.153100 -0.403460
-0.204713 -0.151702 -0.406248
-0.204303 -0.150302 -0.409042
-0.203892 -0.148898 -0.411841
-0.203892 -0.149269 -0.413847
-0.203479 -0.147863 -0.416654
-0.203066 -0.146454 -0.419468
-0.202652 -0.145041 -0.422288
-0.202237 -0.143626 -0.425113
-0.202237 -0.143999 -0.427127
-0.201822 -0.142581 -0.429961
-0.201405 -0.141160 -0.432801
-0.200987 -0.139735 -0.435648
-0.200569 -0.138308 -0.438500
-0.200569 -0.138683 -0.440522
-0.200150 -0.137253 -0.443383
-0.199729 -0.135820 -0.446250
-0.199729 -0.136196 -0.448277
-0.199308 -0.134760 -0.451152
-0.198886 -0.133321 -0.454033
-0.198463 -0.131879 -0.456921
-0.198463 -0.132256 -0.458954
-0.198039 -0.130812 -0.461850
-0.197614 -0.129364 -0.464753
-0.196762 -0.126080 -0.468534
-0.196334 -0.124623 -0.471453
-0.196334 -0.125002 -0.473498
-0.193315 -0.112420 -0.481764
-0.173401 0.105334 0.133821
-0.176272 0.091699 0.133054
-0.178634 0.080413 0.132065
-0.180505 0.071397 0.130854
-0.182358 0.062463 0.129654
-0.184195 0.053610 0.128465
-0.185562 0.046924 0.127052
-0.187370 0.038209 0.125884
-0.188716 0.031626 0.124491
-0.189608 0.027133 0.122871
-0.190052 0.024701 0.121020
-0.190938 0.020238 0.119412
-0.191380 0.017821 0.117571
-0.192260 0.013388 0.115977
-0.192699 0.010987 0.114146
-0.193573 0.006584 0.112564
-0.194009 0.004198 0.110743
-0.194878 -0.000176 0.109174
-0.195311 -0.002547 0.107362
-0.196174 -0.006891 0.105806
-0.197033 -0.011217 0.104256
-0.197461 -0.013563 0.102460
-0.197889 -0.015904 0.100667
-0.198315 -0.018239 0.098878
-0.198741 -0.020570 0.097093
-0.199589 -0.024838 0.095573
-0.200011 -0.027153 0.093797
-0.200433 -0.029464 0.092025
-0.200854 -0.031770 0.090257
-0.201274 -0.034071 0.088493
-0.201693 -0.036366 0.086733
-0.202111 -0.038657 0.084976
-0.202528 -0.040943 0.083223
-0.203360 -0.045126 0.081747
-0.203775 -0.047398 0.080004
-0.204188 -0.049665 0.078264
-0.204188 -0.050038 0.076250
-0.205013 -0.054184 0.074795
-0.205013 -0.054557 0.072785
-0.205424 -0.056809 0.071059
-0.205834 -0.059056 0.069336
-0.206244 -0.061298 0.067616
-0.206652 -0.063536 0.065901
-0.206652 -0.063907 0.063900
-0.207060 -0.066139 0.062190
-0.207060 -0.066510 0.060191
-0.207466 -0.068737 0.058487
-0.207466 -0.069107 0.056490
-0.207872 -0.071329 0.054791
-0.208277 -0.073547 0.053096
-0.208277 -0.073916 0.051104
-0.208681 -0.076129 0.049415
-0.208681 -0.076498 0.047424
-0.209084 -0.078705 0.045741
-0.209084 -0.079074 0.043752
-0.209487 -0.081276 0.042075
-0.209487 -0.081644 0.040088
-0.209888 -0.083841 0.038416
-0.209888 -0.084209 0.036432
-0.209888 -0.084577 0.034448
-0.210289 -0.086769 0.032783
-0.210289 -0.087136 0.030801
-0.210289 -0.087504 0.028819
-0.210689 -0.089690 0.027162
-0.210689 -0.090057 0.025182
-0.210689 -0.090425 0.023202
-0.211088 -0.092606 0.021553
-0.211088 -0.092972 0.019575
-0.211088 -0.093339 0.017597
-0.211486 -0.095515 0.015956
-0.211883 -0.097686 0.014318
-0.211883 -0.098052 0.012344
-0.211883 -0.098418 0.010370
-0.212280 -0.100584 0.008739
-0.212280 -0.100949 0.006768
-0.212280 -0.101315 0.004796
-0.212676 -0.103475 0.003173
-0.212676 -0.103840 0.001203
-0.212676 -0.104206 -0.000766
-0.213070 -0.106361 -0.002382
-0.213070 -0.106726 -0.004349
-0.213070 -0.107090 -0.006317
-0.213464 -0.109240 -0.007925
-0.213464 -0.109605 -0.009891
-0.213464 -0.109969 -0.011856
-0.213464 -0.110334 -0.013822
-0.213858 -0.112478 -0.015420
-0.213858 -0.112842 -0.017384
-0.213858 -0.113206 -0.019347
-0.214250 -0.115345 -0.020938
-0.214250 -0.115709 -0.022900
-0.214250 -0.116073 -0.024861
-0.214642 -0.118206 -0.026445
-0.214642 -0.118570 -0.028404
-0.214642 -0.118933 -0.030363
-0.215032 -0.121062 -0.031940
-0.215032 -0.121425 -0.033897
-0.215032 -0.121788 -0.035854
-0.215422 -0.123911 -0.037423
-0.215422 -0.124274 -0.039379
-0.215422 -0.124636 -0.041334
-0.215422 -0.124999 -0.043289
-0.215811 -0.127117 -0.044849
-0.215811 -0.127479 -0.046802
-0.215811 -0.127841 -0.048755
-0.216200 -0.129954 -0.050308
-0.216200 -0.130315 -0.052259
-0.216200 -0.130677 -0.054210
-0.216587 -0.132785 -0.055755
-0.216587 -0.133146 -0.057704
-0.216587 -0.133508 -0.059654
-0.216974 -0.135610 -0.061191
-0.216974 -0.135971 -0.063139
-0.216974 -0.136332 -0.065086
-0.217360 -0.138430 -0.066617
-0.217360 -0.138791 -0.068562
-0.217360 -0.139151 -0.070507
-0.217745 -0.141244 -0.072030
-0.217745 -0.141604 -0.073974
-0.217745 -0.141964 -0.075917
-0.217745 -0.142324 -0.077860
-0.218513 -0.146134 -0.078946
-0.218513 -0.146494 -0.080885
-0.218513 -0.146854 -0.082824
-0.218896 -0.148932 -0.084330
-0.218896 -0.149291 -0.086268
-0.218896 -0.149650 -0.088205
-0.218896 -0.150009 -0.090142
-0.218896 -0.150368 -0.092079
-0.218896 -0.150728 -0.094017
-0.218896 -0.151087 -0.095954
-0.218896 -0.151446 -0.097891
-0.219278 -0.153517 -0.099380
-0.219659 -0.155584 -0.100866
-0.219659 -0.155942 -0.102799
-0.219659 -0.156301 -0.104732
-0.219659 -0.156659 -0.106665
-0.219659 -0.157017 -0.108599
-0.220039 -0.159079 -0.110074
-0.220039 -0.159437 -0.112005
-0.220039 -0.159795 -0.113936
-0.220039 -0.160153 -0.115867
-0.220039 -0.160511 -0.117799
-0.220419 -0.162566 -0.119262
-0.220419 -0.162924 -0.121192
-0.220419 -0.163282 -0.123121
-0.220419 -0.163640 -0.125050
-0.220419 -0.163997 -0.126980
-0.220419 -0.164355 -0.128909
-0.220797 -0.166404 -0.130360
-0.220797 -0.166762 -0.132287
-0.220797 -0.167119 -0.134214
-0.220797 -0.167476 -0.136142
-0.220797 -0.167834 -0.138069
-0.220797 -0.168191 -0.139996
-0.220797 -0.168548 -0.141924
-0.220797 -0.168906 -0.143851
-0.220797 -0.169263 -0.145778
-0.221175 -0.171305 -0.147211
-0.221175 -0.171662 -0.149136
-0.221175 -0.172019 -0.151061
-0.221175 -0.172376 -0.152986
-0.221175 -0.172733 -0.154912
-0.221175 -0.173090 -0.156837
-0.221175 -0.173447 -0.158762
-0.220797 -0.172121 -0.161197
-0.220797 -0.172479 -0.163124
-0.220797 -0.172836 -0.165051
-0.220419 -0.171509 -0.167494
-0.220419 -0.171866 -0.169424
-0.220419 -0.172224 -0.171353
-0.220419 -0.172582 -0.173282
-0.220419 -0.172939 -0.175211
-0.220419 -0.173297 -0.177141
-0.220419 -0.173655 -0.179070
-0.220039 -0.172327 -0.181530
-0.220419 -0.174370 -0.182928
-0.220039 -0.173043 -0.185392
-0.220039 -0.173401 -0.187324
-0.220039 -0.173759 -0.189255
-0.220039 -0.174117 -0.191186
-0.220039 -0.174475 -0.193117
-0.219659 -0.173147 -0.195594
-0.219659 -0.173505 -0.197528
-0.219659 -0.173863 -0.199461
-0.219659 -0.174222 -0.201394
-0.219659 -0.174580 -0.203327
-0.219659 -0.174939 -0.205261
-0.219659 -0.175297 -0.207194
-0.219659 -0.175656 -0.209127
-0.219659 -0.176014 -0.211060
-0.219659 -0.176372 -0.212994
-0.219659 -0.176731 -0.214927
-0.219278 -0.175403 -0.217429
-0.219278 -0.175762 -0.219364
-0.219278 -0.176121 -0.221299
-0.219278 -0.176480 -0.223234
-0.219659 -0.178523 -0.224593
-0.219278 -0.177197 -0.227105
-0.219278 -0.177556 -0.229040
-0.218896 -0.176228 -0.231559
-0.218513 -0.174897 -0.234084
-0.218896 -0.176946 -0.235434
-0.219278 -0.178991 -0.236781
-0.219278 -0.179350 -0.238716
-0.219278 -0.179709 -0.240652
-0.219278 -0.180068 -0.242587
-0.218896 -0.178742 -0.245120
-0.218896 -0.179101 -0.247057
-0.218896 -0.179461 -0.248994
-0.218896 -0.179820 -0.250931
-0.218896 -0.180179 -0.252869
-0.218896 -0.180538 -0.254806
-0.218896 -0.180897 -0.256743
-0.218896 -0.181256 -0.258680
-0.218896 -0.181616 -0.260618
-0.218513 -0.180290 -0.263172
-0.218513 -0.180650 -0.265111
-0.218513 -0.181009 -0.267050
-0.218129 -0.179682 -0.269614
-0.218129 -0.180042 -0.271555
-0.218129 -0.180402 -0.273496
-0.217745 -0.179073 -0.276069
-0.217745 -0.179433 -0.278012
-0.217745 -0.179793 -0.279955
-0.217360 -0.178462 -0.282537
-0.217360 -0.178823 -0.284483
-0.217360 -0.179183 -0.286428
-0.216974 -0.177850 -0.289020
-0.216974 -0.178211 -0.290967
-0.216974 -0.178572 -0.292914
-0.216974 -0.178933 -0.294861
-0.216587 -0.177598 -0.297464
-0.216587 -0.177959 -0.299413
-0.216587 -0.178321 -0.301363
-0.216200 -0.176984 -0.303975
-0.216200 -0.177346 -0.305926
-0.216200 -0.177708 -0.307878
-0.216200 -0.178069 -0.309829
-0.215811 -0.176731 -0.312453
-0.215811 -0.177093 -0.314406
-0.215811 -0.177455 -0.316359
-0.215422 -0.176114 -0.318993
-0.215422 -0.176477 -0.320948
-0.215422 -0.176839 -0.322904
-0.215032 -0.175497 -0.325547
-0.215032 -0.175860 -0.327504
-0.214642 -0.174515 -0.330154
-0.214642 -0.174878 -0.332114
-0.214642 -0.175241 -0.334073
-0.214250 -0.173894 -0.336733
-0.214250 -0.174258 -0.338695
-0.214250 -0.174621 -0.340656
-0.213858 -0.173272 -0.343326
-0.213858 -0.173636 -0.345290
-0.213858 -0.174000 -0.347253
-0.213464 -0.172649 -0.349932
-0.213464 -0.173013 -0.351898
-0.213070 -0.171660 -0.354585
-0.213070 -0.172025 -0.356553
-0.212676 -0.170668 -0.359248
-0.212676 -0.171034 -0.361217
-0.212280 -0.169675 -0.363920
-0.211883 -0.168314 -0.366628
-0.211088 -0.165215 -0.370083
-0.210689 -0.163845 -0.372807
-0.210289 -0.162472 -0.375536
-0.209888 -0.161096 -0.378270
-0.209888 -0.161463 -0.380255
-0.209487 -0.160085 -0.382997
-0.209084 -0.158703 -0.385745
-0.209084 -0.159072 -0.387734
-0.208681 -0.157687 -0.390490
-0.208277 -0.156300 -0.393252
-0.207872 -0.154910 -0.396020
-0.207466 -0.153517 -0.398794
-0.207466 -0.153888 -0.400791
-0.207060 -0.152492 -0.403573
-0.206652 -0.151093 -0.406361
-0.206244 -0.149692 -0.409155
-0.205834 -0.148287 -0.411954
-0.205424 -0.146880 -0.414760
-0.205424 -0.147252 -0.416767
-0.205013 -0.145842 -0.419581
-0.204601 -0.144429 -0.422401
-0.204188 -0.143013 -0.425227
-0.203775 -0.141593 -0.428059
-0.203775 -0.141967 -0.430075
-0.203360 -0.140546 -0.432915
-0.202945 -0.139121 -0.435762
-0.202528 -0.137693 -0.438614
-0.202528 -0.138068 -0.440637
-0.202111 -0.136637 -0.443497
-0.201693 -0.135203 -0.446364
-0.201693 -0.135579 -0.448391
-0.201274 -0.134143 -0.451266
-0.200854 -0.132703 -0.454148
-0.200433 -0.131261 -0.457036
-0.200011 -0.129815 -0.459930
-0.200011 -0.130192 -0.461965
-0.199165 -0.126914 -0.465736
-0.198741 -0.125459 -0.468649
-0.198741 -0.125837 -0.470692
-0.197461 -0.120694 -0.475377
-0.175028 0.108220 0.133465
-0.177891 0.094550 0.132699
-0.180246 0.083235 0.131710
-0.182112 0.074196 0.130500
-0.183960 0.065239 0.129300
-0.185792 0.056363 0.128111
-0.187607 0.047566 0.126933
-0.188958 0.040923 0.125530
-0.190745 0.032264 0.124373
-0.191633 0.027769 0.122753
-0.192075 0.025336 0.120902
-0.192957 0.020872 0.119295
-0.193396 0.018454 0.117454
-0.194272 0.014020 0.115860
-0.194708 0.011618 0.114029
-0.195578 0.007213 0.112447
-0.196012 0.004827 0.110626
-0.196876 0.000452 0.109057
-0.197737 -0.003904 0.107496
-0.198166 -0.006266 0.105690
-0.199021 -0.010593 0.104141
-0.199447 -0.012939 0.102344
-0.199872 -0.015281 0.100551
-0.200296 -0.017617 0.098763
-0.200719 -0.019948 0.096978
-0.201142 -0.022274 0.095197
-0.201984 -0.026534 0.093682
-0.202403 -0.028845 0.091910
-0.202822 -0.031152 0.090143
-0.203240 -0.033453 0.088379
-0.203657 -0.035750 0.086618
-0.204073 -0.038041 0.084862
-0.204488 -0.040328 0.083109
-0.205316 -0.044512 0.081633
-0.205728 -0.046785 0.079890
-0.205728 -0.047158 0.077874
-0.206140 -0.049425 0.076136
-0.206550 -0.051688 0.074402
-0.206960 -0.053945 0.072672
-0.207369 -0.056198 0.070945
-0.207777 -0.058445 0.069223
-0.208184 -0.060688 0.067503
-0.208184 -0.061060 0.065500
-0.208591 -0.063298 0.063787
-0.208591 -0.063669 0.061786
-0.208996 -0.065901 0.060078
-0.209401 -0.068129 0.058374
-0.209401 -0.068500 0.056377
-0.209805 -0.070722 0.054679
-0.210208 -0.072940 0.052984
-0.210208 -0.073310 0.050991
-0.210610 -0.075523 0.049302
-0.210610 -0.075892 0.047312
-0.211011 -0.078100 0.045629
-0.211011 -0.078468 0.043640
-0.211411 -0.080671 0.041962
-0.211411 -0.081040 0.039976
-0.211411 -0.081408 0.037990
-0.211811 -0.083605 0.036320
-0.211811 -0.083973 0.034336
-0.212209 -0.086166 0.032671
-0.212209 -0.086533 0.030689
-0.212209 -0.086901 0.028707
-0.212607 -0.089088 0.027050
-0.212607 -0.089455 0.025070
-0.212607 -0.089822 0.023090
-0.213004 -0.092004 0.021441
-0.213004 -0.092370 0.019463
-0.213004 -0.092737 0.017485
-0.213400 -0.094913 0.015844
-0.213796 -0.097085 0.014206
-0.213796 -0.097451 0.012232
-0.213796 -0.097817 0.010259
-0.214190 -0.099984 0.008628
-0.214190 -0.100349 0.006656
-0.214190 -0.100715 0.004685
-0.214584 -0.102876 0.003062
-0.214584 -0.103241 0.001092
-0.214584 -0.103606 -0.000877
-0.214977 -0.105762 -0.002493
-0.214977 -0.106127 -0.004460
-0.214977 -0.106492 -0.006428
-0.215369 -0.108642 -0.008036
-0.215369 -0.109007 -0.010001
-0.215369 -0.109371 -0.011967
-0.215369 -0.109736 -0.013933
-0.215760 -0.111880 -0.015531
-0.215760 -0.112245 -0.017494
-0.215760 -0.112609 -0.019458
-0.216150 -0.114748 -0.021049
-0.216150 -0.115112 -0.023010
-0.216150 -0.115476 -0.024972
-0.216540 -0.117610 -0.026555
-0.216540 -0.117973 -0.028515
-0.216540 -0.118337 -0.030474
-0.216929 -0.120466 -0.032050
-0.216929 -0.120829 -0.034007
-0.216929 -0.121192 -0.035965
-0.217317 -0.123316 -0.037534
-0.217317 -0.123678 -0.039489
-0.217317 -0.124041 -0.041444
-0.217317 -0.124404 -0.043400
-0.217704 -0.126522 -0.044959
-0.217704 -0.126884 -0.046912
-0.217704 -0.127246 -0.048866
-0.218090 -0.129360 -0.050418
-0.218090 -0.129722 -0.052369
-0.218090 -0.130083 -0.054320
-0.218476 -0.132192 -0.055865
-0.218476 -0.132553 -0.057814
-0.218476 -0.132914 -0.059764
-0.218860 -0.135018 -0.061301
-0.218860 -0.135379 -0.063249
-0.218860 -0.135740 -0.065196
-0.219244 -0.137838 -0.066726
-0.219244 -0.138199 -0.068671
-0.219628 -0.140292 -0.070197
-0.219244 -0.138920 -0.072562
-0.219628 -0.141013 -0.074083
-0.219628 -0.141373 -0.076026
-0.220010 -0.143461 -0.077543
-0.220392 -0.145544 -0.079055
-0.220392 -0.145904 -0.080995
-0.220392 -0.146263 -0.082934
-0.220392 -0.146623 -0.084873
-0.220772 -0.148701 -0.086377
-0.220772 -0.149060 -0.088314
-0.220772 -0.149420 -0.090251
-0.220772 -0.149779 -0.092189
-0.220772 -0.150138 -0.094126
-0.220772 -0.150497 -0.096063
-0.220772 -0.150856 -0.098000
-0.221152 -0.152928 -0.099489
-0.221152 -0.153287 -0.101424
-0.221532 -0.155354 -0.102908
-0.221532 -0.155712 -0.104841
-0.221532 -0.156071 -0.106775
-0.221532 -0.156429 -0.108708
-0.221532 -0.156788 -0.110641
-0.221910 -0.158849 -0.112114
-0.221910 -0.159207 -0.114045
-0.221910 -0.159565 -0.115976
-0.221910 -0.159923 -0.117908
-0.221910 -0.160281 -0.119839
-0.221910 -0.160639 -0.121770
-0.222288 -0.162695 -0.123230
-0.222288 -0.163052 -0.125159
-0.222288 -0.163410 -0.127088
-0.222288 -0.163768 -0.129018
-0.222288 -0.164125 -0.130947
-0.222665 -0.166175 -0.132396
-0.222665 -0.166532 -0.134323
-0.222665 -0.166890 -0.136251
-0.222665 -0.167247 -0.138178
-0.222665 -0.167604 -0.140105
-0.222665 -0.167962 -0.142032
-0.222665 -0.168319 -0.143960
-0.222665 -0.168676 -0.145887
-0.222665 -0.169034 -0.147814
-0.222665 -0.169391 -0.149742
-0.223041 -0.171433 -0.151170
-0.223041 -0.171790 -0.153095
-0.223041 -0.172147 -0.155020
-0.223041 -0.172504 -0.156946
-0.223041 -0.172861 -0.158871
-0.222665 -0.171535 -0.161305
-0.222665 -0.171892 -0.163233
-0.222288 -0.170564 -0.165674
-0.222288 -0.170922 -0.167603
-0.222288 -0.171279 -0.169532
-0.222288 -0.171637 -0.171462
-0.222288 -0.171995 -0.173391
-0.222288 -0.172352 -0.175320
-0.222288 -0.172710 -0.177250
-0.221910 -0.171381 -0.179708
-0.221910 -0.171739 -0.181639
-0.221910 -0.172097 -0.183570
-0.221910 -0.172455 -0.185501
-0.221910 -0.172813 -0.187433
-0.221910 -0.173171 -0.189364
-0.221910 -0.173529 -0.191295
-0.221532 -0.172200 -0.193770
-0.221532 -0.172558 -0.195704
-0.221532 -0.172917 -0.197637
-0.221532 -0.173275 -0.199570
-0.221532 -0.173634 -0.201503
-0.221532 -0.173992 -0.203436
-0.221532 -0.174350 -0.205370
-0.221532 -0.174709 -0.207303
-0.221532 -0.175067 -0.209236
-0.221532 -0.175426 -0.211169
-0.221152 -0.174097 -0.213668
-0.221152 -0.174456 -0.215603
-0.221152 -0.174814 -0.217538
-0.221152 -0.175173 -0.219473
-0.221152 -0.175532 -0.221408
-0.221152 -0.175891 -0.223344
-0.221152 -0.176250 -0.225279
-0.221152 -0.176608 -0.227214
-0.220772 -0.175279 -0.229731
-0.220772 -0.175639 -0.231669
-0.220392 -0.174307 -0.234193
-0.220772 -0.176357 -0.235543
-0.220772 -0.176716 -0.237480
-0.220772 -0.177075 -0.239417
-0.220772 -0.177434 -0.241355
-0.220772 -0.177794 -0.243292
-0.220772 -0.178153 -0.245229
-0.220772 -0.178512 -0.247166
-0.220772 -0.178871 -0.249104
-0.220772 -0.179230 -0.251041
-0.220772 -0.179589 -0.252978
-0.220772 -0.179949 -0.254915
-0.220772 -0.180308 -0.256852
-0.220772 -0.180667 -0.258790
-0.220392 -0.179340 -0.261342
-0.220392 -0.179700 -0.263281
-0.220392 -0.180060 -0.265220
-0.220392 -0.180419 -0.267160
-0.220010 -0.179091 -0.269723
-0.220010 -0.179451 -0.271664
-0.220010 -0.179811 -0.273606
-0.219628 -0.178481 -0.276179
-0.219628 -0.178842 -0.278122
-0.219628 -0.179202 -0.280065
-0.219244 -0.177870 -0.282647
-0.219244 -0.178231 -0.284592
-0.219244 -0.178591 -0.286538
-0.218860 -0.177257 -0.289129
-0.218860 -0.177618 -0.291077
-0.218860 -0.177979 -0.293024
-0.218476 -0.176643 -0.295625
-0.218476 -0.177005 -0.297574
-0.218476 -0.177366 -0.299523
-0.218476 -0.177728 -0.301473
-0.218090 -0.176390 -0.304085
-0.218090 -0.176752 -0.306036
-0.218090 -0.177114 -0.307988
-0.217704 -0.175774 -0.310610
-0.217704 -0.176136 -0.312563
-0.217704 -0.176498 -0.314516
-0.217704 -0.176860 -0.316470
-0.217317 -0.175519 -0.319103
-0.217317 -0.175882 -0.321059
-0.217317 -0.176244 -0.323014
-0.216929 -0.174901 -0.325657
-0.216540 -0.173555 -0.328306
-0.216540 -0.173918 -0.330265
-0.216540 -0.174282 -0.332224
-0.216540 -0.174645 -0.334184
-0.216150 -0.173297 -0.336844
-0.216150 -0.173661 -0.338805
-0.216150 -0.174024 -0.340767
-0.215760 -0.172675 -0.343437
-0.215760 -0.173039 -0.345400
-0.215760 -0.173403 -0.347364
-0.215369 -0.172051 -0.350043
-0.215369 -0.172415 -0.352009
-0.214977 -0.171061 -0.354696
-0.214977 -0.171426 -0.356664
-0.214584 -0.170069 -0.359359
-0.214584 -0.170434 -0.361328
-0.214190 -0.169075 -0.364031
-0.213796 -0.167713 -0.366739
-0.213004 -0.164613 -0.370195
-0.212607 -0.163243 -0.372918
-0.212209 -0.161869 -0.375647
-0.211811 -0.160492 -0.378382
-0.211811 -0.160860 -0.380366
-0.211411 -0.159480 -0.383109
-0.211011 -0.158098 -0.385858
-0.211011 -0.158467 -0.387846
-0.210610 -0.157082 -0.390603
-0.210208 -0.155694 -0.393365
-0.209805 -0.154303 -0.396133
-0.209401 -0.152910 -0.398907
-0.209401 -0.153280 -0.400904
-0.208591 -0.150113 -0.404473
-0.208591 -0.150484 -0.406474
-0.208184 -0.149082 -0.409268
-0.207777 -0.147677 -0.412067
-0.207369 -0.146269 -0.414873
-0.206960 -0.144858 -0.417685
-0.206960 -0.145230 -0.419695
-0.206550 -0.143817 -0.422515
-0.206140 -0.142400 -0.425341
-0.205728 -0.140980 -0.428173
-0.205728 -0.141354 -0.430189
-0.205316 -0.139931 -0.433029
-0.204902 -0.138506 -0.435876
-0.204488 -0.137077 -0.438728
-0.204488 -0.137452 -0.440751
-0.204073 -0.136021 -0.443612
-0.203657 -0.134586 -0.446479
-0.203657 -0.134962 -0.448506
-0.203240 -0.133525 -0.451381
-0.202822 -0.132085 -0.454263
-0.202403 -0.130642 -0.457150
-0.201984 -0.129195 -0.460044
-0.201563 -0.127746 -0.462945
-0.200719 -0.124459 -0.466722
-0.200719 -0.124837 -0.468764
-0.200296 -0.123378 -0.471684
-0.198166 -0.114511 -0.478153
-0.176179 0.113348 0.132872
-0.179040 0.099611 0.132108
-0.181862 0.086062 0.131355
-0.184185 0.074847 0.130379
-0.186024 0.065887 0.129180
-0.187392 0.059122 0.127757
-0.189202 0.050303 0.126579
-0.190549 0.043643 0.125176
-0.192331 0.034962 0.124019
-0.193657 0.028405 0.122635
-0.194097 0.025971 0.120784
-0.194975 0.021506 0.119177
-0.195412 0.019087 0.117336
-0.196283 0.014652 0.115743
-0.196717 0.012249 0.113912
-0.197583 0.007843 0.112331
-0.198014 0.005456 0.110509
-0.198445 0.003074 0.108692
-0.199303 -0.001293 0.107129
-0.200157 -0.005640 0.105574
-0.201008 -0.009969 0.104025
-0.201432 -0.012316 0.102228
-0.201855 -0.014658 0.100436
-0.202277 -0.016995 0.098647
-0.202698 -0.019326 0.096863
-0.203118 -0.021653 0.095082
-0.203956 -0.025914 0.093567
-0.204373 -0.028226 0.091796
-0.204790 -0.030533 0.090028
-0.205206 -0.032836 0.088264
-0.205621 -0.035133 0.086504
-0.206034 -0.037425 0.084748
-0.206447 -0.039712 0.082995
-0.206860 -0.041995 0.081246
-0.207271 -0.044272 0.079501
-0.207681 -0.046545 0.077760
-0.208091 -0.048813 0.076023
-0.208499 -0.051075 0.074289
-0.208907 -0.053333 0.072559
-0.209314 -0.055587 0.070832
-0.209720 -0.057835 0.069109
-0.209720 -0.058207 0.067104
-0.210125 -0.060450 0.065387
-0.210529 -0.062689 0.063674
-0.210933 -0.064922 0.061964
-0.210933 -0.065293 0.059965
-0.211335 -0.067522 0.058261
-0.211335 -0.067892 0.056264
-0.211737 -0.070115 0.054566
-0.211737 -0.070485 0.052571
-0.212138 -0.072703 0.050879
-0.212538 -0.074917 0.049190
-0.212538 -0.075286 0.047200
-0.212937 -0.077495 0.045516
-0.212937 -0.077863 0.043528
-0.212937 -0.078232 0.041540
-0.213335 -0.080435 0.039864
-0.213335 -0.080803 0.037878
-0.213733 -0.083002 0.036208
-0.213733 -0.083369 0.034224
-0.214130 -0.085563 0.032560
-0.214130 -0.085930 0.030577
-0.214130 -0.086298 0.028595
-0.214525 -0.088485 0.026939
-0.214525 -0.088852 0.024959
-0.214525 -0.089219 0.022979
-0.214920 -0.091402 0.021330
-0.214920 -0.091768 0.019352
-0.214920 -0.092135 0.017374
-0.215315 -0.094312 0.015733
-0.215315 -0.094678 0.013757
-0.215708 -0.096850 0.012121
-0.215708 -0.097216 0.010147
-0.216100 -0.099384 0.008517
-0.216100 -0.099749 0.006545
-0.216100 -0.100115 0.004573
-0.216492 -0.102276 0.002951
-0.216492 -0.102642 0.000981
-0.216492 -0.103007 -0.000989
-0.216883 -0.105163 -0.002604
-0.216883 -0.105528 -0.004571
-0.216883 -0.105893 -0.006539
-0.217273 -0.108044 -0.008147
-0.217273 -0.108409 -0.010112
-0.217273 -0.108773 -0.012078
-0.217273 -0.109137 -0.014043
-0.217662 -0.111283 -0.015642
-0.217662 -0.111647 -0.017605
-0.217662 -0.112011 -0.019569
-0.218051 -0.114151 -0.021159
-0.218051 -0.114515 -0.023121
-0.218051 -0.114879 -0.025082
-0.218438 -0.117014 -0.026666
-0.218438 -0.117377 -0.028625
-0.218438 -0.117740 -0.030585
-0.218825 -0.119870 -0.032160
-0.218825 -0.120233 -0.034118
-0.218825 -0.120596 -0.036075
-0.219211 -0.122721 -0.037644
-0.219211 -0.123083 -0.039599
-0.219211 -0.123446 -0.041555
-0.219211 -0.123808 -0.043510
-0.219596 -0.125928 -0.045069
-0.219596 -0.126290 -0.047023
-0.219596 -0.126652 -0.048976
-0.219981 -0.128766 -0.050528
-0.219981 -0.129128 -0.052479
-0.219981 -0.129490 -0.054430
-0.220364 -0.131598 -0.055975
-0.220364 -0.131960 -0.057924
-0.220364 -0.132321 -0.059874
-0.220747 -0.134425 -0.061411
-0.220747 -0.134786 -0.063358
-0.220747 -0.135147 -0.065306
-0.221129 -0.137246 -0.066836
-0.221129 -0.137607 -0.068781
-0.221510 -0.139701 -0.070306
-0.221129 -0.138328 -0.072672
-0.221510 -0.140421 -0.074193
-0.221891 -0.142510 -0.075711
-0.221891 -0.142870 -0.077652
-0.221891 -0.143230 -0.079593
-0.222270 -0.145314 -0.081104
-0.222270 -0.145673 -0.083043
-0.222270 -0.146033 -0.084983
-0.222270 -0.146392 -0.086922
-0.222270 -0.146752 -0.088861
-0.222270 -0.147111 -0.090800
-0.222270 -0.147471 -0.092739
-0.222649 -0.149548 -0.094235
-0.222649 -0.149908 -0.096172
-0.222649 -0.150267 -0.098110
-0.223027 -0.152339 -0.099598
-0.223027 -0.152698 -0.101533
-0.223027 -0.153057 -0.103469
-0.223404 -0.155124 -0.104950
-0.223404 -0.155482 -0.106884
-0.223404 -0.155841 -0.108817
-0.223404 -0.156199 -0.110750
-0.223404 -0.156558 -0.112683
-0.223781 -0.158619 -0.114154
-0.223781 -0.158978 -0.116085
-0.223781 -0.159336 -0.118016
-0.223781 -0.159694 -0.119948
-0.223781 -0.160052 -0.121879
-0.223781 -0.160410 -0.123810
-0.224157 -0.162465 -0.125268
-0.224157 -0.162823 -0.127197
-0.224157 -0.163181 -0.129127
-0.224157 -0.163538 -0.131056
-0.224157 -0.163896 -0.132985
-0.224532 -0.165946 -0.134432
-0.224532 -0.166303 -0.136359
-0.224532 -0.166661 -0.138287
-0.224532 -0.167018 -0.140214
-0.224532 -0.167375 -0.142141
-0.224532 -0.167733 -0.144068
