ply
format ascii 1.0
element vertex 1712
property float x
property float y
property float z
end_header
-0.222374 0.349412 -0.212260
-0.225374 0.347051 -0.211680
-0.227678 0.345868 -0.211817
-0.229986 0.344682 -0.211955
-0.233012 0.342303 -0.211372
-0.235332 0.341110 -0.211510
-0.237656 0.339916 -0.211647
-0.240708 0.337519 -0.211062
-0.243044 0.336317 -0.211200
-0.246115 0.333906 -0.210612
-0.248463 0.332698 -0.210750
-0.250816 0.331487 -0.210887
-0.253914 0.329058 -0.210297
-0.256278 0.327840 -0.210435
-0.259396 0.325397 -0.209841
-0.261772 0.324171 -0.209979
-0.264909 0.321714 -0.209383
-0.268059 0.319247 -0.208785
-0.271220 0.316771 -0.208185
-0.274394 0.314285 -0.207582
-0.277580 0.311789 -0.206977
-0.280000 0.310538 -0.207113
-0.283207 0.308028 -0.206505
-0.286426 0.305507 -0.205895
-0.289657 0.302977 -0.205282
-0.292902 0.300437 -0.204667
-0.296159 0.297888 -0.204050
-0.299429 0.295328 -0.203430
-0.302712 0.292757 -0.202808
-0.305192 0.291469 -0.202942
-0.308496 0.288883 -0.202317
-0.311813 0.286287 -0.201689
-0.315974 0.282375 -0.200294
-0.318487 0.281065 -0.200427
-0.324370 0.274478 -0.197477
-0.330312 0.267825 -0.194498
-0.335450 0.262454 -0.192275
-0.343254 0.252949 -0.187653
-0.352063 0.241920 -0.182156
-0.361929 0.229293 -0.175746
0.437071 0.276036 0.205838
0.436043 0.286510 0.195613
0.434949 0.295540 0.186686
0.433622 0.300644 0.181261
0.432304 0.305708 0.175878
0.430997 0.310733 0.170537
0.429700 0.315719 0.165238
0.428326 0.319433 0.161072
0.427048 0.324351 0.155844
0.425691 0.328015 0.151733
0.424342 0.331659 0.147646
0.422909 0.334076 0.144647
0.421482 0.336484 0.141659
0.420154 0.340078 0.137627
0.418644 0.341272 0.135717
0.417233 0.343652 0.132762
0.415632 0.343652 0.131906
0.414131 0.344839 0.130006
0.412632 0.346024 0.128110
0.411137 0.347206 0.126217
0.409541 0.347206 0.125363
0.408050 0.348386 0.123474
0.406455 0.348386 0.122621
0.404861 0.348386 0.121768
0.403376 0.349564 0.119885
0.401783 0.349564 0.119032
0.400190 0.349564 0.118180
0.398710 0.350740 0.116302
0.397119 0.350740 0.115450
0.395644 0.351914 0.113576
0.394054 0.351914 0.112726
0.392464 0.351914 0.111875
0.390875 0.351914 0.111024
0.389285 0.351914 0.110173
0.387695 0.351914 0.109322
0.386105 0.351914 0.108471
0.384516 0.351914 0.107620
0.382926 0.351914 0.106769
0.381336 0.351914 0.105919
0.379746 0.351914 0.105068
0.378157 0.351914 0.104217
0.376567 0.351914 0.103366
0.374977 0.351914 0.102515
0.373388 0.351914 0.101664
0.371798 0.351914 0.100813
0.370208 0.351914 0.099962
0.368618 0.351914 0.099112
0.367029 0.351914 0.098261
0.365295 0.350740 0.098417
0.363703 0.350740 0.097565
0.362112 0.350740 0.096713
0.360670 0.351914 0.094857
0.359080 0.351914 0.094006
0.357490 0.351914 0.093156
0.355901 0.351914 0.092305
0.354311 0.351914 0.091454
0.352721 0.351914 0.090603
0.351131 0.351914 0.089752
0.349542 0.351914 0.088901
0.347952 0.351914 0.088050
0.346362 0.351914 0.087199
0.344609 0.350740 0.087345
0.343018 0.350740 0.086493
0.341426 0.350740 0.085642
0.339667 0.349564 0.085786
0.338074 0.349564 0.084933
0.336309 0.348386 0.085077
0.334715 0.348386 0.084223
0.332945 0.347206 0.084366
0.331350 0.347206 0.083512
0.329575 0.346024 0.083655
0.327798 0.344839 0.083798
0.326017 0.343652 0.083941
0.324048 0.341272 0.085086
0.322071 0.338882 0.086235
0.320087 0.336484 0.087389
0.317904 0.332868 0.089560
0.315902 0.330447 0.090725
0.313696 0.326796 0.092916
0.311677 0.324351 0.094094
0.309448 0.320666 0.096305
0.307411 0.318197 0.097495
0.305159 0.314476 0.099727
0.302894 0.310733 0.101972
0.300615 0.306968 0.104230
0.298323 0.303181 0.106501
0.296018 0.299372 0.108786
0.293699 0.295540 0.111085
0.291366 0.291685 0.113396
0.289020 0.287808 0.115722
0.286429 0.282602 0.119144
0.284051 0.278670 0.121503
0.281422 0.273391 0.124972
0.279012 0.269404 0.127365
0.276588 0.265393 0.129773
0.274149 0.261357 0.132195
0.271695 0.257297 0.134633
0.269227 0.253212 0.137085
0.267255 0.251844 0.137292
0.265280 0.250474 0.137500
0.263561 0.250474 0.136580
0.261579 0.249102 0.136788
0.259594 0.247726 0.136996
0.257605 0.246348 0.137204
0.255343 0.243582 0.138548
0.253343 0.242196 0.138759
0.251065 0.239413 0.140109
0.249054 0.238018 0.140322
0.247040 0.236619 0.140536
0.244739 0.233814 0.141896
0.242429 0.230997 0.143261
0.240397 0.229584 0.143479
0.238071 0.226750 0.144852
0.235735 0.223903 0.146231
0.233389 0.221045 0.147615
0.231033 0.218175 0.149005
0.228668 0.215293 0.150401
0.226293 0.212399 0.151803
0.223907 0.209493 0.153211
0.221512 0.206574 0.154625
0.217520 0.196262 0.162014
0.213141 0.184287 0.170732
0.209021 0.173640 0.178361
0.204839 0.162830 0.186107
0.197786 0.139106 0.204247
0.189389 0.109578 0.227027
0.176318 0.059402 0.266378
0.173954 0.057612 0.266767
0.171584 0.055817 0.267156
0.169616 0.055817 0.266103
0.167238 0.054018 0.266492
0.164854 0.052214 0.266882
0.162465 0.050407 0.267273
0.160490 0.050407 0.266215
0.158093 0.048595 0.266606
0.155691 0.046779 0.266997
0.153283 0.044959 0.267390
0.151301 0.044959 0.266329
0.148885 0.043134 0.266721
0.146463 0.041306 0.267114
0.144035 0.039472 0.267508
0.141602 0.037635 0.267903
0.139163 0.035793 0.268299
0.136718 0.033947 0.268696
0.134267 0.032097 0.269093
0.131811 0.030241 0.269492
0.129348 0.028382 0.269891
0.126880 0.026518 0.270292
0.124406 0.024650 0.270693
0.121926 0.022778 0.271096
0.119440 0.020901 0.271499
0.116949 0.019019 0.271903
0.113967 0.015242 0.273796
0.111460 0.013347 0.274205
0.108946 0.011447 0.274614
0.106427 0.009543 0.275025
0.103402 0.005721 0.276937
0.101370 0.005721 0.275849
0.098326 0.001880 0.277767
0.095778 -0.000048 0.278184
0.092193 -0.005858 0.281632
0.089626 -0.007804 0.282055
0.087052 -0.009755 0.282480
0.083943 -0.013671 0.284433
0.081353 -0.015636 0.284862
0.078757 -0.017606 0.285292
0.075612 -0.021560 0.287262
0.072453 -0.025534 0.289241
0.069277 -0.029528 0.291230
0.066086 -0.033541 0.293229
0.062879 -0.037574 0.295238
0.060224 -0.039598 0.295687
0.055842 -0.047744 0.300866
0.051999 -0.053908 0.304502
0.048127 -0.060118 0.308166
0.043628 -0.068470 0.313473
0.071903 0.205110 0.075901
0.071538 0.209493 0.071658
0.071175 0.213848 0.067441
0.070347 0.216736 0.064331
0.069523 0.219612 0.061233
0.068233 0.221045 0.059218
0.067416 0.223903 0.056141
0.066133 0.225328 0.054138
0.065322 0.228168 0.051081
0.064515 0.230997 0.048036
0.063241 0.232407 0.046052
0.062441 0.235218 0.043027
0.061173 0.236619 0.041054
0.059908 0.238018 0.039085
0.059118 0.240806 0.036087
0.057859 0.242196 0.034129
0.057075 0.244966 0.031150
0.055823 0.246348 0.029204
0.055045 0.249102 0.026244
0.053798 0.250474 0.024308
0.053028 0.253212 0.021368
0.051786 0.254576 0.019443
0.050548 0.255938 0.017522
0.049787 0.258653 0.014607
0.048554 0.260006 0.012697
0.047799 0.262705 0.009801
0.046572 0.264050 0.007901
0.045824 0.266732 0.005023
0.044602 0.268069 0.003134
0.043383 0.269404 0.001249
0.042644 0.272065 -0.001604
0.041431 0.273391 -0.003479
0.040698 0.276036 -0.006314
0.039490 0.277354 -0.008178
0.038285 0.278670 -0.010039
0.037082 0.279983 -0.011896
0.036361 0.282602 -0.014700
0.035644 0.285210 -0.017494
0.034449 0.286510 -0.019334
0.033738 0.289103 -0.022110
0.032549 0.290395 -0.023940
0.031843 0.292973 -0.026698
0.030659 0.294258 -0.028519
0.029959 0.296820 -0.031260
0.028781 0.298097 -0.033070
0.027605 0.299372 -0.034877
0.026914 0.301914 -0.037595
0.025743 0.303181 -0.039393
0.025057 0.305708 -0.042094
0.023892 0.306968 -0.043881
0.023212 0.309480 -0.046566
0.022052 0.310733 -0.048344
0.021377 0.313231 -0.051012
0.020222 0.314476 -0.052781
0.019069 0.315719 -0.054546
0.018403 0.318197 -0.057191
0.017255 0.319433 -0.058947
0.016595 0.321897 -0.061577
0.015452 0.323125 -0.063323
0.014797 0.325575 -0.065937
0.013659 0.326796 -0.067674
0.012524 0.328015 -0.069407
0.011877 0.330447 -0.071999
0.010746 0.331659 -0.073724
0.010104 0.334076 -0.076300
0.008979 0.335281 -0.078016
0.008342 0.337684 -0.080576
0.007221 0.338882 -0.082283
0.006590 0.341272 -0.084828
0.005474 0.342463 -0.086526
0.004360 0.343652 -0.088221
0.003737 0.346024 -0.090745
0.002628 0.347206 -0.092431
0.001521 0.348386 -0.094113
0.000905 0.350740 -0.096617
-0.000197 0.351914 -0.098291
-0.001297 0.353085 -0.099961
-0.001905 0.355421 -0.102445
-0.003001 0.356586 -0.104107
-0.004094 0.357748 -0.105766
-0.004695 0.360066 -0.108229
-0.005293 0.362376 -0.110683
-0.006379 0.363528 -0.112328
-0.007463 0.364677 -0.113970
-0.008545 0.365825 -0.115609
-0.009625 0.366970 -0.117244
-0.010703 0.368113 -0.118877
-0.011779 0.369254 -0.120507
-0.012852 0.370393 -0.122134
-0.014419 0.370393 -0.122972
-0.015489 0.371530 -0.124595
-0.016557 0.372664 -0.126215
-0.017624 0.373797 -0.127832
-0.019186 0.373797 -0.128668
-0.020747 0.373797 -0.129503
-0.022309 0.373797 -0.130339
-0.023871 0.373797 -0.131175
-0.025433 0.373797 -0.132011
-0.026490 0.374927 -0.133621
-0.028050 0.374927 -0.134456
-0.029610 0.374927 -0.135291
-0.031171 0.374927 -0.136127
-0.032731 0.374927 -0.136962
-0.034291 0.374927 -0.137797
-0.035852 0.374927 -0.138632
-0.037412 0.374927 -0.139467
-0.038457 0.376056 -0.141069
-0.040016 0.376056 -0.141903
-0.041575 0.376056 -0.142738
-0.043134 0.376056 -0.143572
-0.044693 0.376056 -0.144406
-0.046252 0.376056 -0.145241
-0.047810 0.376056 -0.146075
-0.049369 0.376056 -0.146909
-0.049878 0.378306 -0.149260
-0.051434 0.378306 -0.150093
-0.052990 0.378306 -0.150926
-0.055075 0.377182 -0.151003
-0.056632 0.377182 -0.151837
-0.058190 0.377182 -0.152671
-0.059747 0.377182 -0.153504
-0.060770 0.378306 -0.155090
-0.062326 0.378306 -0.155923
-0.063882 0.378306 -0.156756
-0.065438 0.378306 -0.157588
-0.066994 0.378306 -0.158421
-0.068550 0.378306 -0.159254
-0.070106 0.378306 -0.160087
-0.071662 0.378306 -0.160920
-0.072672 0.379428 -0.162497
-0.073681 0.380548 -0.164072
-0.075234 0.380548 -0.164903
-0.077336 0.379428 -0.164993
-0.078891 0.379428 -0.165825
-0.080445 0.379428 -0.166657
-0.081447 0.380548 -0.168228
-0.083000 0.380548 -0.169059
-0.084553 0.380548 -0.169891
-0.086106 0.380548 -0.170722
-0.087659 0.380548 -0.171553
-0.089213 0.380548 -0.172385
-0.090766 0.380548 -0.173216
-0.092319 0.380548 -0.174047
-0.093872 0.380548 -0.174878
-0.095425 0.380548 -0.175710
-0.096978 0.380548 -0.176541
-0.097964 0.381666 -0.178101
-0.099516 0.381666 -0.178932
-0.101067 0.381666 -0.179762
-0.102619 0.381666 -0.180593
-0.104171 0.381666 -0.181423
-0.105722 0.381666 -0.182254
-0.107850 0.380548 -0.182360
-0.109403 0.380548 -0.183191
-0.110377 0.381666 -0.184745
-0.111929 0.381666 -0.185576
-0.113481 0.381666 -0.186406
-0.115032 0.381666 -0.187237
-0.116584 0.381666 -0.188067
-0.118722 0.380548 -0.188179
-0.120275 0.380548 -0.189010
-0.121828 0.380548 -0.189842
-0.123381 0.380548 -0.190673
-0.125527 0.379428 -0.190787
-0.127082 0.379428 -0.191619
-0.129233 0.378306 -0.191734
-0.130789 0.378306 -0.192567
-0.132345 0.378306 -0.193400
-0.134504 0.377182 -0.193516
-0.136061 0.377182 -0.194350
-0.138225 0.376056 -0.194468
-0.139784 0.376056 -0.195302
-0.141342 0.376056 -0.196136
-0.143513 0.374927 -0.196256
-0.145073 0.374927 -0.197091
-0.147249 0.373797 -0.197212
-0.148811 0.373797 -0.198047
-0.150993 0.372664 -0.198169
-0.152556 0.372664 -0.199006
-0.154743 0.371530 -0.199128
-0.156308 0.371530 -0.199966
-0.158500 0.370393 -0.200089
-0.160066 0.370393 -0.200927
-0.162264 0.369254 -0.201052
-0.163832 0.369254 -0.201891
-0.166036 0.368113 -0.202016
-0.167605 0.368113 -0.202856
-0.169814 0.366970 -0.202983
-0.171384 0.366970 -0.203823
-0.173599 0.365825 -0.203951
-0.175171 0.365825 -0.204792
-0.177391 0.364677 -0.204921
-0.178965 0.364677 -0.205763
-0.181191 0.363528 -0.205893
-0.182766 0.363528 -0.206735
-0.184997 0.362376 -0.206866
-0.186574 0.362376 -0.207710
-0.188811 0.361222 -0.207842
-0.190389 0.361222 -0.208686
-0.192632 0.360066 -0.208819
-0.194211 0.360066 -0.209664
-0.196460 0.358908 -0.209798
-0.198040 0.358908 -0.210644
-0.200295 0.357748 -0.210779
-0.201877 0.357748 -0.211626
-0.204137 0.356586 -0.211761
-0.205721 0.356586 -0.212609
-0.207304 0.356586 -0.213457
-0.209572 0.355421 -0.213595
-0.211843 0.354254 -0.213732
-0.214119 0.353085 -0.213871
-0.216399 0.351914 -0.214009
-0.218684 0.350740 -0.214148
-0.220972 0.349564 -0.214287
-0.223265 0.348386 -0.214426
-0.226267 0.346024 -0.213851
-0.228572 0.344839 -0.213990
-0.230881 0.343652 -0.214129
-0.233908 0.341272 -0.213551
-0.236229 0.340078 -0.213690
-0.238554 0.338882 -0.213830
-0.241608 0.336484 -0.213249
-0.243945 0.335281 -0.213389
-0.247018 0.332868 -0.212805
-0.249367 0.331659 -0.212945
-0.251720 0.330447 -0.213085
-0.254820 0.328015 -0.212498
-0.257185 0.326796 -0.212638
-0.259555 0.325575 -0.212779
-0.262682 0.323125 -0.212189
-0.265821 0.320666 -0.211598
-0.268972 0.318197 -0.211004
-0.272135 0.315719 -0.210408
-0.275311 0.313231 -0.209809
-0.278499 0.310733 -0.209208
-0.281699 0.308225 -0.208605
-0.284912 0.305708 -0.208000
-0.287348 0.304446 -0.208138
-0.290582 0.301914 -0.207530
-0.293828 0.299372 -0.206919
-0.297087 0.296820 -0.206306
-0.300359 0.294258 -0.205690
-0.303643 0.291685 -0.205073
-0.306941 0.289103 -0.204452
-0.310252 0.286510 -0.203829
-0.312750 0.285210 -0.203965
-0.316913 0.281294 -0.202577
-0.320264 0.278670 -0.201946
-0.325315 0.273391 -0.199774
-0.331262 0.266732 -0.196806
-0.337269 0.260006 -0.193808
-0.344215 0.251844 -0.189987
-0.353927 0.239413 -0.183702
-0.362906 0.228168 -0.178121
0.439264 0.270976 0.208887
0.438216 0.281522 0.198607
0.437184 0.291902 0.188489
0.435926 0.298306 0.181914
0.434598 0.303384 0.176523
0.433198 0.307167 0.172288
0.431890 0.312176 0.166971
0.430592 0.317147 0.161695
0.429304 0.322079 0.156461
0.427939 0.325753 0.152344
0.426582 0.329406 0.148251
0.425232 0.333038 0.144182
0.423801 0.335448 0.141194
0.422466 0.339046 0.137164
0.420954 0.340241 0.135254
0.419538 0.342623 0.132301
0.418033 0.343811 0.130401
0.416531 0.344997 0.128504
0.414934 0.344997 0.127649
0.413436 0.346180 0.125757
0.411941 0.347361 0.123868
0.410347 0.347361 0.123015
0.408856 0.348540 0.121130
0.407263 0.348540 0.120278
0.405670 0.348540 0.119425
0.404186 0.349717 0.117546
0.402594 0.349717 0.116695
0.401003 0.349717 0.115843
0.399524 0.350891 0.113969
0.397934 0.350891 0.113118
0.396459 0.352063 0.111248
0.394755 0.350891 0.111416
0.393283 0.352063 0.109548
0.391695 0.352063 0.108698
0.390107 0.352063 0.107848
0.388518 0.352063 0.106998
0.386930 0.352063 0.106148
0.385342 0.352063 0.105298
0.383754 0.352063 0.104448
0.382165 0.352063 0.103598
0.380707 0.353233 0.101739
0.379120 0.353233 0.100889
0.377401 0.352063 0.101047
0.375813 0.352063 0.100197
0.374224 0.352063 0.099347
0.372636 0.352063 0.098497
0.371048 0.352063 0.097647
0.369460 0.352063 0.096797
0.367871 0.352063 0.095947
0.366283 0.352063 0.095097
0.364695 0.352063 0.094247
0.363107 0.352063 0.093397
0.361518 0.352063 0.092547
0.359930 0.352063 0.091697
0.358342 0.352063 0.090847
0.356601 0.350891 0.090995
0.355012 0.350891 0.090144
0.353422 0.350891 0.089294
0.351832 0.350891 0.088443
0.350243 0.350891 0.087592
0.348813 0.352063 0.085746
0.347224 0.352063 0.084896
0.345473 0.350891 0.085039
0.343884 0.350891 0.084188
0.342294 0.350891 0.083337
0.340704 0.350891 0.082487
0.339115 0.350891 0.081636
0.337525 0.350891 0.080785
0.335763 0.349717 0.080924
0.334172 0.349717 0.080073
0.332405 0.348540 0.080211
0.330812 0.348540 0.079359
0.328862 0.346180 0.080490
0.327085 0.344997 0.080629
0.325305 0.343811 0.080769
0.323336 0.341433 0.081907
0.321548 0.340241 0.082049
0.319377 0.336650 0.084196
0.317386 0.334244 0.085347
0.315193 0.330619 0.087514
0.313184 0.328191 0.088677
0.310968 0.324531 0.090864
0.308942 0.322079 0.092039
0.306703 0.318383 0.094246
0.304451 0.314666 0.096467
0.302396 0.312176 0.097662
0.300121 0.308423 0.099903
0.297832 0.304648 0.102157
0.295529 0.300850 0.104425
0.293214 0.297030 0.106705
0.290884 0.293188 0.109000
0.288541 0.289322 0.111308
0.286183 0.285434 0.113629
0.283578 0.280213 0.117046
0.281190 0.276270 0.119402
0.278787 0.272304 0.121771
0.276369 0.268313 0.124155
0.273937 0.264299 0.126553
0.271240 0.258908 0.130077
0.269028 0.256196 0.131392
0.267063 0.254836 0.131594
0.265093 0.253474 0.131795
0.263379 0.253474 0.130878
0.261404 0.252108 0.131079
0.259424 0.250740 0.131281
0.257441 0.249369 0.131483
0.255454 0.247995 0.131685
0.253462 0.246618 0.131888
0.251467 0.245238 0.132092
0.249467 0.243856 0.132295
0.247186 0.241083 0.133630
0.244895 0.238298 0.134970
0.242594 0.235502 0.136316
0.239709 0.229875 0.139957
0.237384 0.227044 0.141322
0.235049 0.224201 0.142692
0.232704 0.221347 0.144067
0.230350 0.218480 0.145449
0.227985 0.215602 0.146836
0.225611 0.212711 0.148229
0.223227 0.209809 0.149628
0.220832 0.206894 0.151033
0.217158 0.198075 0.157193
0.212786 0.186142 0.165851
0.208673 0.175531 0.173428
0.203815 0.161652 0.183618
0.196390 0.136297 0.203011
0.177581 0.059927 0.263325
0.175220 0.058139 0.263710
0.172855 0.056347 0.264095
0.170483 0.054551 0.264482
0.168107 0.052750 0.264869
0.166136 0.052750 0.263814
0.163751 0.050945 0.264201
0.161361 0.049136 0.264589
0.158965 0.047323 0.264977
0.156988 0.047323 0.263919
0.154584 0.045506 0.264307
0.152174 0.043684 0.264697
0.149759 0.041858 0.265087
0.147338 0.040028 0.265478
0.144912 0.038193 0.265870
0.142480 0.036354 0.266263
0.140488 0.036354 0.265197
0.138048 0.034511 0.265590
0.135602 0.032663 0.265983
0.133150 0.030811 0.266377
0.130692 0.028954 0.266773
0.127764 0.025228 0.268640
0.125291 0.023359 0.269040
0.122813 0.021485 0.269440
0.120328 0.019606 0.269841
0.117837 0.017723 0.270244
0.114858 0.013943 0.272133
0.112351 0.012046 0.272539
0.109839 0.010145 0.272947
0.106826 0.006328 0.274851
0.104298 0.004413 0.275263
0.101764 0.002494 0.275676
0.099224 0.000570 0.276089
0.096677 -0.001359 0.276504
0.093095 -0.007174 0.279946
0.090009 -0.011075 0.281888
0.087432 -0.013032 0.282313
0.084321 -0.016961 0.284268
0.081728 -0.018932 0.284698
0.078591 -0.022890 0.286666
0.075438 -0.026867 0.288644
0.072270 -0.030864 0.290631
0.069640 -0.032870 0.291072
0.066446 -0.036896 0.293073
0.062105 -0.045009 0.298226
0.058295 -0.051147 0.301844
0.054457 -0.057330 0.305488
0.050001 -0.065648 0.310769
0.073428 0.195111 0.082996
0.075397 0.206894 0.073191
0.075022 0.211262 0.068965
0.074185 0.214158 0.065848
0.073352 0.217043 0.062743
0.072522 0.219915 0.059652
0.071231 0.221347 0.057641
0.070408 0.224201 0.054570
0.069123 0.225624 0.052571
0.068307 0.228461 0.049520
0.067028 0.229875 0.047533
0.066219 0.232694 0.044501
0.065413 0.235502 0.041483
0.064144 0.236902 0.039513
0.062877 0.238298 0.037548
0.062082 0.241083 0.034556
0.060821 0.242471 0.032602
0.060032 0.245238 0.029630
0.058777 0.246618 0.027687
0.057995 0.249369 0.024733
0.056746 0.250740 0.022801
0.055500 0.252108 0.020873
0.054727 0.254836 0.017945
0.053487 0.256196 0.016028
0.052721 0.258908 0.013118
0.051486 0.260260 0.011212
0.050727 0.262955 0.008321
0.049498 0.264299 0.006425
0.048271 0.265640 0.004533
0.047521 0.268313 0.001667
0.046300 0.269646 -0.000214
0.045556 0.272304 -0.003062
0.044341 0.273629 -0.004933
0.043603 0.276270 -0.007762
0.042394 0.277587 -0.009624
0.041662 0.280213 -0.012435
0.039982 0.280213 -0.013334
0.038780 0.281522 -0.015184
0.038534 0.285434 -0.018921
0.037338 0.286733 -0.020758
0.036621 0.289322 -0.023528
0.035430 0.290613 -0.025355
0.034719 0.293188 -0.028108
0.033534 0.294471 -0.029925
0.032351 0.295752 -0.031739
0.031649 0.298306 -0.034468
0.030472 0.299579 -0.036272
0.029775 0.302118 -0.038985
0.028603 0.303384 -0.040779
0.027912 0.305909 -0.043475
0.026745 0.307167 -0.045259
0.026060 0.309676 -0.047939
0.024898 0.310928 -0.049713
0.023739 0.312176 -0.051485
0.023062 0.314666 -0.054142
0.021908 0.315908 -0.055904
0.021237 0.318383 -0.058544
0.020088 0.319618 -0.060297
0.019422 0.322079 -0.062921
0.018278 0.323306 -0.064665
0.017136 0.324531 -0.066405
0.016479 0.326973 -0.069007
0.015342 0.328191 -0.070738
0.014690 0.330619 -0.073325
0.013558 0.331830 -0.075047
0.012911 0.334244 -0.077618
0.011784 0.335448 -0.079331
0.011142 0.337849 -0.081887
0.010020 0.339046 -0.083590
0.008900 0.340241 -0.085291
0.008266 0.342623 -0.087826
0.007151 0.343811 -0.089517
0.006038 0.344997 -0.091206
0.005412 0.347361 -0.093720
0.004304 0.348540 -0.095399
0.003198 0.349717 -0.097076
0.002580 0.352063 -0.099569
0.001478 0.353233 -0.101237
0.000379 0.354401 -0.102902
-0.000232 0.356730 -0.105375
-0.001326 0.357891 -0.107031
-0.001932 0.360207 -0.109490
-0.003022 0.361362 -0.111137
-0.003623 0.363665 -0.113581
-0.004708 0.364814 -0.115221
-0.005792 0.365960 -0.116857
-0.006873 0.367104 -0.118490
-0.007952 0.368246 -0.120120
-0.009520 0.368246 -0.120959
-0.010596 0.369386 -0.122585
-0.011670 0.370523 -0.124209
-0.012742 0.371659 -0.125829
-0.013812 0.372792 -0.127446
-0.015374 0.372792 -0.128282
-0.016440 0.373924 -0.129896
-0.018000 0.373924 -0.130731
-0.019561 0.373924 -0.131566
-0.021121 0.373924 -0.132401
-0.022181 0.375053 -0.134009
-0.023740 0.375053 -0.134844
-0.025299 0.375053 -0.135678
-0.026858 0.375053 -0.136512
-0.028417 0.375053 -0.137347
-0.029976 0.375053 -0.138181
-0.031535 0.375053 -0.139015
-0.033093 0.375053 -0.139850
-0.034652 0.375053 -0.140684
-0.035699 0.376180 -0.142283
-0.037257 0.376180 -0.143117
-0.038814 0.376180 -0.143950
-0.040371 0.376180 -0.144784
-0.041929 0.376180 -0.145617
-0.043486 0.376180 -0.146451
-0.045044 0.376180 -0.147285
-0.046080 0.377305 -0.148876
-0.047636 0.377305 -0.149709
-0.048669 0.378428 -0.151297
-0.050223 0.378428 -0.152129
-0.051778 0.378428 -0.152961
-0.053860 0.377305 -0.153040
-0.055416 0.377305 -0.153873
-0.056972 0.377305 -0.154706
-0.057996 0.378428 -0.156289
-0.059551 0.378428 -0.157121
-0.061105 0.378428 -0.157953
-0.062660 0.378428 -0.158785
-0.064214 0.378428 -0.159617
-0.065769 0.378428 -0.160449
-0.067323 0.378428 -0.161281
-0.068878 0.378428 -0.162113
-0.069890 0.379549 -0.163688
-0.071444 0.379549 -0.164520
-0.072453 0.380668 -0.166091
-0.074004 0.380668 -0.166921
-0.075556 0.380668 -0.167752
-0.077108 0.380668 -0.168583
-0.078659 0.380668 -0.169413
-0.080211 0.380668 -0.170244
-0.081763 0.380668 -0.171074
-0.083314 0.380668 -0.171905
-0.084866 0.380668 -0.172735
-0.086418 0.380668 -0.173566
-0.087970 0.380668 -0.174396
-0.089521 0.380668 -0.175227
-0.091073 0.380668 -0.176057
-0.092625 0.380668 -0.176888
-0.093613 0.381785 -0.178446
-0.095164 0.381785 -0.179276
-0.096714 0.381785 -0.180106
-0.098264 0.381785 -0.180935
-0.099814 0.381785 -0.181765
-0.100796 0.382900 -0.183318
-0.102915 0.381785 -0.183425
-0.104465 0.381785 -0.184254
-0.106016 0.381785 -0.185084
-0.107566 0.381785 -0.185914
-0.109116 0.381785 -0.186744
-0.110666 0.381785 -0.187573
-0.112217 0.381785 -0.188403
-0.113767 0.381785 -0.189233
-0.115317 0.381785 -0.190063
-0.117452 0.380668 -0.190176
-0.119004 0.380668 -0.191007
-0.120555 0.380668 -0.191837
-0.122107 0.380668 -0.192668
-0.123659 0.380668 -0.193498
-0.125803 0.379549 -0.193615
-0.127356 0.379549 -0.194446
-0.129506 0.378428 -0.194563
-0.131060 0.378428 -0.195395
-0.133215 0.377305 -0.195514
-0.134771 0.377305 -0.196347
-0.136327 0.377305 -0.197180
-0.138489 0.376180 -0.197300
-0.140047 0.376180 -0.198133
-0.142214 0.375053 -0.198255
-0.143773 0.375053 -0.199089
-0.145332 0.375053 -0.199923
-0.147506 0.373924 -0.200046
-0.149066 0.373924 -0.200882
-0.150627 0.373924 -0.201717
-0.152808 0.372792 -0.201841
-0.154993 0.371659 -0.201966
-0.156556 0.371659 -0.202803
-0.158747 0.370523 -0.202929
-0.160312 0.370523 -0.203767
-0.162508 0.369386 -0.203894
-0.164074 0.369386 -0.204732
-0.166276 0.368246 -0.204860
-0.167844 0.368246 -0.205699
-0.170051 0.367104 -0.205828
-0.171620 0.367104 -0.206668
-0.173833 0.365960 -0.206798
-0.175403 0.365960 -0.207639
-0.177622 0.364814 -0.207770
-0.179194 0.364814 -0.208611
-0.181418 0.363665 -0.208743
-0.182991 0.363665 -0.209585
-0.185221 0.362515 -0.209718
-0.186796 0.362515 -0.210561
-0.189031 0.361362 -0.210696
-0.190608 0.361362 -0.211539
-0.192849 0.360207 -0.211675
-0.194427 0.360207 -0.212519
-0.196673 0.359051 -0.212655
-0.198253 0.359051 -0.213501
-0.200505 0.357891 -0.213638
-0.202762 0.356730 -0.213776
-0.203667 0.357891 -0.215330
-0.205926 0.356730 -0.215469
-0.208190 0.355567 -0.215609
-0.210458 0.354401 -0.215749
-0.212730 0.353233 -0.215889
-0.215007 0.352063 -0.216029
-0.217288 0.350891 -0.216169
-0.219573 0.349717 -0.216310
-0.221863 0.348540 -0.216451
-0.224157 0.347361 -0.216593
-0.226455 0.346180 -0.216734
-0.229466 0.343811 -0.216162
-0.231776 0.342623 -0.216304
-0.234805 0.340241 -0.215730
-0.237126 0.339046 -0.215871
-0.239452 0.337849 -0.216013
-0.242508 0.335448 -0.215436
-0.244846 0.334244 -0.215578
-0.247188 0.333038 -0.215720
-0.250270 0.330619 -0.215140
-0.252624 0.329406 -0.215282
-0.255726 0.326973 -0.214700
-0.258092 0.325753 -0.214842
-0.260463 0.324531 -0.214985
-0.263591 0.322079 -0.214400
-0.266732 0.319618 -0.213812
-0.269885 0.317147 -0.213223
-0.273050 0.314666 -0.212631
-0.276227 0.312176 -0.212037
-0.279417 0.309676 -0.211440
-0.282619 0.307167 -0.210841
-0.285834 0.304648 -0.210240
-0.289061 0.302118 -0.209637
-0.292301 0.299579 -0.209031
-0.295554 0.297030 -0.208423
-0.298015 0.295752 -0.208562
-0.301289 0.293188 -0.207951
-0.304575 0.290613 -0.207337
-0.307875 0.288029 -0.206722
-0.311188 0.285434 -0.206103
-0.315342 0.281522 -0.204722
-0.318686 0.278902 -0.204097
-0.322044 0.276270 -0.203469
-0.326260 0.272304 -0.202070
-0.332212 0.265640 -0.199114
-0.338224 0.258908 -0.196128
-0.346055 0.249369 -0.191528
-0.355794 0.236902 -0.185252
-0.364799 0.225624 -0.179678
0.441316 0.263205 0.214338
0.440401 0.276505 0.201620
0.439427 0.288249 0.190299
0.438155 0.294684 0.183702
0.436816 0.299786 0.178294
0.435488 0.304849 0.172928
0.434169 0.309872 0.167603
0.432861 0.314857 0.162320
0.431563 0.319802 0.157078
0.430276 0.324710 0.151876
0.428826 0.327150 0.148857
0.427469 0.330792 0.144782
0.426120 0.334413 0.140730
0.424689 0.336816 0.137755
0.423264 0.339209 0.134792
0.421752 0.340403 0.132885
0.420244 0.341594 0.130983
0.418832 0.343969 0.128043
0.417331 0.345153 0.126151
0.415832 0.346336 0.124261
0.414238 0.346336 0.123408
0.412743 0.347515 0.121523
0.411151 0.347515 0.120671
0.409661 0.348693 0.118791
0.408069 0.348693 0.117939
0.406478 0.348693 0.117087
0.404994 0.349868 0.115212
0.403404 0.349868 0.114361
0.401815 0.349868 0.113510
0.400336 0.351042 0.111640
0.398748 0.351042 0.110790
0.397160 0.351042 0.109940
0.395571 0.351042 0.109090
0.393983 0.351042 0.108240
0.392513 0.352213 0.106377
0.390927 0.352213 0.105527
0.389340 0.352213 0.104678
0.387753 0.352213 0.103829
0.386166 0.352213 0.102980
0.384580 0.352213 0.102130
0.382993 0.352213 0.101281
0.381406 0.352213 0.100432
0.379950 0.353381 0.098578
0.378365 0.353381 0.097729
0.376779 0.353381 0.096881
0.375194 0.353381 0.096032
0.373473 0.352213 0.096185
0.371886 0.352213 0.095336
0.370299 0.352213 0.094487
0.368712 0.352213 0.093638
0.367126 0.352213 0.092788
0.365539 0.352213 0.091939
0.363952 0.352213 0.091090
0.362366 0.352213 0.090241
0.360779 0.352213 0.089391
0.359192 0.352213 0.088542
0.357605 0.352213 0.087693
0.356019 0.352213 0.086843
0.354432 0.352213 0.085994
0.352845 0.352213 0.085145
0.351258 0.352213 0.084296
0.349513 0.351042 0.084438
0.347925 0.351042 0.083588
0.346336 0.351042 0.082738
0.344748 0.351042 0.081888
0.343160 0.351042 0.081038
0.341572 0.351042 0.080188
0.339983 0.351042 0.079338
0.338395 0.351042 0.078488
0.336807 0.351042 0.077637
0.335219 0.351042 0.076787
0.333631 0.351042 0.075937
0.331867 0.349868 0.076072
0.329922 0.347515 0.077195
0.328149 0.346336 0.077331
0.326374 0.345153 0.077467
0.324411 0.342782 0.078597
0.322627 0.341594 0.078735
0.320839 0.340403 0.078873
0.318858 0.338014 0.080010
0.316678 0.334413 0.082153
0.314680 0.332001 0.083301
0.312476 0.328366 0.085465
0.310461 0.325931 0.086625
0.308235 0.322261 0.088808
0.305996 0.318569 0.091004
0.303952 0.316097 0.092184
0.301690 0.312369 0.094400
0.299628 0.309872 0.095592
0.297342 0.306109 0.097829
0.295043 0.302323 0.100080
0.292951 0.299786 0.101292
0.290628 0.295963 0.103564
0.288291 0.292118 0.105849
0.285939 0.288249 0.108148
0.283341 0.283055 0.111533
0.280722 0.277820 0.114945
0.278323 0.273866 0.117296
0.275908 0.269888 0.119661
0.273480 0.265886 0.122041
0.271036 0.261860 0.124435
0.268831 0.259163 0.125735
0.266871 0.257810 0.125930
0.265164 0.257810 0.125016
0.263198 0.256454 0.125211
0.261490 0.256454 0.124296
0.259256 0.253735 0.125601
0.257278 0.252371 0.125796
0.255297 0.251004 0.125993
0.253581 0.251004 0.125074
0.251594 0.249635 0.125270
0.249602 0.248263 0.125466
0.247883 0.248263 0.124545
0.245607 0.245510 0.125859
0.243323 0.242745 0.127177
0.241313 0.241359 0.127376
0.239012 0.238578 0.128702
0.236702 0.235785 0.130033
0.234382 0.232981 0.131370
0.229667 0.218785 0.141900
0.227304 0.215910 0.143278
0.224930 0.213023 0.144662
0.222547 0.210124 0.146052
0.220154 0.207213 0.147448
0.217117 0.201354 0.151209
0.212758 0.189487 0.159789
0.208325 0.177415 0.168515
0.202448 0.158914 0.182381
0.195348 0.135098 0.200479
0.176086 0.056876 0.262093
0.174123 0.056876 0.261042
0.171755 0.055083 0.261424
0.169383 0.053285 0.261807
0.167005 0.051483 0.262191
0.164621 0.049677 0.262576
0.162648 0.049677 0.261520
0.160257 0.047866 0.261905
0.157860 0.046051 0.262290
0.155457 0.044232 0.262677
0.153048 0.042409 0.263064
0.151066 0.042409 0.262003
0.148650 0.040582 0.262390
0.145789 0.036914 0.264232
0.143800 0.036914 0.263167
0.141366 0.035073 0.263557
0.138927 0.033228 0.263947
0.136482 0.031379 0.264339
0.134031 0.029526 0.264731
0.131574 0.027667 0.265125
0.129111 0.025805 0.265519
0.126643 0.023938 0.265915
0.123699 0.020191 0.267784
0.121215 0.018311 0.268184
0.118725 0.016426 0.268584
0.115748 0.012643 0.270469
0.113243 0.010745 0.270873
0.110242 0.006935 0.272771
0.107721 0.005023 0.273179
0.105194 0.003106 0.273589
0.102661 0.001185 0.274000
0.100122 -0.000741 0.274412
0.097067 -0.004607 0.276331
0.093482 -0.010440 0.279776
0.090913 -0.012395 0.280198
0.087814 -0.016317 0.282146
0.084699 -0.020259 0.284103
0.081569 -0.024219 0.286070
0.078963 -0.026207 0.286503
0.075808 -0.030198 0.288483
0.072637 -0.034207 0.290472
0.068894 -0.040259 0.294034
0.065124 -0.046357 0.297622
0.060755 -0.054557 0.302824
0.056342 -0.062840 0.308078
0.079264 0.204290 0.074727
0.078877 0.208670 0.070492
0.078492 0.213023 0.066283
0.077189 0.214468 0.064257
0.076350 0.217349 0.061159
0.075515 0.220218 0.058075
0.074222 0.221648 0.056068
0.073394 0.224499 0.053003
0.072107 0.225920 0.051008
0.071286 0.228753 0.047963
0.070005 0.230165 0.045979
0.069191 0.232981 0.042954
0.067916 0.234385 0.040982
0.067108 0.237183 0.037976
0.065840 0.238578 0.036015
0.065039 0.241359 0.033029
0.063777 0.242745 0.031079
0.062983 0.245510 0.028112
0.061726 0.246888 0.026172
0.060472 0.248263 0.024237
0.059688 0.251004 0.021296
0.058440 0.252371 0.019372
0.057662 0.255096 0.016450
0.056420 0.256454 0.014536
0.055649 0.259163 0.011633
0.054413 0.260513 0.009730
0.053648 0.263205 0.006845
0.052417 0.264547 0.004952
0.051189 0.265886 0.003064
0.050434 0.268557 0.000204
0.049211 0.269888 -0.001675
0.048462 0.272543 -0.004516
0.047245 0.273866 -0.006384
0.046502 0.276505 -0.009208
0.045291 0.277820 -0.011066
0.044082 0.279133 -0.012920
0.043820 0.283055 -0.016667
0.042145 0.283055 -0.017563
0.041418 0.285657 -0.020345
0.040220 0.286955 -0.022179
0.039498 0.289541 -0.024944
0.038306 0.290831 -0.026768
0.037590 0.293402 -0.029515
0.036403 0.294684 -0.031329
0.035219 0.295963 -0.033139
0.034512 0.298515 -0.035864
0.033332 0.299786 -0.037664
0.032631 0.302323 -0.040372
0.031457 0.303587 -0.042162
0.030762 0.306109 -0.044853
0.029593 0.307366 -0.046634
0.028427 0.308620 -0.048412
0.027740 0.311122 -0.051080
0.026579 0.312369 -0.052849
0.025897 0.314857 -0.055500
0.024741 0.316097 -0.057259
0.024065 0.318569 -0.059895
0.022914 0.319802 -0.061644
0.022244 0.322261 -0.064264
0.021098 0.323487 -0.066004
0.019955 0.324710 -0.067741
0.019293 0.327150 -0.070339
0.018154 0.328366 -0.072067
0.017497 0.330792 -0.074648
0.016364 0.332001 -0.076367
0.015712 0.334413 -0.078934
0.014583 0.335616 -0.080643
0.013457 0.336816 -0.082350
0.012813 0.339209 -0.084895
0.011692 0.340403 -0.086593
0.010572 0.341594 -0.088287
0.009937 0.343969 -0.090811
0.008822 0.345153 -0.092497
0.007709 0.346336 -0.094179
0.007082 0.348693 -0.096683
0.005974 0.349868 -0.098357
0.004868 0.351042 -0.100027
0.004248 0.353381 -0.102511
0.003147 0.354548 -0.104172
0.002048 0.355712 -0.105831
0.001436 0.358035 -0.108294
0.000826 0.360348 -0.110748
-0.000266 0.361502 -0.112393
-0.001356 0.362653 -0.114035
-0.001958 0.364950 -0.116469
-0.003043 0.366095 -0.118103
-0.004126 0.367238 -0.119733
-0.005694 0.367238 -0.120572
-0.006773 0.368378 -0.122199
-0.007851 0.369517 -0.123822
-0.008926 0.370653 -0.125443
-0.010000 0.371788 -0.127061
-0.011562 0.371788 -0.127897
-0.012141 0.374050 -0.130287
-0.013700 0.374050 -0.131121
-0.014766 0.375178 -0.132729
-0.016323 0.375178 -0.133563
-0.017881 0.375178 -0.134396
-0.019438 0.375178 -0.135230
-0.020996 0.375178 -0.136064
-0.022553 0.375178 -0.136897
-0.024111 0.375178 -0.137731
-0.025668 0.375178 -0.138564
-0.027225 0.375178 -0.139398
-0.028783 0.375178 -0.140232
-0.030340 0.375178 -0.141065
-0.031898 0.375178 -0.141899
-0.032946 0.376304 -0.143495
-0.034502 0.376304 -0.144328
-0.036058 0.376304 -0.145161
-0.037614 0.376304 -0.145994
-0.039170 0.376304 -0.146826
-0.040726 0.376304 -0.147659
-0.042282 0.376304 -0.148492
-0.043320 0.377428 -0.150081
-0.044874 0.377428 -0.150913
-0.046429 0.377428 -0.151745
-0.047462 0.378550 -0.153330
-0.049015 0.378550 -0.154161
-0.050568 0.378550 -0.154992
-0.052647 0.377428 -0.155073
-0.054202 0.377428 -0.155905
-0.055228 0.378550 -0.157486
-0.056781 0.378550 -0.158317
-0.058334 0.378550 -0.159149
-0.059887 0.378550 -0.159980
-0.061440 0.378550 -0.160811
-0.062993 0.378550 -0.161642
-0.064546 0.378550 -0.162474
-0.066099 0.378550 -0.163305
-0.067113 0.379670 -0.164877
-0.068665 0.379670 -0.165708
-0.070217 0.379670 -0.166538
-0.071226 0.380788 -0.168106
-0.072776 0.380788 -0.168936
-0.074327 0.380788 -0.169766
-0.075877 0.380788 -0.170596
-0.077427 0.380788 -0.171425
-0.078978 0.380788 -0.172255
-0.080528 0.380788 -0.173085
-0.082078 0.380788 -0.173915
-0.083628 0.380788 -0.174744
-0.085179 0.380788 -0.175574
-0.086729 0.380788 -0.176404
-0.088279 0.380788 -0.177234
-0.089271 0.381904 -0.178790
-0.090820 0.381904 -0.179619
-0.092369 0.381904 -0.180448
-0.093917 0.381904 -0.181277
-0.095466 0.381904 -0.182106
-0.096451 0.383017 -0.183657
-0.097998 0.383017 -0.184486
-0.099545 0.383017 -0.185314
-0.101662 0.381904 -0.185422
-0.103211 0.381904 -0.186251
-0.104759 0.381904 -0.187080
-0.106308 0.381904 -0.187909
-0.107283 0.383017 -0.189455
-0.108830 0.383017 -0.190283
-0.110955 0.381904 -0.190396
-0.112504 0.381904 -0.191225
-0.114052 0.381904 -0.192054
-0.116184 0.380788 -0.192169
-0.117734 0.380788 -0.192999
-0.119285 0.380788 -0.193829
-0.120835 0.380788 -0.194659
-0.122385 0.380788 -0.195488
-0.124526 0.379670 -0.195607
-0.126078 0.379670 -0.196437
-0.128225 0.378550 -0.196556
-0.129778 0.378550 -0.197388
-0.131331 0.378550 -0.198219
-0.133484 0.377428 -0.198340
-0.135039 0.377428 -0.199172
-0.137197 0.376304 -0.199294
-0.138753 0.376304 -0.200127
-0.140309 0.376304 -0.200960
-0.142475 0.375178 -0.201083
-0.144032 0.375178 -0.201917
-0.146204 0.374050 -0.202042
-0.147762 0.374050 -0.202876
-0.149321 0.374050 -0.203710
-0.150880 0.374050 -0.204545
-0.153681 0.371788 -0.203964
-0.155243 0.371788 -0.204800
-0.157431 0.370653 -0.204927
-0.158994 0.370653 -0.205764
-0.161187 0.369517 -0.205893
-0.162751 0.369517 -0.206730
-0.164950 0.368378 -0.206860
-0.166516 0.368378 -0.207698
-0.168720 0.367238 -0.207829
-0.170288 0.367238 -0.208668
-0.172497 0.366095 -0.208800
-0.174066 0.366095 -0.209640
-0.176282 0.364950 -0.209773
-0.177852 0.364950 -0.210613
-0.179422 0.364950 -0.211454
-0.181645 0.363803 -0.211588
-0.183871 0.362653 -0.211723
-0.185445 0.362653 -0.212565
-0.187677 0.361502 -0.212701
-0.189251 0.361502 -0.213544
-0.191489 0.360348 -0.213681
-0.193066 0.360348 -0.214525
-0.195309 0.359193 -0.214663
-0.196887 0.359193 -0.215508
-0.199136 0.358035 -0.215647
-0.200715 0.358035 -0.216492
-0.202294 0.358035 -0.217337
-0.205229 0.355712 -0.216773
-0.206811 0.355712 -0.217620
-0.209076 0.354548 -0.217761
-0.211344 0.353381 -0.217903
-0.213618 0.352213 -0.218045
-0.215895 0.351042 -0.218187
-0.218177 0.349868 -0.218330
-0.220463 0.348693 -0.218472
-0.222753 0.347515 -0.218616
-0.225048 0.346336 -0.218759
-0.227347 0.345153 -0.218902
-0.230360 0.342782 -0.218335
-0.232670 0.341594 -0.218479
-0.234985 0.340403 -0.218622
-0.238024 0.338014 -0.218052
-0.240351 0.336816 -0.218196
-0.243408 0.334413 -0.217623
-0.245747 0.333208 -0.217767
-0.248090 0.332001 -0.217911
-0.251173 0.329580 -0.217336
-0.253528 0.328366 -0.217480
-0.256632 0.325931 -0.216902
-0.258999 0.324710 -0.217046
-0.262122 0.322261 -0.216466
-0.265256 0.319802 -0.215883
-0.268403 0.317334 -0.215298
-0.271562 0.314857 -0.214711
-0.274734 0.312369 -0.214121
-0.277144 0.311122 -0.214264
-0.280335 0.308620 -0.213672
-0.283539 0.306109 -0.213077
-0.286756 0.303587 -0.212481
-0.289985 0.301056 -0.211882
-0.293227 0.298515 -0.211280
-0.296481 0.295963 -0.210676
-0.299749 0.293402 -0.210070
-0.303029 0.290831 -0.209461
-0.305507 0.289541 -0.209602
-0.308809 0.286955 -0.208991
-0.312123 0.284358 -0.208377
-0.316281 0.280443 -0.207003
-0.319627 0.277820 -0.206382
-0.322986 0.275187 -0.205759
-0.328053 0.269888 -0.203599
-0.333162 0.264547 -0.201422
-0.339178 0.257810 -0.198448
-0.347900 0.246888 -0.193073
-0.356765 0.235785 -0.187610
0.442448 0.268800 0.207006
0.441603 0.283281 0.193269
0.440471 0.292333 0.184359
0.439121 0.297450 0.178943
0.437782 0.302527 0.173569
0.436454 0.307564 0.168237
0.435136 0.312562 0.162947
0.433828 0.317521 0.157697
0.432447 0.321216 0.153569
0.431158 0.326109 0.148390
0.429710 0.328541 0.145384
0.428353 0.332172 0.141326
0.427004 0.335782 0.137292
0.425486 0.336981 0.135380
0.423971 0.338178 0.133471
0.422550 0.340564 0.130521
0.421042 0.341754 0.128623
0.419537 0.342942 0.126728
0.418034 0.344127 0.124836
0.416631 0.346491 0.121917
0.415136 0.347669 0.120035
0.413545 0.347669 0.119183
0.411953 0.347669 0.118332
0.410464 0.348846 0.116455
0.408874 0.348846 0.115604
0.407284 0.348846 0.114754
0.405801 0.350020 0.112882
0.404213 0.350020 0.112032
0.402624 0.350020 0.111182
0.401147 0.351192 0.109316
0.399560 0.351192 0.108467
0.397973 0.351192 0.107618
0.396386 0.351192 0.106768
0.394800 0.351192 0.105919
0.393213 0.351192 0.105070
0.391745 0.352362 0.103211
0.390160 0.352362 0.102363
0.388575 0.352362 0.101514
0.386990 0.352362 0.100666
0.385404 0.352362 0.099817
0.383819 0.352362 0.098969
0.382234 0.352362 0.098120
0.380649 0.352362 0.097272
0.379063 0.352362 0.096423
0.377610 0.353529 0.094575
0.376027 0.353529 0.093727
0.374443 0.353529 0.092879
0.372859 0.353529 0.092032
0.371275 0.353529 0.091184
0.369692 0.353529 0.090336
0.368108 0.353529 0.089489
0.366524 0.353529 0.088641
0.364796 0.352362 0.088787
0.363211 0.352362 0.087939
0.361626 0.352362 0.087090
0.360041 0.352362 0.086242
0.358455 0.352362 0.085393
0.356870 0.352362 0.084545
0.355285 0.352362 0.083696
0.353700 0.352362 0.082848
0.352114 0.352362 0.081999
0.350529 0.352362 0.081151
0.348944 0.352362 0.080302
0.347359 0.352362 0.079454
0.345773 0.352362 0.078605
0.344188 0.352362 0.077757
0.342603 0.352362 0.076908
0.341018 0.352362 0.076060
0.339264 0.351192 0.076195
0.337847 0.352362 0.074363
0.336262 0.352362 0.073515
0.334504 0.351192 0.073647
0.332743 0.350020 0.073779
0.330978 0.348846 0.073912
0.329210 0.347669 0.074045
0.327438 0.346491 0.074178
0.325664 0.345310 0.074311
0.323702 0.342942 0.075434
0.321918 0.341754 0.075569
0.319943 0.339372 0.076697
0.318151 0.338178 0.076833
0.316164 0.335782 0.077967
0.313973 0.332172 0.080107
0.311770 0.328541 0.082259
0.309755 0.326109 0.083411
0.307529 0.322442 0.085583
0.305496 0.319987 0.086748
0.303247 0.316285 0.088940
0.301196 0.313805 0.090117
0.298924 0.310068 0.092330
0.296638 0.306308 0.094555
0.294558 0.303790 0.095752
0.292248 0.299993 0.097998
0.290149 0.297450 0.099208
0.287815 0.293616 0.101476
0.285467 0.289760 0.103757
0.283105 0.285880 0.106052
0.280730 0.281978 0.108360
0.278100 0.276738 0.111760
0.275693 0.272781 0.114101
0.273271 0.268800 0.116457
0.270834 0.264795 0.118827
0.268635 0.262111 0.120111
0.266934 0.262111 0.119201
0.264979 0.260766 0.119389
0.263019 0.259417 0.119577
0.261315 0.259417 0.118666
0.259088 0.256712 0.119955
0.257116 0.255355 0.120144
0.255407 0.255355 0.119230
0.253430 0.253996 0.119419
0.251449 0.252633 0.119608
0.249736 0.252633 0.118691
0.247749 0.251268 0.118880
0.245758 0.249901 0.119069
0.243763 0.248530 0.119258
0.241763 0.247157 0.119448
0.239760 0.245780 0.119638
0.237466 0.243020 0.120943
0.235162 0.240247 0.122253
0.232849 0.237464 0.123568
0.230822 0.236068 0.123764
0.228492 0.233267 0.125087
0.226153 0.230455 0.126415
0.219163 0.206074 0.145040
0.216440 0.201680 0.147613
0.212406 0.191321 0.154957
0.207979 0.179291 0.163624
0.201423 0.157735 0.179889
0.193588 0.130662 0.200532
0.174988 0.055613 0.259424
0.172622 0.053818 0.259805
0.170656 0.053818 0.258753
0.168282 0.052019 0.259133
0.165903 0.050215 0.259514
0.163933 0.050215 0.258459
0.161545 0.048408 0.258840
0.159152 0.046596 0.259221
0.156754 0.044780 0.259603
0.154350 0.042959 0.259987
0.151940 0.041134 0.260371
0.149090 0.037472 0.262205
0.146666 0.035634 0.262593
0.144677 0.035634 0.261529
0.142244 0.033792 0.261917
0.139806 0.031946 0.262305
0.137362 0.030095 0.262695
0.134912 0.028240 0.263085
0.132456 0.026380 0.263477
0.129533 0.022648 0.265336
0.127062 0.020775 0.265732
0.124585 0.018898 0.266128
0.122102 0.017016 0.266526
0.119137 0.013239 0.268403
0.116639 0.011344 0.268805
0.114134 0.009444 0.269208
0.111135 0.005631 0.271101
0.108616 0.003717 0.271508
0.105593 -0.000124 0.273413
0.103057 -0.002051 0.273824
0.100515 -0.003983 0.274236
0.096947 -0.009808 0.277670
0.093870 -0.013714 0.279606
0.090777 -0.017640 0.281553
0.087670 -0.021585 0.283508
0.084547 -0.025549 0.285473
0.081945 -0.027538 0.285906
0.078797 -0.031532 0.287884
0.075633 -0.035545 0.289873
0.071349 -0.043631 0.294997
0.067583 -0.049749 0.298593
0.063221 -0.057976 0.303807
0.081298 0.195779 0.080694
0.082740 0.206074 0.072022
0.082342 0.210439 0.067804
0.081491 0.213335 0.064692
0.080186 0.214778 0.062670
0.079342 0.217655 0.059579
0.078044 0.219089 0.057568
0.077207 0.221948 0.054497
0.076373 0.224795 0.051439
0.075085 0.226215 0.049448
0.074258 0.229045 0.046409
0.072976 0.230455 0.044429
0.072156 0.233267 0.041410
0.070880 0.234669 0.039441
0.070067 0.237464 0.036442
0.068797 0.238857 0.034484
0.067991 0.241635 0.031505
0.066727 0.243020 0.029558
0.065927 0.245780 0.026597
0.064669 0.247157 0.024661
0.063413 0.248530 0.022729
0.062624 0.251268 0.019795
0.061374 0.252633 0.017874
0.060591 0.255355 0.014958
0.059348 0.256712 0.013047
0.058571 0.259417 0.010150
0.057333 0.260766 0.008250
0.056563 0.263455 0.005372
0.055331 0.264795 0.003482
0.054101 0.266133 0.001597
0.053341 0.268800 -0.001257
0.052117 0.270130 -0.003132
0.051362 0.272781 -0.005968
0.050144 0.274103 -0.007833
0.049396 0.276738 -0.010651
0.048183 0.278052 -0.012505
0.046973 0.279363 -0.014356
0.046702 0.283281 -0.018095
0.045498 0.284582 -0.019933
0.044296 0.285880 -0.021767
0.043097 0.287176 -0.023597
0.042370 0.289760 -0.026357
0.041176 0.291048 -0.028177
0.040455 0.293616 -0.030919
0.039267 0.294897 -0.032730
0.038081 0.296174 -0.034537
0.037369 0.298723 -0.037256
0.036188 0.299993 -0.039054
0.035482 0.302527 -0.041755
0.034306 0.303790 -0.043543
0.033606 0.306308 -0.046229
0.032435 0.307564 -0.048007
0.031267 0.308817 -0.049782
0.030576 0.311316 -0.052444
0.029413 0.312562 -0.054210
0.028727 0.315046 -0.056856
0.027569 0.316285 -0.058612
0.026888 0.318755 -0.061242
0.025736 0.319987 -0.062989
0.025061 0.322442 -0.065603
0.023913 0.323667 -0.067341
0.022768 0.324889 -0.069075
0.022101 0.327326 -0.071667
0.020961 0.328541 -0.073392
0.020299 0.330964 -0.075969
0.019164 0.332172 -0.077685
0.018508 0.334581 -0.080246
0.017378 0.335782 -0.081953
0.016250 0.336981 -0.083657
0.015601 0.339372 -0.086197
0.014478 0.340564 -0.087892
0.013357 0.341754 -0.089584
0.012238 0.342942 -0.091272
0.011601 0.345310 -0.093786
0.010486 0.346491 -0.095465
0.009374 0.347669 -0.097142
0.008745 0.350020 -0.099635
0.007637 0.351192 -0.101303
0.006532 0.352362 -0.102968
0.005910 0.354695 -0.105441
0.004810 0.355858 -0.107097
0.004193 0.358178 -0.109555
0.003097 0.359334 -0.111203
0.002485 0.361641 -0.113647
0.001394 0.362791 -0.115286
0.000304 0.363939 -0.116922
-0.000783 0.365085 -0.118555
-0.001868 0.366229 -0.120185
-0.002951 0.367371 -0.121812
-0.004032 0.368510 -0.123436
-0.005111 0.369648 -0.125057
-0.006674 0.369648 -0.125894
-0.007263 0.371916 -0.128290
-0.008823 0.371916 -0.129125
-0.009895 0.373048 -0.130737
-0.010965 0.374177 -0.132345
-0.012032 0.375304 -0.133950
-0.013588 0.375304 -0.134783
-0.015144 0.375304 -0.135616
-0.016700 0.375304 -0.136449
-0.018256 0.375304 -0.137281
-0.019812 0.375304 -0.138114
-0.021368 0.375304 -0.138947
-0.022924 0.375304 -0.139780
-0.024480 0.375304 -0.140613
-0.026036 0.375304 -0.141445
-0.027592 0.375304 -0.142278
-0.029148 0.375304 -0.143111
-0.030198 0.376429 -0.144705
-0.031753 0.376429 -0.145537
-0.033307 0.376429 -0.146369
-0.034862 0.376429 -0.147201
-0.036416 0.376429 -0.148033
-0.037971 0.376429 -0.148865
-0.039525 0.376429 -0.149697
-0.040565 0.377551 -0.151284
-0.042118 0.377551 -0.152115
-0.043671 0.377551 -0.152946
-0.045224 0.377551 -0.153778
-0.046257 0.378672 -0.155359
-0.047809 0.378672 -0.156189
-0.049361 0.378672 -0.157020
-0.050912 0.378672 -0.157850
-0.052464 0.378672 -0.158681
-0.054016 0.378672 -0.159511
-0.055568 0.378672 -0.160342
-0.057119 0.378672 -0.161172
-0.058671 0.378672 -0.162003
-0.060223 0.378672 -0.162833
-0.061774 0.378672 -0.163664
-0.063326 0.378672 -0.164494
-0.064342 0.379791 -0.166064
-0.065892 0.379791 -0.166894
-0.067442 0.379791 -0.167724
-0.068992 0.379791 -0.168554
-0.070002 0.380907 -0.170118
-0.071551 0.380907 -0.170947
-0.073100 0.380907 -0.171776
-0.074649 0.380907 -0.172605
-0.075652 0.382022 -0.174165
-0.077199 0.382022 -0.174993
-0.079295 0.380907 -0.175092
-0.080844 0.380907 -0.175921
-0.082393 0.380907 -0.176750
-0.083942 0.380907 -0.177579
-0.084936 0.382022 -0.179134
-0.086484 0.382022 -0.179962
-0.088031 0.382022 -0.180791
-0.089579 0.382022 -0.181619
-0.091126 0.382022 -0.182447
-0.092674 0.382022 -0.183275
-0.093660 0.383135 -0.184824
-0.095206 0.383135 -0.185651
-0.096752 0.383135 -0.186479
-0.098298 0.383135 -0.187306
-0.100411 0.382022 -0.187417
-0.101958 0.382022 -0.188245
-0.103506 0.382022 -0.189073
-0.105053 0.382022 -0.189901
-0.106028 0.383135 -0.191443
-0.107574 0.383135 -0.192271
-0.109120 0.383135 -0.193098
-0.110666 0.383135 -0.193926
-0.112790 0.382022 -0.194042
-0.114338 0.382022 -0.194871
-0.115885 0.382022 -0.195699
-0.118016 0.380907 -0.195817
-0.118980 0.382022 -0.197355
-0.121114 0.380907 -0.197475
-0.122663 0.380907 -0.198304
-0.124802 0.379791 -0.198425
-0.126353 0.379791 -0.199255
-0.128497 0.378672 -0.199376
-0.130049 0.378672 -0.200207
-0.132199 0.377551 -0.200329
-0.133752 0.377551 -0.201161
-0.135305 0.377551 -0.201992
-0.137462 0.376429 -0.202117
-0.139017 0.376429 -0.202949
-0.141180 0.375304 -0.203074
-0.142735 0.375304 -0.203907
-0.144903 0.374177 -0.204033
-0.146461 0.374177 -0.204867
-0.148018 0.374177 -0.205701
-0.149576 0.374177 -0.206534
-0.151133 0.374177 -0.207368
-0.153932 0.371916 -0.206792
-0.155492 0.371916 -0.207627
-0.157678 0.370783 -0.207758
-0.159240 0.370783 -0.208594
-0.161431 0.369648 -0.208725
-0.162994 0.369648 -0.209562
-0.165191 0.368510 -0.209694
-0.166756 0.368510 -0.210531
-0.168958 0.367371 -0.210665
-0.170524 0.367371 -0.211503
-0.172732 0.366229 -0.211637
-0.174299 0.366229 -0.212476
-0.176513 0.365085 -0.212612
-0.178082 0.365085 -0.213451
-0.180301 0.363939 -0.213588
-0.181871 0.363939 -0.214428
-0.184096 0.362791 -0.214566
-0.185668 0.362791 -0.215407
-0.187898 0.361641 -0.215546
-0.189471 0.361641 -0.216388
