ply
format ascii 1.0
element vertex 1673
property float x
property float y
property float z
end_header
-0.034668 0.019696 -0.490804
-0.036773 0.019373 -0.490112
-0.038378 0.019373 -0.490585
-0.039984 0.019373 -0.491057
-0.042095 0.019049 -0.490365
-0.043702 0.019049 -0.490838
-0.045819 0.018725 -0.490146
-0.047427 0.018725 -0.490619
-0.049549 0.018400 -0.489925
-0.051159 0.018400 -0.490399
-0.053285 0.018074 -0.489705
-0.054897 0.018074 -0.490179
-0.057028 0.017748 -0.489484
-0.058641 0.017748 -0.489959
-0.060254 0.017748 -0.490434
-0.062392 0.017422 -0.489738
-0.064006 0.017422 -0.490213
-0.066150 0.017095 -0.489516
-0.067765 0.017095 -0.489992
-0.069381 0.017095 -0.490468
-0.071531 0.016767 -0.489771
-0.073148 0.016767 -0.490247
-0.075303 0.016439 -0.489549
-0.076922 0.016439 -0.490026
-0.079083 0.016110 -0.489327
-0.080702 0.016110 -0.489804
-0.082868 0.015780 -0.489105
-0.084489 0.015780 -0.489582
-0.086661 0.015450 -0.488882
-0.088283 0.015450 -0.489360
-0.089906 0.015450 -0.489837
-0.092084 0.015119 -0.489137
-0.093708 0.015119 -0.489615
-0.095891 0.014788 -0.488914
-0.097517 0.014788 -0.489392
-0.099142 0.014788 -0.489871
-0.100768 0.014788 -0.490350
-0.102393 0.014788 -0.490828
-0.104586 0.014456 -0.490127
-0.106213 0.014456 -0.490606
-0.108411 0.014124 -0.489904
-0.110040 0.014124 -0.490384
-0.112243 0.013791 -0.489681
-0.113873 0.013791 -0.490161
-0.116082 0.013457 -0.489458
-0.117713 0.013457 -0.489938
-0.119344 0.013457 -0.490418
-0.121560 0.013123 -0.489715
-0.123193 0.013123 -0.490195
-0.125414 0.012788 -0.489491
-0.127048 0.012788 -0.489972
-0.129275 0.012453 -0.489266
-0.130911 0.012453 -0.489748
-0.132546 0.012453 -0.490230
-0.134780 0.012117 -0.489524
-0.136417 0.012117 -0.490006
-0.138656 0.011780 -0.489299
-0.140294 0.011780 -0.489782
-0.142539 0.011443 -0.489074
-0.144179 0.011443 -0.489557
-0.146428 0.011106 -0.488849
-0.148070 0.011106 -0.489332
-0.149711 0.011106 -0.489815
-0.151968 0.010767 -0.489106
-0.153611 0.010767 -0.489590
-0.155874 0.010428 -0.488881
-0.157518 0.010428 -0.489365
-0.159786 0.010089 -0.488654
-0.161432 0.010089 -0.489139
-0.163078 0.010089 -0.489624
-0.165353 0.009748 -0.488913
-0.167000 0.009748 -0.489398
-0.169280 0.009407 -0.488686
-0.170929 0.009407 -0.489172
-0.173215 0.009066 -0.488459
-0.174866 0.009066 -0.488945
-0.177157 0.008724 -0.488232
-0.178809 0.008724 -0.488718
-0.180461 0.008724 -0.489205
-0.182760 0.008381 -0.488491
-0.184413 0.008381 -0.488977
-0.186718 0.008038 -0.488263
-0.188372 0.008038 -0.488750
-0.190682 0.007694 -0.488035
-0.192339 0.007694 -0.488522
-0.193995 0.007694 -0.489010
-0.196312 0.007350 -0.488294
-0.197970 0.007350 -0.488782
-0.200293 0.007004 -0.488065
-0.201952 0.007004 -0.488554
-0.204281 0.006659 -0.487836
-0.205942 0.006659 -0.488325
-0.208276 0.006312 -0.487607
-0.209938 0.006312 -0.488096
-0.211601 0.006312 -0.488586
-0.213942 0.005965 -0.487867
-0.215606 0.005965 -0.488357
-0.217953 0.005618 -0.487637
-0.219619 0.005618 -0.488128
-0.221972 0.005269 -0.487407
-0.223639 0.005269 -0.487898
-0.225306 0.005269 -0.488389
-0.227666 0.004920 -0.487668
-0.229334 0.004920 -0.488159
-0.231701 0.004571 -0.487437
-0.234071 0.004221 -0.486714
-0.235743 0.004221 -0.487206
-0.238119 0.003870 -0.486482
-0.241209 0.003166 -0.484536
-0.242885 0.003166 -0.485030
-0.245274 0.002813 -0.484302
-0.246952 0.002813 -0.484795
-0.249347 0.002460 -0.484067
-0.251026 0.002460 -0.484561
-0.253427 0.002106 -0.483831
-0.255833 0.001751 -0.483100
-0.257515 0.001751 -0.483595
-0.259927 0.001396 -0.482863
-0.261610 0.001396 -0.483359
-0.264028 0.001040 -0.482626
-0.266450 0.000683 -0.481892
-0.268877 0.000326 -0.481156
-0.271308 -0.000032 -0.480419
-0.274490 -0.000750 -0.478442
-0.276933 -0.001110 -0.477701
-0.279380 -0.001471 -0.476958
-0.281832 -0.001832 -0.476214
-0.284289 -0.002194 -0.475468
-0.286750 -0.002557 -0.474721
-0.289215 -0.002920 -0.473973
-0.291686 -0.003284 -0.473223
-0.294160 -0.003649 -0.472472
-0.297415 -0.004380 -0.470462
-0.299902 -0.004747 -0.469706
-0.302394 -0.005114 -0.468949
-0.305676 -0.005851 -0.466925
-0.308180 -0.006220 -0.466163
-0.310689 -0.006590 -0.465399
-0.313999 -0.007333 -0.463361
-0.316520 -0.007705 -0.462593
-0.319850 -0.008452 -0.460544
-0.322384 -0.008826 -0.459771
-0.325735 -0.009577 -0.457710
-0.329099 -0.010330 -0.455642
-0.333298 -0.011466 -0.452269
-0.337522 -0.012608 -0.448877
-0.341769 -0.013757 -0.445465
-0.346041 -0.014913 -0.442034
-0.350338 -0.016075 -0.438583
-0.354659 -0.017243 -0.435113
-0.358143 -0.018026 -0.432961
-0.363377 -0.019601 -0.428111
-0.370411 -0.021987 -0.420501
-0.379319 -0.025211 -0.410039
0.395241 -0.156489 0.340527
0.393796 -0.153005 0.326028
0.392003 -0.150936 0.317142
0.390225 -0.148883 0.308324
0.388273 -0.147523 0.302255
0.417545 -0.034523 -0.145592
0.417137 -0.029510 -0.165963
0.415801 -0.027865 -0.173000
0.414476 -0.026234 -0.179983
0.413041 -0.025018 -0.185316
0.411614 -0.023810 -0.190617
0.410196 -0.022608 -0.195888
0.408909 -0.021017 -0.202695
0.407508 -0.019832 -0.207895
0.406116 -0.018653 -0.213066
0.404731 -0.017482 -0.218206
0.403354 -0.016317 -0.223318
0.401858 -0.015544 -0.226881
0.400238 -0.015158 -0.228914
0.398621 -0.014774 -0.230944
0.397007 -0.014390 -0.232970
0.395396 -0.014007 -0.234992
0.393788 -0.013624 -0.237011
0.392183 -0.013242 -0.239025
0.390719 -0.012481 -0.242532
0.388983 -0.012481 -0.243043
0.387387 -0.012102 -0.245046
0.385795 -0.011723 -0.247045
0.384205 -0.011345 -0.249041
0.382474 -0.011345 -0.249551
0.380889 -0.010967 -0.251542
0.379307 -0.010590 -0.253529
0.377579 -0.010590 -0.254038
0.376001 -0.010214 -0.256022
0.374427 -0.009839 -0.258001
0.372855 -0.009465 -0.259977
0.371287 -0.009091 -0.261949
0.369565 -0.009091 -0.262456
0.368001 -0.008718 -0.264424
0.366440 -0.008345 -0.266388
0.364882 -0.007973 -0.268349
0.363165 -0.007973 -0.268855
0.361612 -0.007602 -0.270811
0.360061 -0.007232 -0.272764
0.358513 -0.006862 -0.274713
0.356801 -0.006862 -0.275217
0.355258 -0.006493 -0.277162
0.353717 -0.006125 -0.279104
0.352009 -0.006125 -0.279607
0.350473 -0.005757 -0.281544
0.348939 -0.005390 -0.283478
0.347409 -0.005024 -0.285408
0.345882 -0.004658 -0.287335
0.344179 -0.004658 -0.287836
0.342656 -0.004293 -0.289759
0.341136 -0.003929 -0.291678
0.339619 -0.003566 -0.293593
0.337921 -0.003566 -0.294093
0.336408 -0.003203 -0.296005
0.334898 -0.002840 -0.297913
0.357000 0.043156 -0.477210
0.356091 0.044280 -0.482019
0.354600 0.044280 -0.482458
0.353258 0.044560 -0.483983
0.351768 0.044560 -0.484422
0.350429 0.044840 -0.485945
0.348941 0.044840 -0.486383
0.347453 0.044840 -0.486822
0.346118 0.045119 -0.488341
0.344631 0.045119 -0.488779
0.343300 0.045397 -0.490296
0.341814 0.045397 -0.490734
0.340328 0.045397 -0.491171
0.338682 0.045119 -0.490531
0.337195 0.045119 -0.490969
0.335708 0.045119 -0.491407
0.334221 0.045119 -0.491845
0.332569 0.044840 -0.491204
0.331080 0.044840 -0.491643
0.329592 0.044840 -0.492081
0.328103 0.044840 -0.492519
0.326445 0.044560 -0.491879
0.324956 0.044560 -0.492317
0.323466 0.044560 -0.492756
0.321802 0.044280 -0.492115
0.320312 0.044280 -0.492554
0.318821 0.044280 -0.492993
0.317152 0.044000 -0.492352
0.315660 0.044000 -0.492791
0.314168 0.044000 -0.493231
0.312494 0.043719 -0.492589
0.311001 0.043719 -0.493029
0.309508 0.043719 -0.493469
0.307829 0.043438 -0.492827
0.306335 0.043438 -0.493267
0.304840 0.043438 -0.493707
0.303156 0.043156 -0.493065
0.301661 0.043156 -0.493505
0.299973 0.042874 -0.492863
0.298476 0.042874 -0.493303
0.296784 0.042591 -0.492660
0.295285 0.042591 -0.493101
0.293590 0.042308 -0.492457
0.292090 0.042308 -0.492898
0.290591 0.042308 -0.493340
0.288890 0.042025 -0.492695
0.287389 0.042025 -0.493137
0.285684 0.041741 -0.492492
0.284182 0.041741 -0.492934
0.282680 0.041741 -0.493377
0.280970 0.041456 -0.492731
0.279467 0.041456 -0.493174
0.277752 0.041171 -0.492527
0.276248 0.041171 -0.492970
0.274744 0.041171 -0.493413
0.273239 0.041171 -0.493856
0.271518 0.040886 -0.493210
0.270013 0.040886 -0.493653
0.268288 0.040600 -0.493006
0.266781 0.040600 -0.493450
0.265274 0.040600 -0.493894
0.263544 0.040314 -0.493247
0.261811 0.040027 -0.492598
0.260302 0.040027 -0.493043
0.258564 0.039740 -0.492394
0.257054 0.039740 -0.492839
0.255312 0.039452 -0.492189
0.253801 0.039452 -0.492634
0.252289 0.039452 -0.493079
0.250542 0.039164 -0.492429
0.249029 0.039164 -0.492875
0.247516 0.039164 -0.493320
0.245764 0.038875 -0.492670
0.244250 0.038875 -0.493116
0.242736 0.038875 -0.493562
0.240978 0.038586 -0.492911
0.239463 0.038586 -0.493357
0.237701 0.038296 -0.492706
0.236184 0.038296 -0.493152
0.234668 0.038296 -0.493599
0.232900 0.038006 -0.492947
0.231383 0.038006 -0.493394
0.229611 0.037715 -0.492742
0.228092 0.037715 -0.493189
0.226573 0.037715 -0.493636
0.224796 0.037424 -0.492984
0.223276 0.037424 -0.493431
0.221755 0.037424 -0.493879
0.219973 0.037133 -0.493226
0.218451 0.037133 -0.493674
0.216929 0.037133 -0.494122
0.215142 0.036840 -0.493469
0.213619 0.036840 -0.493917
0.211827 0.036548 -0.493263
0.210302 0.036548 -0.493712
0.208778 0.036548 -0.494161
0.206981 0.036255 -0.493506
0.205455 0.036255 -0.493955
0.203653 0.035961 -0.493300
0.202127 0.035961 -0.493750
0.200600 0.035961 -0.494199
0.198793 0.035667 -0.493544
0.196982 0.035373 -0.492887
0.195453 0.035373 -0.493337
0.193638 0.035078 -0.492680
0.192108 0.035078 -0.493131
0.190577 0.035078 -0.493581
0.188757 0.034782 -0.492924
0.187225 0.034782 -0.493375
0.185401 0.034486 -0.492716
0.183867 0.034486 -0.493168
0.182334 0.034486 -0.493619
0.180504 0.034190 -0.492960
0.178970 0.034190 -0.493412
0.177435 0.034190 -0.493864
0.175599 0.033893 -0.493205
0.174064 0.033893 -0.493657
0.172224 0.033595 -0.492997
0.170687 0.033595 -0.493450
0.169150 0.033595 -0.493902
0.167304 0.033297 -0.493242
0.165765 0.033297 -0.493695
0.163915 0.032999 -0.493034
0.162062 0.032700 -0.492372
0.160521 0.032700 -0.492826
0.158663 0.032400 -0.492163
0.157121 0.032400 -0.492617
0.155579 0.032400 -0.493071
0.153716 0.032100 -0.492408
0.152172 0.032100 -0.492863
0.150629 0.032100 -0.493317
0.148760 0.031800 -0.492654
0.147215 0.031800 -0.493108
0.145670 0.031800 -0.493563
0.143795 0.031499 -0.492899
0.142249 0.031499 -0.493355
0.140036 0.030895 -0.491568
0.138487 0.030895 -0.492025
0.136602 0.030593 -0.491358
0.135052 0.030593 -0.491814
0.133502 0.030593 -0.492270
0.131610 0.030290 -0.491603
0.130059 0.030290 -0.492060
0.128163 0.029986 -0.491392
0.126610 0.029986 -0.491849
0.124710 0.029682 -0.491181
0.123156 0.029682 -0.491638
0.121602 0.029682 -0.492096
0.119695 0.029378 -0.491427
0.118140 0.029378 -0.491885
0.116585 0.029378 -0.492343
0.115030 0.029378 -0.492801
0.113116 0.029072 -0.492132
0.111559 0.029072 -0.492590
0.109641 0.028767 -0.491920
0.108083 0.028767 -0.492379
0.106525 0.028767 -0.492838
0.104601 0.028461 -0.492168
0.103042 0.028461 -0.492627
0.101113 0.028154 -0.491956
0.099553 0.028154 -0.492415
0.097620 0.027847 -0.491744
0.096058 0.027847 -0.492204
0.094496 0.027847 -0.492664
0.092557 0.027539 -0.491992
0.090993 0.027539 -0.492452
0.089050 0.027231 -0.491779
0.087485 0.027231 -0.492240
0.085536 0.026922 -0.491567
0.083971 0.026922 -0.492028
0.082017 0.026613 -0.491353
0.080450 0.026613 -0.491815
0.078883 0.026613 -0.492276
0.076924 0.026303 -0.491602
0.075355 0.026303 -0.492064
0.073391 0.025993 -0.491388
0.071821 0.025993 -0.491851
0.069853 0.025682 -0.491174
0.068282 0.025682 -0.491637
0.066710 0.025682 -0.492100
0.064736 0.025370 -0.491423
0.063163 0.025370 -0.491886
0.061184 0.025059 -0.491209
0.059610 0.025059 -0.491673
0.057626 0.024746 -0.490995
0.056050 0.024746 -0.491458
0.054061 0.024433 -0.490780
0.052485 0.024433 -0.491244
0.050908 0.024433 -0.491708
0.048913 0.024119 -0.491029
0.047335 0.024119 -0.491494
0.045335 0.023805 -0.490814
0.043756 0.023805 -0.491279
0.041751 0.023491 -0.490598
0.040171 0.023491 -0.491064
0.038590 0.023491 -0.491529
0.036579 0.023176 -0.490848
0.034997 0.023176 -0.491314
0.032981 0.022860 -0.490632
0.031398 0.022860 -0.491098
0.029377 0.022544 -0.490416
0.027793 0.022544 -0.490882
0.025767 0.022227 -0.490199
0.024181 0.022227 -0.490666
0.022595 0.022227 -0.491133
0.020563 0.021909 -0.490449
0.018976 0.021909 -0.490917
0.016939 0.021592 -0.490232
0.015350 0.021592 -0.490700
0.013309 0.021273 -0.490015
0.011719 0.021273 -0.490483
0.010128 0.021273 -0.490951
0.008081 0.020954 -0.490266
0.006489 0.020954 -0.490734
0.004897 0.020954 -0.491203
0.003306 0.020954 -0.491672
0.001250 0.020635 -0.490986
-0.000343 0.020635 -0.491455
-0.002403 0.020314 -0.490769
-0.003998 0.020314 -0.491238
-0.005592 0.020314 -0.491708
-0.007659 0.019994 -0.491021
-0.009255 0.019994 -0.491491
-0.011327 0.019672 -0.490803
-0.012924 0.019672 -0.491274
-0.015000 0.019351 -0.490585
-0.016599 0.019351 -0.491056
-0.018198 0.019351 -0.491527
-0.020281 0.019028 -0.490838
-0.021881 0.019028 -0.491309
-0.023969 0.018705 -0.490620
-0.025570 0.018705 -0.491091
-0.027664 0.018382 -0.490401
-0.029266 0.018382 -0.490873
-0.031365 0.018058 -0.490182
-0.032969 0.018058 -0.490654
-0.034573 0.018058 -0.491126
-0.036678 0.017733 -0.490435
-0.038283 0.017733 -0.490907
-0.040393 0.017408 -0.490215
-0.042000 0.017408 -0.490688
-0.044115 0.017082 -0.489995
-0.045724 0.017082 -0.490469
-0.047332 0.017082 -0.490942
-0.049453 0.016756 -0.490249
-0.051063 0.016756 -0.490723
-0.053190 0.016429 -0.490029
-0.054801 0.016429 -0.490503
-0.056933 0.016102 -0.489808
-0.058546 0.016102 -0.490283
-0.060683 0.015774 -0.489587
-0.062297 0.015774 -0.490062
-0.063911 0.015774 -0.490538
-0.066054 0.015445 -0.489841
-0.067670 0.015445 -0.490317
-0.069818 0.015116 -0.489620
-0.071435 0.015116 -0.490096
-0.073589 0.014786 -0.489398
-0.075208 0.014786 -0.489874
-0.076826 0.014786 -0.490351
-0.078987 0.014456 -0.489653
-0.080606 0.014456 -0.490130
-0.082772 0.014125 -0.489431
-0.084393 0.014125 -0.489908
-0.086565 0.013793 -0.489208
-0.088187 0.013793 -0.489686
-0.090364 0.013461 -0.488985
-0.091988 0.013461 -0.489463
-0.093612 0.013461 -0.489941
-0.095795 0.013128 -0.489240
-0.097420 0.013128 -0.489719
-0.099046 0.013128 -0.490198
-0.100671 0.013128 -0.490676
-0.102863 0.012795 -0.489975
-0.104490 0.012795 -0.490454
-0.106686 0.012461 -0.489752
-0.108315 0.012461 -0.490232
-0.109943 0.012461 -0.490711
-0.112147 0.012127 -0.490009
-0.113776 0.012127 -0.490489
-0.115985 0.011792 -0.489786
-0.117617 0.011792 -0.490266
-0.119831 0.011456 -0.489562
-0.121464 0.011456 -0.490043
-0.123683 0.011120 -0.489338
-0.125317 0.011120 -0.489819
-0.126952 0.011120 -0.490300
-0.129178 0.010783 -0.489595
-0.130814 0.010783 -0.490077
-0.133046 0.010445 -0.489371
-0.134683 0.010445 -0.489853
-0.136920 0.010107 -0.489146
-0.138559 0.010107 -0.489629
-0.140197 0.010107 -0.490111
-0.142441 0.009769 -0.489404
-0.144082 0.009769 -0.489887
-0.146331 0.009429 -0.489179
-0.147973 0.009429 -0.489662
-0.150228 0.009089 -0.488953
-0.151871 0.009089 -0.489437
-0.154132 0.008749 -0.488727
-0.155776 0.008749 -0.489211
-0.157421 0.008749 -0.489695
-0.159688 0.008408 -0.488985
-0.161334 0.008408 -0.489470
-0.163608 0.008066 -0.488759
-0.165255 0.008066 -0.489244
-0.167534 0.007724 -0.488532
-0.169183 0.007724 -0.489018
-0.170832 0.007724 -0.489503
-0.173118 0.007381 -0.488791
-0.174768 0.007381 -0.489277
-0.177060 0.007037 -0.488564
-0.178711 0.007037 -0.489050
-0.181009 0.006693 -0.488336
-0.182662 0.006693 -0.488823
-0.184965 0.006348 -0.488108
-0.186620 0.006348 -0.488596
-0.188274 0.006348 -0.489083
-0.190584 0.006003 -0.488368
-0.192241 0.006003 -0.488855
-0.194556 0.005657 -0.488139
-0.196214 0.005657 -0.488627
-0.198535 0.005310 -0.487910
-0.200195 0.005310 -0.488399
-0.201854 0.005310 -0.488888
-0.204183 0.004963 -0.488170
-0.205843 0.004963 -0.488659
-0.208178 0.004615 -0.487941
-0.209840 0.004615 -0.488431
-0.212180 0.004266 -0.487712
-0.213844 0.004266 -0.488202
-0.216190 0.003917 -0.487482
-0.217855 0.003917 -0.487972
-0.219520 0.003917 -0.488462
-0.221873 0.003567 -0.487742
-0.223540 0.003567 -0.488233
-0.225899 0.003217 -0.487512
-0.227567 0.003217 -0.488003
-0.229932 0.002866 -0.487281
-0.232301 0.002514 -0.486558
-0.233972 0.002514 -0.487050
-0.236347 0.002161 -0.486325
-0.238020 0.002161 -0.486818
-0.241110 0.001455 -0.484873
-0.242786 0.001455 -0.485366
-0.245175 0.001100 -0.484639
-0.247569 0.000745 -0.483910
-0.249248 0.000745 -0.484404
-0.251647 0.000390 -0.483674
-0.253328 0.000390 -0.484169
-0.255733 0.000033 -0.483438
-0.258143 -0.000323 -0.482706
-0.259827 -0.000323 -0.483202
-0.261511 -0.000323 -0.483697
-0.263928 -0.000681 -0.482965
-0.267088 -0.001398 -0.480998
-0.269518 -0.001758 -0.480261
-0.271952 -0.002118 -0.479523
-0.274390 -0.002479 -0.478783
-0.276833 -0.002840 -0.478042
-0.279280 -0.003203 -0.477299
-0.282489 -0.003929 -0.475309
-0.284948 -0.004293 -0.474562
-0.287412 -0.004658 -0.473814
-0.289881 -0.005024 -0.473064
-0.292354 -0.005390 -0.472312
-0.295605 -0.006125 -0.470302
-0.298090 -0.006493 -0.469546
-0.300580 -0.006862 -0.468789
-0.303075 -0.007232 -0.468030
-0.306362 -0.007973 -0.466002
-0.308869 -0.008345 -0.465239
-0.311380 -0.008718 -0.464474
-0.314695 -0.009465 -0.462432
-0.317219 -0.009839 -0.461662
-0.319748 -0.010214 -0.460891
-0.323091 -0.010967 -0.458834
-0.327261 -0.012102 -0.455480
-0.331456 -0.013242 -0.452107
-0.335674 -0.014390 -0.448714
-0.339082 -0.015158 -0.446613
-0.343342 -0.016317 -0.443188
-0.347627 -0.017482 -0.439744
-0.351936 -0.018653 -0.436280
-0.356270 -0.019832 -0.432796
-0.360630 -0.021017 -0.429292
-0.368520 -0.023810 -0.420334
-0.377413 -0.027048 -0.409871
0.395561 -0.158195 0.337277
0.393753 -0.156095 0.328303
0.391958 -0.154012 0.319397
0.390178 -0.151944 0.310559
0.388411 -0.149892 0.301788
0.386469 -0.148533 0.295751
0.415942 -0.035970 -0.148169
0.415434 -0.031358 -0.166859
0.414105 -0.029706 -0.173893
0.412786 -0.028067 -0.180873
0.411356 -0.026846 -0.186203
0.409935 -0.025633 -0.191502
0.408522 -0.024426 -0.196770
0.407241 -0.022828 -0.203573
0.405845 -0.021637 -0.208771
0.404457 -0.020453 -0.213939
0.403077 -0.019277 -0.219077
0.401705 -0.018107 -0.224186
0.400082 -0.017718 -0.226226
0.398593 -0.016943 -0.229780
0.396978 -0.016557 -0.231809
0.395366 -0.016171 -0.233835
0.393756 -0.015786 -0.235856
0.392286 -0.015019 -0.239375
0.390685 -0.014636 -0.241385
0.389086 -0.014254 -0.243392
0.387490 -0.013873 -0.245395
0.385755 -0.013873 -0.245905
0.384164 -0.013492 -0.247904
0.382576 -0.013113 -0.249899
0.380845 -0.013113 -0.250408
0.379262 -0.012733 -0.252399
0.377681 -0.012355 -0.254386
0.375953 -0.012355 -0.254894
0.374529 -0.011601 -0.258348
0.372804 -0.011601 -0.258856
0.371234 -0.011224 -0.260831
0.369667 -0.010849 -0.262802
0.367946 -0.010849 -0.263309
0.366383 -0.010474 -0.265276
0.364824 -0.010100 -0.267240
0.363267 -0.009726 -0.269200
0.361550 -0.009726 -0.269705
0.359998 -0.009354 -0.271661
0.358449 -0.008982 -0.273613
0.356903 -0.008610 -0.275561
0.355191 -0.008610 -0.276065
0.353649 -0.008240 -0.278010
0.352110 -0.007870 -0.279950
0.350401 -0.007870 -0.280454
0.349040 -0.007132 -0.283821
0.347335 -0.007132 -0.284323
0.345806 -0.006764 -0.286253
0.344280 -0.006397 -0.288179
0.342578 -0.006397 -0.288680
0.341056 -0.006030 -0.290602
0.339537 -0.005664 -0.292520
0.338021 -0.005299 -0.294435
0.336324 -0.005299 -0.294934
0.334812 -0.004935 -0.296845
0.356943 0.041346 -0.476414
0.356033 0.042476 -0.481229
0.354689 0.042758 -0.482757
0.353346 0.043039 -0.484283
0.351857 0.043039 -0.484721
0.350517 0.043320 -0.486244
0.348877 0.043039 -0.485599
0.347541 0.043320 -0.487121
0.346052 0.043320 -0.487559
0.344719 0.043600 -0.489078
0.343388 0.043880 -0.490595
0.341902 0.043880 -0.491033
0.340416 0.043880 -0.491470
0.338770 0.043600 -0.490830
0.337283 0.043600 -0.491268
0.335796 0.043600 -0.491706
0.334145 0.043320 -0.491065
0.332657 0.043320 -0.491504
0.331168 0.043320 -0.491942
0.329680 0.043320 -0.492380
0.328023 0.043039 -0.491739
0.326533 0.043039 -0.492178
0.325044 0.043039 -0.492617
0.323382 0.042758 -0.491976
0.321891 0.042758 -0.492415
0.320400 0.042758 -0.492854
0.318733 0.042476 -0.492213
0.317241 0.042476 -0.492652
0.315749 0.042476 -0.493091
0.314076 0.042194 -0.492450
0.312583 0.042194 -0.492889
0.311090 0.042194 -0.493329
0.309412 0.041912 -0.492687
0.307918 0.041912 -0.493127
0.306423 0.041912 -0.493567
0.304740 0.041629 -0.492925
0.303245 0.041629 -0.493366
0.301749 0.041629 -0.493806
0.300061 0.041346 -0.493164
0.298370 0.041062 -0.492520
0.296872 0.041062 -0.492961
0.295374 0.041062 -0.493402
0.293678 0.040777 -0.492758
0.292179 0.040777 -0.493200
0.290479 0.040492 -0.492555
0.288978 0.040492 -0.492997
0.287478 0.040492 -0.493439
0.285773 0.040207 -0.492794
0.284271 0.040207 -0.493236
0.282562 0.039921 -0.492591
0.281059 0.039921 -0.493033
0.279346 0.039635 -0.492387
0.277841 0.039635 -0.492830
0.276337 0.039635 -0.493273
0.274833 0.039635 -0.493716
0.273113 0.039349 -0.493069
0.271608 0.039349 -0.493513
0.270102 0.039349 -0.493956
0.268377 0.039061 -0.493309
0.266870 0.039061 -0.493753
0.265141 0.038774 -0.493106
0.263633 0.038774 -0.493550
0.261900 0.038486 -0.492902
0.260164 0.038197 -0.492253
0.258654 0.038197 -0.492697
0.256914 0.037908 -0.492048
0.255402 0.037908 -0.492493
0.253890 0.037908 -0.492938
0.252145 0.037619 -0.492288
0.250632 0.037619 -0.492733
0.249119 0.037619 -0.493179
0.247368 0.037329 -0.492528
0.245854 0.037329 -0.492974
0.244340 0.037329 -0.493420
0.242583 0.037038 -0.492769
0.241068 0.037038 -0.493215
0.239307 0.036747 -0.492564
0.237791 0.036747 -0.493011
0.236274 0.036747 -0.493457
0.234508 0.036456 -0.492805
0.232990 0.036456 -0.493252
0.231220 0.036164 -0.492600
0.229701 0.036164 -0.493047
0.228182 0.036164 -0.493494
0.226406 0.035871 -0.492842
0.224886 0.035871 -0.493289
0.223366 0.035871 -0.493737
0.221585 0.035579 -0.493084
0.220063 0.035579 -0.493532
0.218541 0.035579 -0.493980
0.216755 0.035285 -0.493326
0.215232 0.035285 -0.493775
0.213441 0.034991 -0.493121
0.211917 0.034991 -0.493569
0.210393 0.034991 -0.494018
0.208597 0.034697 -0.493364
0.207071 0.034697 -0.493813
0.205271 0.034402 -0.493157
0.203744 0.034402 -0.493607
0.202217 0.034402 -0.494057
0.200411 0.034107 -0.493401
0.198883 0.034107 -0.493851
0.197073 0.033811 -0.493194
0.195260 0.033515 -0.492537
0.193729 0.033515 -0.492988
0.192198 0.033515 -0.493438
0.190379 0.033218 -0.492780
0.188848 0.033218 -0.493231
0.187024 0.032921 -0.492573
0.185491 0.032921 -0.493024
0.183958 0.032921 -0.493476
0.182129 0.032623 -0.492817
0.180595 0.032623 -0.493269
0.178762 0.032325 -0.492609
0.177226 0.032325 -0.493061
0.175690 0.032325 -0.493514
0.173852 0.032026 -0.492853
0.172315 0.032026 -0.493306
0.170778 0.032026 -0.493759
0.168933 0.031726 -0.493098
0.167395 0.031726 -0.493551
0.165546 0.031427 -0.492890
0.164006 0.031427 -0.493344
0.162153 0.031126 -0.492682
0.160612 0.031126 -0.493136
0.158755 0.030825 -0.492473
0.157213 0.030825 -0.492927
0.155351 0.030524 -0.492264
0.153807 0.030524 -0.492718
0.152264 0.030524 -0.493173
0.150396 0.030222 -0.492509
0.148851 0.030222 -0.492964
0.147306 0.030222 -0.493419
0.145762 0.030222 -0.493874
0.143887 0.029920 -0.493210
0.141676 0.029314 -0.491424
0.140128 0.029314 -0.491880
0.138579 0.029314 -0.492336
0.136693 0.029010 -0.491669
0.135143 0.029010 -0.492126
0.133253 0.028706 -0.491458
0.131702 0.028706 -0.491915
0.129807 0.028401 -0.491247
0.128255 0.028401 -0.491704
0.126702 0.028401 -0.492162
0.124802 0.028095 -0.491493
0.123248 0.028095 -0.491951
0.121343 0.027789 -0.491281
0.119787 0.027789 -0.491739
0.118232 0.027789 -0.492197
0.116677 0.027789 -0.492655
0.114765 0.027483 -0.491986
0.113208 0.027483 -0.492445
0.111652 0.027483 -0.492903
0.109733 0.027176 -0.492233
0.108175 0.027176 -0.492692
0.106253 0.026868 -0.492022
0.104694 0.026868 -0.492481
0.102766 0.026560 -0.491810
0.101206 0.026560 -0.492270
0.099645 0.026560 -0.492729
0.097712 0.026252 -0.492058
0.096150 0.026252 -0.492518
0.094212 0.025943 -0.491846
0.092649 0.025943 -0.492306
0.091086 0.025943 -0.492766
0.089142 0.025633 -0.492094
0.087195 0.025323 -0.491420
0.085629 0.025323 -0.491881
0.084063 0.025323 -0.492342
0.082110 0.025012 -0.491668
0.080543 0.025012 -0.492130
0.078585 0.024701 -0.491455
0.077017 0.024701 -0.491917
0.075054 0.024390 -0.491242
0.073484 0.024390 -0.491704
0.071914 0.024390 -0.492166
0.069946 0.024077 -0.491490
0.068375 0.024077 -0.491953
0.066401 0.023765 -0.491276
0.064829 0.023765 -0.491739
0.063256 0.023765 -0.492202
0.061277 0.023451 -0.491526
0.059294 0.023137 -0.490847
0.057719 0.023137 -0.491311
0.056144 0.023137 -0.491775
0.054155 0.022823 -0.491097
0.052578 0.022823 -0.491561
0.050585 0.022508 -0.490882
0.049007 0.022508 -0.491346
0.047008 0.022193 -0.490666
0.045429 0.022193 -0.491131
0.043849 0.022193 -0.491596
0.041845 0.021877 -0.490916
0.040264 0.021877 -0.491381
0.038255 0.021560 -0.490700
0.036673 0.021560 -0.491166
0.035091 0.021560 -0.491632
0.033075 0.021243 -0.490950
0.031056 0.020925 -0.490268
0.029471 0.020925 -0.490734
0.027886 0.020925 -0.491201
0.025861 0.020607 -0.490518
0.024275 0.020607 -0.490985
0.022245 0.020288 -0.490301
0.020657 0.020288 -0.490769
0.018622 0.019969 -0.490084
0.017033 0.019969 -0.490552
0.015444 0.019969 -0.491020
0.013403 0.019649 -0.490335
0.011813 0.019649 -0.490803
0.009766 0.019329 -0.490117
0.008175 0.019329 -0.490586
0.006583 0.019329 -0.491054
0.004991 0.019329 -0.491523
0.002937 0.019008 -0.490837
0.001344 0.019008 -0.491306
-0.000249 0.019008 -0.491775
-0.002309 0.018686 -0.491089
-0.003903 0.018686 -0.491559
-0.005969 0.018364 -0.490872
-0.007565 0.018364 -0.491342
-0.009635 0.018041 -0.490654
-0.011232 0.018041 -0.491124
-0.012829 0.018041 -0.491595
-0.014906 0.017718 -0.490907
-0.016504 0.017718 -0.491377
-0.018586 0.017394 -0.490688
-0.020186 0.017394 -0.491160
-0.021786 0.017394 -0.491631
-0.023874 0.017070 -0.490941
-0.025966 0.016745 -0.490251
-0.027569 0.016745 -0.490723
-0.029171 0.016745 -0.491195
-0.031270 0.016420 -0.490504
-0.032874 0.016420 -0.490976
-0.034977 0.016094 -0.490285
-0.036583 0.016094 -0.490757
-0.038691 0.015767 -0.490065
-0.040298 0.015767 -0.490538
-0.041905 0.015767 -0.491011
-0.044020 0.015440 -0.490319
-0.045628 0.015440 -0.490792
-0.047748 0.015112 -0.490099
-0.049358 0.015112 -0.490573
-0.050968 0.015112 -0.491047
-0.053095 0.014784 -0.490353
-0.055225 0.014455 -0.489657
-0.056837 0.014455 -0.490132
-0.058450 0.014455 -0.490607
-0.060587 0.014125 -0.489911
-0.062201 0.014125 -0.490387
-0.064343 0.013795 -0.489690
-0.065959 0.013795 -0.490166
-0.068106 0.013465 -0.489469
-0.069723 0.013465 -0.489945
-0.071340 0.013465 -0.490421
-0.073494 0.013133 -0.489723
-0.075112 0.013133 -0.490200
-0.077271 0.012802 -0.489501
-0.078891 0.012802 -0.489978
-0.080511 0.012802 -0.490455
-0.082676 0.012469 -0.489756
-0.084846 0.012136 -0.489056
-0.086469 0.012136 -0.489534
-0.088091 0.012136 -0.490012
-0.090268 0.011803 -0.489312
-0.091892 0.011803 -0.489790
-0.094073 0.011468 -0.489088
-0.095699 0.011468 -0.489567
-0.097886 0.011134 -0.488865
-0.098950 0.011468 -0.490524
-0.101140 0.011134 -0.489823
-0.102766 0.011134 -0.490302
-0.104393 0.011134 -0.490781
-0.106590 0.010798 -0.490080
-0.108218 0.010798 -0.490559
-0.110420 0.010462 -0.489857
-0.112050 0.010462 -0.490337
-0.114257 0.010126 -0.489633
-0.115889 0.010126 -0.490114
-0.118101 0.009789 -0.489410
-0.119734 0.009789 -0.489890
-0.121367 0.009789 -0.490371
-0.123586 0.009451 -0.489667
-0.125221 0.009451 -0.490148
-0.127446 0.009113 -0.489442
-0.129081 0.009113 -0.489924
-0.131312 0.008774 -0.489218
-0.132949 0.008774 -0.489700
-0.134586 0.008774 -0.490182
-0.136823 0.008434 -0.489475
-0.138462 0.008434 -0.489958
-0.140704 0.008094 -0.489250
-0.142344 0.008094 -0.489733
-0.144593 0.007753 -0.489025
-0.146234 0.007753 -0.489509
-0.148488 0.007412 -0.488799
-0.150131 0.007412 -0.489283
-0.151774 0.007412 -0.489767
-0.154034 0.007070 -0.489058
-0.155679 0.007070 -0.489542
-0.157945 0.006727 -0.488831
-0.159591 0.006727 -0.489316
-0.161863 0.006384 -0.488605
-0.163510 0.006384 -0.489090
-0.165158 0.006384 -0.489575
-0.167436 0.006040 -0.488864
-0.169085 0.006040 -0.489349
-0.171370 0.005695 -0.488637
-0.173020 0.005695 -0.489123
-0.175310 0.005350 -0.488409
-0.176962 0.005350 -0.488896
-0.179257 0.005005 -0.488182
-0.180911 0.005005 -0.488669
-0.182564 0.005005 -0.489155
-0.184867 0.004658 -0.488441
-0.186522 0.004658 -0.488928
-0.188830 0.004311 -0.488213
-0.190486 0.004311 -0.488701
-0.192800 0.003964 -0.487984
-0.194458 0.003964 -0.488472
-0.196116 0.003964 -0.488961
-0.198437 0.003616 -0.488244
-0.200097 0.003616 -0.488733
-0.202423 0.003267 -0.488015
-0.204084 0.003267 -0.488504
-0.206417 0.002917 -0.487786
-0.208079 0.002917 -0.488275
-0.210418 0.002567 -0.487556
-0.212081 0.002567 -0.488046
-0.213745 0.002567 -0.488536
-0.216091 0.002216 -0.487816
-0.217756 0.002216 -0.488307
-0.220108 0.001865 -0.487586
-0.221775 0.001865 -0.488077
-0.224132 0.001513 -0.487356
-0.225800 0.001513 -0.487847
-0.227468 0.001513 -0.488338
-0.229833 0.001160 -0.487617
-0.232202 0.000807 -0.486894
-0.234575 0.000453 -0.486169
-0.236248 0.000453 -0.486662
-0.239334 -0.000257 -0.484716
-0.241010 -0.000257 -0.485210
-0.243398 -0.000613 -0.484482
-0.245076 -0.000613 -0.484976
-0.247469 -0.000969 -0.484247
-0.249867 -0.001326 -0.483517
-0.251548 -0.001326 -0.484012
-0.253952 -0.001684 -0.483281
-0.255634 -0.001684 -0.483776
-0.258044 -0.002043 -0.483044
-0.260458 -0.002402 -0.482311
-0.262143 -0.002402 -0.482807
-0.264564 -0.002762 -0.482073
-0.266988 -0.003122 -0.481338
-0.269418 -0.003483 -0.480601
-0.272597 -0.004208 -0.478625
-0.275038 -0.004571 -0.477883
-0.277483 -0.004935 -0.477141
-0.279934 -0.005299 -0.476396
-0.282388 -0.005664 -0.475651
-0.284848 -0.006030 -0.474904
-0.287311 -0.006397 -0.474156
-0.290547 -0.007132 -0.472153
-0.293023 -0.007500 -0.471400
-0.296279 -0.008240 -0.469386
-0.298767 -0.008610 -0.468629
-0.301260 -0.008982 -0.467870
-0.303758 -0.009354 -0.467109
-0.307049 -0.010100 -0.465078
-0.309559 -0.010474 -0.464313
-0.312073 -0.010849 -0.463546
-0.315392 -0.011601 -0.461501
-0.317920 -0.011977 -0.460729
-0.320452 -0.012355 -0.459956
-0.324611 -0.013492 -0.456608
-0.328793 -0.014636 -0.453241
-0.333000 -0.015786 -0.449855
-0.337231 -0.016943 -0.446450
-0.341486 -0.018107 -0.443025
-0.345765 -0.019277 -0.439580
-0.349218 -0.020060 -0.437445
-0.354398 -0.021637 -0.432631
-0.358751 -0.022828 -0.429126
-0.365752 -0.025229 -0.421530
-0.375508 -0.028885 -0.409703
0.395700 -0.160600 0.336804
0.393892 -0.158491 0.327831
0.392097 -0.156399 0.318927
0.390316 -0.154322 0.310091
0.388361 -0.152946 0.304010
0.386417 -0.151578 0.297959
0.384482 -0.150216 0.291938
0.414220 -0.037838 -0.149076
0.413731 -0.033207 -0.167756
0.412409 -0.031547 -0.174787
0.411097 -0.029901 -0.181762
0.409672 -0.028675 -0.187090
0.408255 -0.027456 -0.192386
0.406847 -0.026243 -0.197652
0.405573 -0.024638 -0.204452
0.404182 -0.023443 -0.209647
0.402799 -0.022254 -0.214813
0.401295 -0.021465 -0.218412
0.399926 -0.020287 -0.223528
0.398435 -0.019506 -0.227094
0.396816 -0.019117 -0.229129
0.395335 -0.018340 -0.232675
0.393724 -0.017953 -0.234699
0.392253 -0.017180 -0.238224
0.390650 -0.016795 -0.240237
0.389050 -0.016411 -0.242246
0.387452 -0.016027 -0.244252
0.385716 -0.016027 -0.244763
0.384124 -0.015644 -0.246765
0.382534 -0.015262 -0.248763
0.380947 -0.014881 -0.250756
0.379216 -0.014881 -0.251266
0.377634 -0.014500 -0.253256
0.376055 -0.014120 -0.255242
0.374479 -0.013740 -0.257224
0.372906 -0.013362 -0.259203
0.371181 -0.013362 -0.259710
0.369613 -0.012984 -0.261685
0.368048 -0.012607 -0.263655
0.366326 -0.012607 -0.264162
0.364765 -0.012230 -0.266129
0.363207 -0.011855 -0.268091
0.361652 -0.011479 -0.270050
0.359935 -0.011479 -0.270556
0.358384 -0.011105 -0.272511
0.356837 -0.010731 -0.274462
0.355292 -0.010358 -0.276410
0.353580 -0.010358 -0.276914
0.352040 -0.009986 -0.278857
0.350502 -0.009615 -0.280797
0.348968 -0.009244 -0.282733
0.347436 -0.008874 -0.284666
0.345730 -0.008874 -0.285168
0.344203 -0.008504 -0.287097
0.342678 -0.008135 -0.289022
0.340976 -0.008135 -0.289523
0.339456 -0.007767 -0.291444
0.337939 -0.007400 -0.293362
0.336424 -0.007033 -0.295276
0.334726 -0.007033 -0.295776
0.356886 0.039532 -0.475617
0.356122 0.040953 -0.481529
0.354630 0.040953 -0.481968
0.353286 0.041236 -0.483496
0.351945 0.041518 -0.485021
0.350455 0.041518 -0.485460
0.348966 0.041518 -0.485898
0.347629 0.041800 -0.487420
0.346140 0.041800 -0.487858
0.344807 0.042081 -0.489377
0.343320 0.042081 -0.489815
0.341833 0.042081 -0.490253
0.340346 0.042081 -0.490691
0.338858 0.042081 -0.491129
0.337371 0.042081 -0.491567
0.335722 0.041800 -0.490926
0.334233 0.041800 -0.491364
0.332745 0.041800 -0.491803
0.331256 0.041800 -0.492241
0.329601 0.041518 -0.491600
0.328111 0.041518 -0.492039
0.326621 0.041518 -0.492478
0.325132 0.041518 -0.492916
0.323470 0.041236 -0.492276
0.321979 0.041236 -0.492715
0.320488 0.041236 -0.493154
0.318821 0.040953 -0.492513
0.317329 0.040953 -0.492952
0.315837 0.040953 -0.493391
0.314165 0.040669 -0.492750
0.312671 0.040669 -0.493190
0.311178 0.040669 -0.493629
0.309501 0.040386 -0.492988
0.308006 0.040386 -0.493428
0.306512 0.040386 -0.493868
0.304829 0.040102 -0.493226
0.303333 0.040102 -0.493666
0.301647 0.039817 -0.493024
0.300150 0.039817 -0.493464
0.298459 0.039532 -0.492821
0.296961 0.039532 -0.493262
0.295266 0.039246 -0.492618
0.293767 0.039246 -0.493060
0.292068 0.038960 -0.492415
0.290568 0.038960 -0.492857
0.289067 0.038960 -0.493299
0.287363 0.038674 -0.492654
0.285862 0.038674 -0.493096
0.284154 0.038387 -0.492450
0.282651 0.038387 -0.492893
0.281148 0.038387 -0.493335
0.279435 0.038099 -0.492689
0.277930 0.038099 -0.493132
0.276213 0.037811 -0.492485
0.274922 0.038099 -0.494018
0.273202 0.037811 -0.493372
0.271697 0.037811 -0.493815
0.269973 0.037523 -0.493169
0.268466 0.037523 -0.493612
0.266739 0.037234 -0.492965
0.265231 0.037234 -0.493409
0.263499 0.036945 -0.492761
0.261764 0.036655 -0.492112
0.260254 0.036655 -0.492556
0.258743 0.036655 -0.493001
0.257003 0.036364 -0.492352
0.255491 0.036364 -0.492797
0.253747 0.036074 -0.492146
0.252234 0.036074 -0.492592
0.250721 0.036074 -0.493037
0.249208 0.036074 -0.493483
0.247458 0.035782 -0.492833
0.245943 0.035782 -0.493279
0.244188 0.035491 -0.492628
0.242673 0.035491 -0.493074
0.241158 0.035491 -0.493520
0.239397 0.035198 -0.492869
0.237881 0.035198 -0.493315
0.236116 0.034906 -0.492663
0.234598 0.034906 -0.493110
0.233080 0.034906 -0.493557
0.231310 0.034613 -0.492905
0.229791 0.034613 -0.493353
0.228017 0.034319 -0.492699
0.226496 0.034319 -0.493147
0.224976 0.034319 -0.493595
0.223456 0.034319 -0.494043
0.221675 0.034025 -0.493390
0.220153 0.034025 -0.493838
0.218368 0.033730 -0.493184
0.216845 0.033730 -0.493632
0.215322 0.033730 -0.494081
0.213531 0.033435 -0.493427
0.212007 0.033435 -0.493876
0.210212 0.033139 -0.493221
0.208687 0.033139 -0.493670
0.207161 0.033139 -0.494119
0.205361 0.032843 -0.493464
0.203834 0.032843 -0.493914
0.202030 0.032546 -0.493258
0.200502 0.032546 -0.493708
0.198973 0.032546 -0.494158
0.197163 0.032249 -0.493502
0.195350 0.031952 -0.492845
0.193820 0.031952 -0.493295
0.192002 0.031654 -0.492637
0.190470 0.031654 -0.493088
0.188938 0.031654 -0.493539
0.187115 0.031355 -0.492881
0.185582 0.031355 -0.493333
0.183755 0.031056 -0.492673
0.182220 0.031056 -0.493125
0.180686 0.031056 -0.493577
0.178853 0.030756 -0.492918
0.177317 0.030756 -0.493370
0.175781 0.030756 -0.493822
0.173943 0.030456 -0.493162
0.172406 0.030456 -0.493615
0.170563 0.030156 -0.492955
0.169024 0.030156 -0.493408
0.167486 0.030156 -0.493861
0.165637 0.029854 -0.493200
0.164098 0.029854 -0.493653
0.162244 0.029553 -0.492992
0.160388 0.029251 -0.492329
0.158846 0.029251 -0.492783
0.156985 0.028948 -0.492120
0.155442 0.028948 -0.492574
0.153898 0.028948 -0.493029
0.152032 0.028645 -0.492365
0.150487 0.028645 -0.492820
0.148943 0.028645 -0.493275
0.147070 0.028341 -0.492611
0.145524 0.028341 -0.493066
0.143978 0.028341 -0.493521
0.141768 0.027732 -0.491735
0.140219 0.027732 -0.492191
0.138335 0.027427 -0.491524
0.136785 0.027427 -0.491981
0.134896 0.027121 -0.491313
0.133345 0.027121 -0.491770
0.131794 0.027121 -0.492227
0.129899 0.026815 -0.491559
0.128347 0.026815 -0.492016
0.126447 0.026508 -0.491348
0.124894 0.026508 -0.491806
0.122990 0.026201 -0.491136
0.121435 0.026201 -0.491594
0.119879 0.026201 -0.492052
0.117970 0.025893 -0.491383
0.116769 0.026201 -0.492968
0.114857 0.025893 -0.492299
0.113300 0.025893 -0.492758
0.111383 0.025585 -0.492088
0.109826 0.025585 -0.492547
0.107904 0.025276 -0.491876
0.106345 0.025276 -0.492335
0.104786 0.025276 -0.492795
0.102859 0.024967 -0.492124
0.101298 0.024967 -0.492583
0.099366 0.024657 -0.491912
0.097805 0.024657 -0.492372
0.095868 0.024347 -0.491700
0.094305 0.024347 -0.492160
0.092742 0.024347 -0.492620
0.090799 0.024036 -0.491948
0.089235 0.024036 -0.492408
0.087288 0.023724 -0.491735
0.085722 0.023724 -0.492196
0.083770 0.023412 -0.491522
0.082203 0.023412 -0.491984
0.080247 0.023100 -0.491309
0.078678 0.023100 -0.491771
0.077110 0.023100 -0.492232
0.075147 0.022786 -0.491557
0.073577 0.022786 -0.492019
0.071610 0.022473 -0.491344
0.070039 0.022473 -0.491806
0.068067 0.022159 -0.491129
0.066494 0.022159 -0.491593
0.064922 0.022159 -0.492056
0.062944 0.021844 -0.491378
0.061370 0.021844 -0.491842
0.059387 0.021529 -0.491164
0.057812 0.021529 -0.491628
0.055825 0.021213 -0.490949
0.054248 0.021213 -0.491414
0.052256 0.020897 -0.490734
0.050678 0.020897 -0.491199
0.049100 0.020897 -0.491663
0.047102 0.020580 -0.490984
0.045522 0.020580 -0.491449
0.043519 0.020262 -0.490768
0.041938 0.020262 -0.491234
0.039931 0.019945 -0.490552
0.038348 0.019945 -0.491018
0.036766 0.019945 -0.491484
0.034752 0.019626 -0.490802
0.033169 0.019626 -0.491269
0.031150 0.019307 -0.490586
0.029565 0.019307 -0.491053
0.027541 0.018987 -0.490370
0.025955 0.018987 -0.490837
0.023926 0.018667 -0.490153
0.022339 0.018667 -0.490620
0.020751 0.018667 -0.491088
0.018716 0.018346 -0.490403
0.017127 0.018346 -0.490871
0.015087 0.018025 -0.490186
0.013497 0.018025 -0.490654
0.011452 0.017703 -0.489968
0.009861 0.017703 -0.490437
0.008269 0.017703 -0.490906
0.006218 0.017381 -0.490219
0.005086 0.017703 -0.491843
0.003032 0.017381 -0.491158
0.001439 0.017381 -0.491627
-0.000620 0.017058 -0.490940
-0.002215 0.017058 -0.491410
-0.004278 0.016735 -0.490723
-0.005874 0.016735 -0.491193
-0.007470 0.016735 -0.491663
-0.009540 0.016410 -0.490975
-0.011137 0.016410 -0.491445
-0.013213 0.016086 -0.490757
-0.014811 0.016086 -0.491228
-0.016891 0.015761 -0.490539
-0.018491 0.015761 -0.491010
-0.020091 0.015761 -0.491481
-0.022178 0.015435 -0.490792
-0.023779 0.015435 -0.491263
-0.025871 0.015109 -0.490573
-0.027474 0.015109 -0.491045
-0.029571 0.014782 -0.490354
-0.031175 0.014782 -0.490826
-0.033277 0.014454 -0.490135
-0.034882 0.014454 -0.490607
-0.036488 0.014454 -0.491080
-0.038596 0.014126 -0.490388
-0.040203 0.014126 -0.490861
-0.042316 0.013797 -0.490168
-0.043925 0.013797 -0.490642
-0.046043 0.013468 -0.489948
-0.047653 0.013468 -0.490422
-0.049263 0.013468 -0.490896
-0.051388 0.013138 -0.490202
-0.052999 0.013138 -0.490676
-0.055129 0.012808 -0.489982
-0.056742 0.012808 -0.490456
-0.058877 0.012477 -0.489761
-0.060491 0.012477 -0.490236
-0.062632 0.012146 -0.489539
-0.064247 0.012146 -0.490015
-0.065863 0.012146 -0.490491
-0.068010 0.011814 -0.489794
-0.069627 0.011814 -0.490270
-0.071779 0.011481 -0.489572
-0.073398 0.011481 -0.490049
-0.075555 0.011148 -0.489350
-0.077175 0.011148 -0.489827
-0.078795 0.011148 -0.490304
-0.080959 0.010814 -0.489605
-0.082580 0.010814 -0.490082
-0.084750 0.010479 -0.489383
-0.086372 0.010479 -0.489860
-0.088547 0.010144 -0.489160
-0.090171 0.010144 -0.489638
-0.092351 0.009809 -0.488937
-0.093977 0.009809 -0.489415
-0.095602 0.009809 -0.489894
-0.097228 0.009809 -0.490373
-0.098853 0.009809 -0.490851
-0.101043 0.009472 -0.490150
-0.102670 0.009472 -0.490629
-0.104865 0.009135 -0.489928
-0.106494 0.009135 -0.490407
-0.108694 0.008798 -0.489704
-0.110324 0.008798 -0.490184
-0.111954 0.008798 -0.490664
-0.114161 0.008460 -0.489961
-0.115792 0.008460 -0.490442
-0.118005 0.008121 -0.489738
-0.119638 0.008121 -0.490218
-0.121856 0.007782 -0.489514
-0.123490 0.007782 -0.489995
-0.125713 0.007442 -0.489290
-0.127349 0.007442 -0.489771
-0.128984 0.007442 -0.490253
-0.131215 0.007102 -0.489547
-0.132852 0.007102 -0.490029
-0.135087 0.006761 -0.489322
-0.136726 0.006761 -0.489805
-0.138967 0.006419 -0.489097
-0.140607 0.006419 -0.489580
-0.142247 0.006419 -0.490063
-0.144495 0.006077 -0.489355
-0.146137 0.006077 -0.489839
-0.148391 0.005734 -0.489130
-0.150034 0.005734 -0.489614
-0.152293 0.005390 -0.488904
-0.153937 0.005390 -0.489388
-0.156202 0.005046 -0.488678
-0.157848 0.005046 -0.489162
-0.159494 0.005046 -0.489647
-0.161765 0.004701 -0.488936
-0.163413 0.004701 -0.489421
-0.165690 0.004356 -0.488710
-0.167339 0.004356 -0.489195
-0.169622 0.004010 -0.488483
-0.171272 0.004010 -0.488968
-0.172922 0.004010 -0.489454
-0.175212 0.003664 -0.488742
-0.176864 0.003664 -0.489228
-0.179160 0.003316 -0.488514
-0.180813 0.003316 -0.489001
-0.183114 0.002968 -0.488286
-0.184769 0.002968 -0.488774
-0.187076 0.002620 -0.488058
-0.188732 0.002620 -0.488546
-0.190388 0.002620 -0.489034
-0.192702 0.002271 -0.488318
-0.194360 0.002271 -0.488806
-0.196680 0.001921 -0.488089
-0.198339 0.001921 -0.488578
-0.200664 0.001571 -0.487860
-0.202325 0.001571 -0.488349
-0.203986 0.001571 -0.488838
-0.206319 0.001220 -0.488120
-0.207981 0.001220 -0.488610
-0.210319 0.000868 -0.487891
-0.211983 0.000868 -0.488381
-0.214327 0.000516 -0.487661
-0.215992 0.000516 -0.488151
-0.218342 0.000163 -0.487431
-0.220009 0.000163 -0.487921
-0.221676 0.000163 -0.488412
-0.224033 -0.000191 -0.487691
-0.225701 -0.000191 -0.488182
-0.228064 -0.000545 -0.487461
-0.230432 -0.000900 -0.486737
-0.232103 -0.000900 -0.487230
-0.234476 -0.001255 -0.486505
-0.237559 -0.001968 -0.484560
-0.239235 -0.001968 -0.485053
-0.241621 -0.002326 -0.484325
-0.243299 -0.002326 -0.484819
-0.245691 -0.002684 -0.484090
-0.247370 -0.002684 -0.484585
-0.249768 -0.003043 -0.483855
-0.252170 -0.003402 -0.483124
-0.253852 -0.003402 -0.483619
-0.256260 -0.003762 -0.482887
-0.257944 -0.003762 -0.483383
-0.259628 -0.003762 -0.483879
-0.262777 -0.004484 -0.481916
-0.265200 -0.004846 -0.481180
-0.267628 -0.005209 -0.480443
-0.270060 -0.005572 -0.479705
-0.273243 -0.006301 -0.477725
-0.275687 -0.006667 -0.476982
-0.278135 -0.007033 -0.476238
-0.280589 -0.007400 -0.475492
-0.283046 -0.007767 -0.474745
-0.285508 -0.008135 -0.473997
-0.287975 -0.008504 -0.473247
-0.291215 -0.009244 -0.471240
-0.293694 -0.009615 -0.470486
-0.296178 -0.009986 -0.469730
-0.298666 -0.010358 -0.468973
-0.301941 -0.011105 -0.466949
-0.304442 -0.011479 -0.466187
-0.306947 -0.011855 -0.465424
-0.310250 -0.012607 -0.463385
-0.312768 -0.012984 -0.462617
-0.315290 -0.013362 -0.461848
-0.318621 -0.014120 -0.459795
-0.322775 -0.015262 -0.456447
-0.326953 -0.016411 -0.453079
-0.330331 -0.017180 -0.450994
-0.334550 -0.018340 -0.447595
-0.338793 -0.019506 -0.444177
-0.343061 -0.020679 -0.440739
-0.347353 -0.021859 -0.437281
-0.351670 -0.023045 -0.433803
-0.356012 -0.024239 -0.430305
-0.363863 -0.027051 -0.421363
-0.372711 -0.030311 -0.410918
0.395840 -0.163006 0.336330
0.394030 -0.160888 0.327359
0.392052 -0.159485 0.321187
0.390269 -0.157394 0.312331
0.388312 -0.156009 0.306236
0.386554 -0.153944 0.297493
0.384619 -0.152576 0.291474
0.382694 -0.151215 0.285485
0.412499 -0.039706 -0.149983
0.412029 -0.035055 -0.168653
0.410713 -0.033388 -0.175680
0.409407 -0.031735 -0.182652
0.407987 -0.030503 -0.187977
0.406576 -0.029278 -0.193271
0.405172 -0.028061 -0.198534
0.403905 -0.026449 -0.205330
0.402518 -0.025248 -0.210523
0.401010 -0.024451 -0.214142
0.399770 -0.022867 -0.220819
0.398276 -0.022079 -0.224397
0.396654 -0.021686 -0.226439
0.395171 -0.020903 -0.229996
0.393557 -0.020513 -0.232027
0.392083 -0.019734 -0.235563
0.390477 -0.019346 -0.237583
0.389013 -0.018571 -0.241099
0.387415 -0.018185 -0.243108
0.385819 -0.017800 -0.245112
0.384226 -0.017415 -0.247114
0.382492 -0.017415 -0.247624
0.380904 -0.017032 -0.249621
0.379319 -0.016649 -0.251614
0.377587 -0.016649 -0.252124
0.376007 -0.016266 -0.254113
0.374430 -0.015884 -0.256098
0.372855 -0.015503 -0.258080
0.371284 -0.015123 -0.260057
0.369559 -0.015123 -0.260565
0.367992 -0.014744 -0.262538
0.366428 -0.014365 -0.264508
0.364706 -0.014365 -0.265015
0.363147 -0.013987 -0.266981
0.361590 -0.013609 -0.268943
0.360037 -0.013233 -0.270901
0.358320 -0.013233 -0.271406
0.356771 -0.012857 -0.273361
0.355225 -0.012481 -0.275311
0.353681 -0.012107 -0.277258
0.351969 -0.012107 -0.277762
0.350431 -0.011733 -0.279705
0.348895 -0.011360 -0.281644
0.347362 -0.010987 -0.283579
0.345831 -0.010615 -0.285511
0.344126 -0.010615 -0.286013
0.342600 -0.010244 -0.287941
0.341077 -0.009874 -0.289866
0.339374 -0.009874 -0.290367
0.337856 -0.009504 -0.292287
0.336340 -0.009135 -0.294204
0.334827 -0.008766 -0.296117
0.356828 0.037715 -0.474818
0.356210 0.039429 -0.481829
0.354718 0.039429 -0.482268
0.353374 0.039713 -0.483796
0.352033 0.039997 -0.485320
0.350543 0.039997 -0.485759
0.349054 0.039997 -0.486198
0.347564 0.039997 -0.486636
0.346229 0.040280 -0.488158
0.344740 0.040280 -0.488596
0.343408 0.040563 -0.490114
0.341921 0.040563 -0.490552
0.340434 0.040563 -0.490990
0.338946 0.040563 -0.491428
0.337298 0.040280 -0.490787
0.335810 0.040280 -0.491225
0.334321 0.040280 -0.491664
0.332833 0.040280 -0.492102
0.331178 0.039997 -0.491461
0.329689 0.039997 -0.491900
0.328199 0.039997 -0.492338
0.326540 0.039713 -0.491697
0.325049 0.039713 -0.492136
0.323558 0.039713 -0.492575
0.322067 0.039713 -0.493014
0.320401 0.039429 -0.492373
0.318909 0.039429 -0.492813
0.317417 0.039429 -0.493252
0.315746 0.039145 -0.492610
0.314253 0.039145 -0.493050
0.312760 0.039145 -0.493490
0.311083 0.038860 -0.492848
0.309589 0.038860 -0.493288
0.308095 0.038860 -0.493728
0.306413 0.038574 -0.493086
0.304917 0.038574 -0.493527
0.303232 0.038288 -0.492884
0.301735 0.038288 -0.493325
0.300046 0.038002 -0.492681
0.298548 0.038002 -0.493122
0.296854 0.037715 -0.492478
0.295355 0.037715 -0.492920
0.293856 0.037715 -0.493361
0.292157 0.037428 -0.492717
0.290657 0.037428 -0.493159
0.288954 0.037140 -0.492513
0.287452 0.037140 -0.492956
0.285951 0.037140 -0.493398
0.284243 0.036852 -0.492752
0.282740 0.036852 -0.493195
0.281028 0.036563 -0.492549
0.279524 0.036563 -0.492992
0.277808 0.036274 -0.492345
0.276302 0.036274 -0.492788
0.274797 0.036274 -0.493231
0.273291 0.036274 -0.493675
0.271569 0.035984 -0.493028
0.270062 0.035984 -0.493472
0.268555 0.035984 -0.493915
0.266828 0.035694 -0.493268
0.265320 0.035694 -0.493712
0.263364 0.035112 -0.491970
0.261853 0.035112 -0.492415
0.260343 0.035112 -0.492860
0.258604 0.034821 -0.492210
0.257093 0.034821 -0.492655
0.255350 0.034529 -0.492005
0.253837 0.034529 -0.492451
0.252324 0.034529 -0.492896
0.250576 0.034236 -0.492245
0.249061 0.034236 -0.492691
0.247547 0.034236 -0.493137
0.245794 0.033943 -0.492486
0.244278 0.033943 -0.492932
0.242763 0.033943 -0.493379
0.241004 0.033650 -0.492727
0.239487 0.033650 -0.493174
0.237724 0.033356 -0.492522
0.236206 0.033356 -0.492969
0.234688 0.033356 -0.493416
0.232919 0.033061 -0.492763
0.231400 0.033061 -0.493211
0.229627 0.032766 -0.492557
0.228107 0.032766 -0.493005
0.226586 0.032766 -0.493453
0.224808 0.032471 -0.492799
0.223286 0.032471 -0.493247
0.221765 0.032471 -0.493696
0.219981 0.032175 -0.493042
0.218458 0.032175 -0.493490
0.216935 0.032175 -0.493939
0.215146 0.031878 -0.493285
0.213622 0.031878 -0.493733
0.211828 0.031581 -0.493079
0.210303 0.031581 -0.493528
0.208777 0.031581 -0.493977
0.206978 0.031284 -0.493322
0.205451 0.031284 -0.493771
0.203648 0.030986 -0.493115
0.202120 0.030986 -0.493565
0.200592 0.030986 -0.494015
0.198783 0.030688 -0.493359
0.196971 0.030389 -0.492702
0.195441 0.030389 -0.493152
0.193625 0.030089 -0.492494
0.192093 0.030089 -0.492945
0.190561 0.030089 -0.493396
0.188739 0.029789 -0.492738
0.187206 0.029789 -0.493189
0.185380 0.029489 -0.492530
0.183845 0.029489 -0.492982
0.182311 0.029489 -0.493434
0.180479 0.029188 -0.492774
0.178944 0.029188 -0.493227
0.177108 0.028887 -0.492566
