ply
format ascii 1.0
element vertex 1670
property float x
property float y
property float z
end_header
-0.061491 0.189443 -0.488538
-0.063037 0.189443 -0.487975
-0.065097 0.189279 -0.488559
-0.067154 0.189116 -0.489142
-0.068697 0.189116 -0.488581
-0.070749 0.188954 -0.489163
-0.072290 0.188954 -0.488602
-0.074337 0.188791 -0.489184
-0.075878 0.188791 -0.488623
-0.077920 0.188629 -0.489204
-0.079459 0.188629 -0.488644
-0.080998 0.188629 -0.488084
-0.083034 0.188467 -0.488665
-0.084572 0.188467 -0.488105
-0.086603 0.188306 -0.488686
-0.088139 0.188306 -0.488127
-0.090166 0.188145 -0.488707
-0.091701 0.188145 -0.488148
-0.093722 0.187983 -0.488728
-0.095256 0.187983 -0.488170
-0.096790 0.187983 -0.487612
-0.098806 0.187823 -0.488191
-0.100338 0.187823 -0.487633
-0.102349 0.187662 -0.488213
-0.103880 0.187662 -0.487655
-0.105886 0.187502 -0.488234
-0.107416 0.187502 -0.487677
-0.108946 0.187502 -0.487120
-0.110946 0.187342 -0.487699
-0.112475 0.187342 -0.487142
-0.114470 0.187183 -0.487721
-0.115997 0.187183 -0.487165
-0.117988 0.187023 -0.487742
-0.119514 0.187023 -0.487187
-0.121500 0.186864 -0.487764
-0.123483 0.186705 -0.488340
-0.125006 0.186705 -0.487786
-0.126984 0.186547 -0.488361
-0.128506 0.186547 -0.487807
-0.130480 0.186388 -0.488382
-0.132001 0.186388 -0.487829
-0.133969 0.186230 -0.488403
-0.135489 0.186230 -0.487850
-0.137008 0.186230 -0.487297
-0.138971 0.186073 -0.487872
-0.140490 0.186073 -0.487319
-0.142448 0.185915 -0.487893
-0.143965 0.185915 -0.487341
-0.146354 0.185601 -0.489038
-0.147869 0.185601 -0.488487
-0.149816 0.185444 -0.489059
-0.151329 0.185444 -0.488508
-0.152842 0.185444 -0.487957
-0.154783 0.185288 -0.488529
-0.156295 0.185288 -0.487979
-0.158232 0.185132 -0.488550
-0.159743 0.185132 -0.488000
-0.161675 0.184976 -0.488571
-0.163184 0.184976 -0.488021
-0.164694 0.184976 -0.487472
-0.166620 0.184820 -0.488042
-0.168543 0.184665 -0.488612
-0.170050 0.184665 -0.488063
-0.171969 0.184510 -0.488633
-0.173474 0.184510 -0.488085
-0.175389 0.184355 -0.488653
-0.176893 0.184355 -0.488106
-0.178397 0.184355 -0.487558
-0.179902 0.184355 -0.487011
-0.181809 0.184200 -0.487580
-0.183312 0.184200 -0.487033
-0.184815 0.184200 -0.486485
-0.186717 0.184046 -0.487055
-0.188219 0.184046 -0.486508
-0.190116 0.183892 -0.487076
-0.191616 0.183892 -0.486530
-0.193509 0.183738 -0.487098
-0.195008 0.183738 -0.486553
-0.196508 0.183738 -0.486007
-0.198395 0.183584 -0.486575
-0.199893 0.183584 -0.486030
-0.201775 0.183431 -0.486597
-0.203272 0.183431 -0.486052
-0.205151 0.183278 -0.486619
-0.206646 0.183278 -0.486075
-0.208520 0.183125 -0.486641
-0.210014 0.183125 -0.486098
-0.211509 0.183125 -0.485554
-0.213377 0.182973 -0.486120
-0.214870 0.182973 -0.485577
-0.216734 0.182820 -0.486143
-0.218226 0.182820 -0.485600
-0.220086 0.182668 -0.486165
-0.221576 0.182668 -0.485623
-0.223432 0.182516 -0.486188
-0.224921 0.182516 -0.485646
-0.226410 0.182516 -0.485103
-0.228260 0.182365 -0.485668
-0.229748 0.182365 -0.485127
-0.231594 0.182214 -0.485691
-0.233081 0.182214 -0.485150
-0.234568 0.182214 -0.484609
-0.236408 0.182063 -0.485173
-0.237894 0.182063 -0.484633
-0.239379 0.182063 -0.484092
-0.241214 0.181912 -0.484656
-0.242698 0.181912 -0.484116
-0.244183 0.181912 -0.483576
-0.246012 0.181761 -0.484140
-0.247495 0.181761 -0.483600
-0.248978 0.181761 -0.483060
-0.250802 0.181611 -0.483625
-0.252622 0.181461 -0.484188
-0.254103 0.181461 -0.483649
-0.255584 0.181461 -0.483110
-0.257065 0.181461 -0.482571
-0.258879 0.181311 -0.483135
-0.260358 0.181311 -0.482596
-0.261838 0.181311 -0.482058
-0.263318 0.181311 -0.481519
-0.264797 0.181311 -0.480981
-0.266277 0.181311 -0.480442
-0.267756 0.181311 -0.479904
-0.269560 0.181162 -0.480469
-0.271038 0.181162 -0.479931
-0.272517 0.181162 -0.479393
-0.273995 0.181162 -0.478855
-0.275474 0.181162 -0.478317
-0.276952 0.181162 -0.477779
-0.278430 0.181162 -0.477241
-0.279909 0.181162 -0.476703
-0.281387 0.181162 -0.476165
-0.282865 0.181162 -0.475626
-0.284344 0.181162 -0.475088
-0.285822 0.181162 -0.474550
-0.287301 0.181162 -0.474012
-0.288779 0.181162 -0.473474
-0.290257 0.181162 -0.472936
-0.291736 0.181162 -0.472398
-0.293214 0.181162 -0.471860
-0.294693 0.181162 -0.471322
-0.296171 0.181162 -0.470784
-0.297649 0.181162 -0.470246
-0.299128 0.181162 -0.469707
-0.300606 0.181162 -0.469169
-0.302085 0.181162 -0.468631
-0.303563 0.181162 -0.468093
-0.305041 0.181162 -0.467555
-0.306520 0.181162 -0.467017
-0.307998 0.181162 -0.466479
-0.309185 0.181311 -0.464825
-0.310665 0.181311 -0.464286
-0.312145 0.181311 -0.463748
-0.313336 0.181461 -0.462090
-0.314817 0.181461 -0.461551
-0.316298 0.181461 -0.461012
-0.317779 0.181461 -0.460473
-0.319260 0.181461 -0.459934
-0.320740 0.181461 -0.459395
-0.322221 0.181461 -0.458856
-0.323702 0.181461 -0.458317
-0.325183 0.181461 -0.457778
-0.326664 0.181461 -0.457239
-0.328420 0.181311 -0.457824
-0.329900 0.181311 -0.457285
-0.331106 0.181461 -0.455622
-0.332587 0.181461 -0.455083
-0.334068 0.181461 -0.454544
-0.335549 0.181461 -0.454005
-0.337029 0.181461 -0.453466
-0.338243 0.181611 -0.451799
-0.339725 0.181611 -0.451259
-0.341207 0.181611 -0.450720
-0.342689 0.181611 -0.450181
-0.344171 0.181611 -0.449641
-0.345391 0.181761 -0.447969
-0.346874 0.181761 -0.447429
-0.348357 0.181761 -0.446889
-0.349841 0.181761 -0.446349
-0.351324 0.181761 -0.445810
-0.352807 0.181761 -0.445270
-0.354035 0.181912 -0.443592
-0.355520 0.181912 -0.443052
-0.357004 0.181912 -0.442512
-0.358489 0.181912 -0.441972
-0.359973 0.181912 -0.441431
-0.361208 0.182063 -0.439750
-0.362694 0.182063 -0.439209
-0.364180 0.182063 -0.438668
-0.365666 0.182063 -0.438127
-0.367151 0.182063 -0.437587
-0.368393 0.182214 -0.435900
-0.370123 0.182063 -0.436505
-0.371367 0.182214 -0.434818
-0.372854 0.182214 -0.434277
-0.374102 0.182365 -0.432586
-0.375352 0.182516 -0.430893
-0.376841 0.182516 -0.430351
-0.378095 0.182668 -0.428655
-0.379585 0.182668 -0.428112
-0.381076 0.182668 -0.427570
-0.382334 0.182820 -0.425869
-0.383826 0.182820 -0.425326
-0.385317 0.182820 -0.424783
-0.386580 0.182973 -0.423080
-0.388073 0.182973 -0.422536
-0.389338 0.183125 -0.420829
-0.390833 0.183125 -0.420285
-0.392327 0.183125 -0.419741
-0.393597 0.183278 -0.418030
-0.395093 0.183278 -0.417486
-0.396589 0.183278 -0.416942
-0.397864 0.183431 -0.415227
-0.399360 0.183431 -0.414682
-0.400639 0.183584 -0.412964
-0.402137 0.183584 -0.412419
-0.403635 0.183584 -0.411874
-0.404918 0.183738 -0.410152
-0.406417 0.183738 -0.409606
-0.407916 0.183738 -0.409060
-0.409416 0.183738 -0.408515
-0.410704 0.183892 -0.406789
-0.411995 0.184046 -0.405060
-0.413288 0.184200 -0.403328
-0.414792 0.184200 -0.402781
-0.416088 0.184355 -0.401046
-0.417592 0.184355 -0.400498
-0.418688 0.184665 -0.397567
-0.419991 0.184820 -0.395823
-0.421296 0.184976 -0.394076
-0.422603 0.185132 -0.392327
-0.424114 0.185132 -0.391777
-0.425425 0.185288 -0.390024
-0.426738 0.185444 -0.388268
-0.428053 0.185601 -0.386508
-0.429173 0.185915 -0.383534
-0.430494 0.186073 -0.381766
-0.431817 0.186230 -0.379996
-0.433142 0.186388 -0.378222
-0.434469 0.186547 -0.376446
-0.435799 0.186705 -0.374666
-0.437131 0.186864 -0.372884
-0.438656 0.186864 -0.372329
-0.439991 0.187023 -0.370543
-0.441329 0.187183 -0.368754
-0.442669 0.187342 -0.366962
-0.444011 0.187502 -0.365167
-0.445356 0.187662 -0.363368
-0.446703 0.187823 -0.361567
-0.448052 0.187983 -0.359763
-0.449403 0.188145 -0.357955
-0.450393 0.188629 -0.353635
-0.451570 0.188954 -0.350555
-0.452751 0.189279 -0.347465
-0.453755 0.189770 -0.343091
-0.454765 0.190263 -0.338695
0.317055 0.204936 -0.485058
0.314451 0.204744 -0.485698
0.311852 0.204551 -0.486337
0.309259 0.204360 -0.486974
0.307577 0.204360 -0.486362
0.304989 0.204168 -0.486998
0.302407 0.203977 -0.487634
0.300728 0.203977 -0.487023
0.298152 0.203786 -0.487658
0.296475 0.203786 -0.487047
0.293905 0.203596 -0.487682
0.291340 0.203406 -0.488315
0.289667 0.203406 -0.487706
0.287108 0.203216 -0.488338
0.285435 0.203216 -0.487729
0.282883 0.203026 -0.488361
0.281212 0.203026 -0.487753
0.278666 0.202837 -0.488384
0.276125 0.202649 -0.489015
0.274457 0.202649 -0.488408
0.272790 0.202649 -0.487801
0.270256 0.202460 -0.488431
0.268590 0.202460 -0.487824
0.266063 0.202272 -0.488454
0.263540 0.202085 -0.489082
0.261877 0.202085 -0.488477
0.259360 0.201898 -0.489104
0.257699 0.201898 -0.488500
0.255189 0.201711 -0.489127
0.253529 0.201711 -0.488522
0.251025 0.201524 -0.489149
0.249366 0.201524 -0.488545
0.246030 0.201152 -0.490398
0.244375 0.201152 -0.489796
0.241886 0.200966 -0.490419
0.240232 0.200966 -0.489817
0.238578 0.200966 -0.489215
0.236097 0.200781 -0.489839
0.234445 0.200781 -0.489238
0.231970 0.200596 -0.489861
0.230319 0.200596 -0.489260
0.227850 0.200412 -0.489882
0.226201 0.200412 -0.489282
0.223738 0.200228 -0.489903
0.222090 0.200228 -0.489304
0.218825 0.199860 -0.491144
0.217180 0.199860 -0.490545
0.214732 0.199677 -0.491164
0.213089 0.199677 -0.490566
0.210647 0.199494 -0.491184
0.209005 0.199494 -0.490586
0.207364 0.199494 -0.489989
0.205722 0.199494 -0.489391
0.202499 0.199129 -0.491224
0.200860 0.199129 -0.490628
0.198436 0.198948 -0.491244
0.196799 0.198948 -0.490648
0.194380 0.198766 -0.491264
0.192744 0.198766 -0.490669
0.190332 0.198585 -0.491284
0.188698 0.198585 -0.490690
0.186291 0.198404 -0.491304
0.184658 0.198404 -0.490710
0.182258 0.198223 -0.491324
0.180626 0.198223 -0.490731
0.178231 0.198043 -0.491344
0.176601 0.198043 -0.490751
0.174212 0.197863 -0.491364
0.172584 0.197863 -0.490772
0.170201 0.197684 -0.491384
0.168574 0.197684 -0.490792
0.166196 0.197504 -0.491404
0.164571 0.197504 -0.490812
0.162199 0.197326 -0.491424
0.160575 0.197326 -0.490833
0.158209 0.197147 -0.491443
0.156587 0.197147 -0.490853
0.154227 0.196969 -0.491463
0.151871 0.196791 -0.492072
0.150251 0.196791 -0.491483
0.147901 0.196613 -0.492091
0.146283 0.196613 -0.491502
0.143938 0.196436 -0.492110
0.142321 0.196436 -0.491522
0.140705 0.196436 -0.490933
0.138367 0.196259 -0.491541
0.136752 0.196259 -0.490954
0.134420 0.196082 -0.491561
0.132806 0.196082 -0.490974
0.130480 0.195906 -0.491580
0.128868 0.195906 -0.490994
0.127255 0.195906 -0.490407
0.124936 0.195730 -0.491014
0.122621 0.195554 -0.491619
0.121012 0.195554 -0.491034
0.119402 0.195554 -0.490448
0.117094 0.195379 -0.491053
0.115486 0.195379 -0.490468
0.113184 0.195204 -0.491073
0.110886 0.195029 -0.491677
0.109281 0.195029 -0.491093
0.106988 0.194854 -0.491697
0.105384 0.194854 -0.491113
0.103097 0.194680 -0.491716
0.101495 0.194680 -0.491133
0.099213 0.194506 -0.491735
0.097612 0.194506 -0.491152
0.095336 0.194333 -0.491754
0.093736 0.194333 -0.491172
0.091465 0.194160 -0.491773
0.089867 0.194160 -0.491192
0.088270 0.194160 -0.490610
0.086006 0.193987 -0.491211
0.084409 0.193987 -0.490630
0.082150 0.193814 -0.491231
0.080555 0.193814 -0.490650
0.078960 0.193814 -0.490070
0.076709 0.193642 -0.490671
0.075115 0.193642 -0.490090
0.072869 0.193470 -0.490691
0.071276 0.193470 -0.490111
0.069035 0.193298 -0.490710
0.067444 0.193298 -0.490131
0.065209 0.193127 -0.490730
0.063619 0.193127 -0.490152
0.061389 0.192955 -0.490750
0.059801 0.192955 -0.490172
0.058213 0.192955 -0.489594
0.055990 0.192785 -0.490193
0.054403 0.192785 -0.489615
0.052185 0.192614 -0.490213
0.049971 0.192444 -0.490810
0.048387 0.192444 -0.490233
0.046178 0.192274 -0.490830
0.044595 0.192274 -0.490254
0.042392 0.192105 -0.490850
0.040810 0.192105 -0.490274
0.038612 0.191935 -0.490869
0.037032 0.191935 -0.490294
0.034839 0.191766 -0.490889
0.033261 0.191766 -0.490314
0.031683 0.191766 -0.489740
0.029496 0.191598 -0.490335
0.027919 0.191598 -0.489761
0.025738 0.191429 -0.490355
0.024162 0.191429 -0.489781
0.021986 0.191261 -0.490375
0.020412 0.191261 -0.489802
0.018838 0.191261 -0.489229
0.016668 0.191093 -0.489822
0.015095 0.191093 -0.489250
0.012931 0.190926 -0.489843
0.011360 0.190926 -0.489271
0.009200 0.190758 -0.489863
0.007630 0.190758 -0.489292
0.005476 0.190592 -0.489884
0.003908 0.190592 -0.489313
0.002339 0.190592 -0.488742
0.000191 0.190425 -0.489334
-0.001376 0.190425 -0.488763
-0.003518 0.190259 -0.489355
-0.005084 0.190259 -0.488785
-0.007222 0.190092 -0.489375
-0.009355 0.189927 -0.489965
-0.010919 0.189927 -0.489396
-0.013047 0.189761 -0.489985
-0.014609 0.189761 -0.489417
-0.016733 0.189596 -0.490006
-0.018293 0.189596 -0.489438
-0.020412 0.189431 -0.490026
-0.021971 0.189431 -0.489458
-0.024084 0.189266 -0.490046
-0.025642 0.189266 -0.489479
-0.027200 0.189266 -0.488912
-0.029307 0.189102 -0.489500
-0.030864 0.189102 -0.488933
-0.032966 0.188938 -0.489520
-0.034521 0.188938 -0.488954
-0.036618 0.188774 -0.489541
-0.038172 0.188774 -0.488975
-0.039726 0.188774 -0.488410
-0.041817 0.188611 -0.488996
-0.043369 0.188611 -0.488431
-0.045455 0.188448 -0.489017
-0.047006 0.188448 -0.488453
-0.049087 0.188285 -0.489038
-0.050637 0.188285 -0.488474
-0.052713 0.188122 -0.489059
-0.054261 0.188122 -0.488495
-0.055810 0.188122 -0.487932
-0.057879 0.187960 -0.488517
-0.059427 0.187960 -0.487954
-0.061491 0.187798 -0.488538
-0.063037 0.187798 -0.487975
-0.065097 0.187636 -0.488559
-0.067154 0.187474 -0.489142
-0.068697 0.187474 -0.488581
-0.070749 0.187313 -0.489163
-0.072290 0.187313 -0.488602
-0.074337 0.187152 -0.489184
-0.075878 0.187152 -0.488623
-0.077920 0.186991 -0.489204
-0.079459 0.186991 -0.488644
-0.081496 0.186831 -0.489225
-0.083034 0.186831 -0.488665
-0.084572 0.186831 -0.488105
-0.086603 0.186671 -0.488686
-0.088139 0.186671 -0.488127
-0.090166 0.186511 -0.488707
-0.091701 0.186511 -0.488148
-0.093722 0.186351 -0.488728
-0.095256 0.186351 -0.488170
-0.096790 0.186351 -0.487612
-0.098806 0.186192 -0.488191
-0.100338 0.186192 -0.487633
-0.102349 0.186033 -0.488213
-0.103880 0.186033 -0.487655
-0.105886 0.185874 -0.488234
-0.107416 0.185874 -0.487677
-0.109417 0.185715 -0.488255
-0.110946 0.185715 -0.487699
-0.112475 0.185715 -0.487142
-0.114470 0.185557 -0.487721
-0.115997 0.185557 -0.487165
-0.117988 0.185399 -0.487742
-0.119514 0.185399 -0.487187
-0.121500 0.185241 -0.487764
-0.123483 0.185084 -0.488340
-0.125006 0.185084 -0.487786
-0.126984 0.184927 -0.488361
-0.128506 0.184927 -0.487807
-0.130480 0.184770 -0.488382
-0.132001 0.184770 -0.487829
-0.133969 0.184613 -0.488403
-0.135489 0.184613 -0.487850
-0.137453 0.184457 -0.488424
-0.138971 0.184457 -0.487872
-0.140490 0.184457 -0.487319
-0.142448 0.184301 -0.487893
-0.143965 0.184301 -0.487341
-0.146354 0.183989 -0.489038
-0.147869 0.183989 -0.488487
-0.149816 0.183834 -0.489059
-0.151329 0.183834 -0.488508
-0.152842 0.183834 -0.487957
-0.154783 0.183679 -0.488529
-0.156295 0.183679 -0.487979
-0.158232 0.183524 -0.488550
-0.159743 0.183524 -0.488000
-0.161675 0.183370 -0.488571
-0.163184 0.183370 -0.488021
-0.165112 0.183215 -0.488591
-0.166620 0.183215 -0.488042
-0.168543 0.183061 -0.488612
-0.170050 0.183061 -0.488063
-0.171969 0.182907 -0.488633
-0.173474 0.182907 -0.488085
-0.175389 0.182754 -0.488653
-0.176893 0.182754 -0.488106
-0.178397 0.182754 -0.487558
-0.179902 0.182754 -0.487011
-0.181809 0.182601 -0.487580
-0.183312 0.182601 -0.487033
-0.184815 0.182601 -0.486485
-0.186717 0.182448 -0.487055
-0.188219 0.182448 -0.486508
-0.190116 0.182295 -0.487076
-0.191616 0.182295 -0.486530
-0.193509 0.182142 -0.487098
-0.195008 0.182142 -0.486553
-0.196508 0.182142 -0.486007
-0.198395 0.181990 -0.486575
-0.199893 0.181990 -0.486030
-0.201775 0.181838 -0.486597
-0.203272 0.181838 -0.486052
-0.205151 0.181686 -0.486619
-0.206646 0.181686 -0.486075
-0.208520 0.181535 -0.486641
-0.210014 0.181535 -0.486098
-0.211509 0.181535 -0.485554
-0.213377 0.181384 -0.486120
-0.214870 0.181384 -0.485577
-0.216734 0.181233 -0.486143
-0.218226 0.181233 -0.485600
-0.220086 0.181082 -0.486165
-0.221576 0.181082 -0.485623
-0.223432 0.180931 -0.486188
-0.224921 0.180931 -0.485646
-0.226410 0.180931 -0.485103
-0.228260 0.180781 -0.485668
-0.229748 0.180781 -0.485127
-0.231594 0.180631 -0.485691
-0.233081 0.180631 -0.485150
-0.234568 0.180631 -0.484609
-0.236408 0.180482 -0.485173
-0.237894 0.180482 -0.484633
-0.239379 0.180482 -0.484092
-0.241214 0.180332 -0.484656
-0.242698 0.180332 -0.484116
-0.244183 0.180332 -0.483576
-0.246012 0.180183 -0.484140
-0.247495 0.180183 -0.483600
-0.249320 0.180034 -0.484164
-0.250802 0.180034 -0.483625
-0.252622 0.179885 -0.484188
-0.254103 0.179885 -0.483649
-0.255584 0.179885 -0.483110
-0.257065 0.179885 -0.482571
-0.258879 0.179737 -0.483135
-0.260358 0.179737 -0.482596
-0.261838 0.179737 -0.482058
-0.263318 0.179737 -0.481519
-0.264797 0.179737 -0.480981
-0.266277 0.179737 -0.480442
-0.267756 0.179737 -0.479904
-0.269560 0.179588 -0.480469
-0.271038 0.179588 -0.479931
-0.272517 0.179588 -0.479393
-0.273995 0.179588 -0.478855
-0.275474 0.179588 -0.478317
-0.277269 0.179440 -0.478883
-0.278747 0.179440 -0.478346
-0.280224 0.179440 -0.477808
-0.281387 0.179588 -0.476165
-0.282865 0.179588 -0.475626
-0.284344 0.179588 -0.475088
-0.285822 0.179588 -0.474550
-0.287301 0.179588 -0.474012
-0.288779 0.179588 -0.473474
-0.290257 0.179588 -0.472936
-0.291736 0.179588 -0.472398
-0.293214 0.179588 -0.471860
-0.294693 0.179588 -0.471322
-0.296171 0.179588 -0.470784
-0.297649 0.179588 -0.470246
-0.299128 0.179588 -0.469707
-0.300606 0.179588 -0.469169
-0.302085 0.179588 -0.468631
-0.303859 0.179440 -0.469206
-0.305041 0.179588 -0.467555
-0.306520 0.179588 -0.467017
-0.307998 0.179588 -0.466479
-0.309477 0.179588 -0.465941
-0.310955 0.179588 -0.465403
-0.312433 0.179588 -0.464865
-0.313624 0.179737 -0.463209
-0.315104 0.179737 -0.462671
-0.316583 0.179737 -0.462132
-0.317779 0.179885 -0.460473
-0.319260 0.179885 -0.459934
-0.320740 0.179885 -0.459395
-0.322221 0.179885 -0.458856
-0.323702 0.179885 -0.458317
-0.325183 0.179885 -0.457778
-0.326664 0.179885 -0.457239
-0.328420 0.179737 -0.457824
-0.329900 0.179737 -0.457285
-0.331380 0.179737 -0.456747
-0.332859 0.179737 -0.456208
-0.334339 0.179737 -0.455670
-0.335818 0.179737 -0.455131
-0.337298 0.179737 -0.454593
-0.338510 0.179885 -0.452927
-0.339991 0.179885 -0.452388
-0.341472 0.179885 -0.451849
-0.342689 0.180034 -0.450181
-0.344171 0.180034 -0.449641
-0.345653 0.180034 -0.449102
-0.347135 0.180034 -0.448562
-0.348617 0.180034 -0.448023
-0.349841 0.180183 -0.446349
-0.351324 0.180183 -0.445810
-0.352807 0.180183 -0.445270
-0.354290 0.180183 -0.444730
-0.355774 0.180183 -0.444190
-0.357257 0.180183 -0.443650
-0.358489 0.180332 -0.441972
-0.359973 0.180332 -0.441431
-0.361458 0.180332 -0.440891
-0.362942 0.180332 -0.440351
-0.364427 0.180332 -0.439810
-0.365666 0.180482 -0.438127
-0.367151 0.180482 -0.437587
-0.368637 0.180482 -0.437046
-0.370123 0.180482 -0.436505
-0.371608 0.180482 -0.435964
-0.373094 0.180482 -0.435424
-0.374102 0.180781 -0.432586
-0.375590 0.180781 -0.432045
-0.377078 0.180781 -0.431503
-0.378331 0.180931 -0.429809
-0.379820 0.180931 -0.429267
-0.381310 0.180931 -0.428725
-0.382567 0.181082 -0.427027
-0.384057 0.181082 -0.426484
-0.385317 0.181233 -0.424783
-0.386809 0.181233 -0.424240
-0.388301 0.181233 -0.423697
-0.389566 0.181384 -0.421993
-0.391059 0.181384 -0.421449
-0.392327 0.181535 -0.419741
-0.393822 0.181535 -0.419197
-0.395316 0.181535 -0.418653
-0.396589 0.181686 -0.416942
-0.398084 0.181686 -0.416397
-0.399580 0.181686 -0.415853
-0.400857 0.181838 -0.414137
-0.402354 0.181838 -0.413592
-0.403851 0.181838 -0.413048
-0.405133 0.181990 -0.411328
-0.406631 0.181990 -0.410783
-0.407916 0.182142 -0.409060
-0.409416 0.182142 -0.408515
-0.410915 0.182142 -0.407969
-0.412414 0.182142 -0.407423
-0.413706 0.182295 -0.405696
-0.414999 0.182448 -0.403967
-0.416295 0.182601 -0.402234
-0.417798 0.182601 -0.401687
-0.419097 0.182754 -0.399951
-0.420398 0.182907 -0.398212
-0.421701 0.183061 -0.396470
-0.423007 0.183215 -0.394725
-0.424315 0.183370 -0.392978
-0.425625 0.183524 -0.391227
-0.426937 0.183679 -0.389473
-0.428251 0.183834 -0.387717
-0.429568 0.183989 -0.385957
-0.430690 0.184301 -0.382982
-0.432012 0.184457 -0.381214
-0.433531 0.184457 -0.380661
-0.434856 0.184613 -0.378889
-0.436184 0.184770 -0.377115
-0.437514 0.184927 -0.375338
-0.439036 0.184927 -0.374784
-0.440370 0.185084 -0.373003
-0.441705 0.185241 -0.371219
-0.443043 0.185399 -0.369432
-0.444384 0.185557 -0.367642
-0.445541 0.185874 -0.364610
-0.446887 0.186033 -0.362811
-0.448235 0.186192 -0.361009
-0.449586 0.186351 -0.359204
-0.450938 0.186511 -0.357397
-0.451932 0.186991 -0.353075
-0.453112 0.187313 -0.349994
-0.454295 0.187636 -0.346903
-0.455304 0.188122 -0.342528
-0.456139 0.188774 -0.336848
0.317055 0.203142 -0.485058
0.314451 0.202951 -0.485698
0.311852 0.202760 -0.486337
0.309259 0.202570 -0.486974
0.307577 0.202570 -0.486362
0.304989 0.202380 -0.486998
0.302407 0.202191 -0.487634
0.300728 0.202191 -0.487023
0.298152 0.202001 -0.487658
0.296475 0.202001 -0.487047
0.293905 0.201813 -0.487682
0.291340 0.201624 -0.488315
0.289667 0.201624 -0.487706
0.287108 0.201436 -0.488338
0.285435 0.201436 -0.487729
0.282883 0.201248 -0.488361
0.280335 0.201061 -0.488992
0.278666 0.201061 -0.488384
0.276125 0.200874 -0.489015
0.274457 0.200874 -0.488408
0.272790 0.200874 -0.487801
0.270256 0.200687 -0.488431
0.267727 0.200501 -0.489059
0.266063 0.200501 -0.488454
0.263540 0.200315 -0.489082
0.261877 0.200315 -0.488477
0.259360 0.200129 -0.489104
0.257699 0.200129 -0.488500
0.255189 0.199944 -0.489127
0.253529 0.199944 -0.488522
0.251025 0.199759 -0.489149
0.248525 0.199575 -0.489774
0.246030 0.199390 -0.490398
0.244375 0.199390 -0.489796
0.241886 0.199206 -0.490419
0.240232 0.199206 -0.489817
0.238578 0.199206 -0.489215
0.236097 0.199023 -0.489839
0.234445 0.199023 -0.489238
0.231970 0.198840 -0.489861
0.230319 0.198840 -0.489260
0.227850 0.198657 -0.489882
0.226201 0.198657 -0.489282
0.223738 0.198474 -0.489903
0.222090 0.198474 -0.489304
0.219633 0.198292 -0.489925
0.217180 0.198110 -0.490545
0.214732 0.197928 -0.491164
0.213089 0.197928 -0.490566
0.210647 0.197747 -0.491184
0.209005 0.197747 -0.490586
0.207364 0.197747 -0.489989
0.205722 0.197747 -0.489391
0.202499 0.197385 -0.491224
0.200860 0.197385 -0.490628
0.198436 0.197205 -0.491244
0.196799 0.197205 -0.490648
0.194380 0.197025 -0.491264
0.192744 0.197025 -0.490669
0.190332 0.196846 -0.491284
0.188698 0.196846 -0.490690
0.186291 0.196666 -0.491304
0.184658 0.196666 -0.490710
0.182258 0.196487 -0.491324
0.180626 0.196487 -0.490731
0.178231 0.196309 -0.491344
0.176601 0.196309 -0.490751
0.174212 0.196130 -0.491364
0.172584 0.196130 -0.490772
0.170201 0.195952 -0.491384
0.168574 0.195952 -0.490792
0.166196 0.195775 -0.491404
0.164571 0.195775 -0.490812
0.162199 0.195597 -0.491424
0.160575 0.195597 -0.490833
0.158209 0.195420 -0.491443
0.156587 0.195420 -0.490853
0.154227 0.195244 -0.491463
0.151871 0.195067 -0.492072
0.150251 0.195067 -0.491483
0.147901 0.194891 -0.492091
0.146283 0.194891 -0.491502
0.143938 0.194715 -0.492110
0.142321 0.194715 -0.491522
0.140705 0.194715 -0.490933
0.138367 0.194540 -0.491541
0.136752 0.194540 -0.490954
0.134420 0.194365 -0.491561
0.132806 0.194365 -0.490974
0.130480 0.194190 -0.491580
0.128868 0.194190 -0.490994
0.126547 0.194016 -0.491600
0.124936 0.194016 -0.491014
0.122621 0.193841 -0.491619
0.121012 0.193841 -0.491034
0.118702 0.193667 -0.491639
0.117094 0.193667 -0.491053
0.115486 0.193667 -0.490468
0.113184 0.193494 -0.491073
0.110886 0.193321 -0.491677
0.109281 0.193321 -0.491093
0.106988 0.193148 -0.491697
0.105384 0.193148 -0.491113
0.103097 0.192975 -0.491716
0.101495 0.192975 -0.491133
0.099213 0.192803 -0.491735
0.097612 0.192803 -0.491152
0.095336 0.192631 -0.491754
0.093736 0.192631 -0.491172
0.091465 0.192459 -0.491773
0.089867 0.192459 -0.491192
0.087602 0.192288 -0.491793
0.086006 0.192288 -0.491211
0.084409 0.192288 -0.490630
0.082150 0.192116 -0.491231
0.080555 0.192116 -0.490650
0.078960 0.192116 -0.490070
0.076709 0.191946 -0.490671
0.075115 0.191946 -0.490090
0.072869 0.191775 -0.490691
0.071276 0.191775 -0.490111
0.069035 0.191605 -0.490710
0.067444 0.191605 -0.490131
0.065209 0.191435 -0.490730
0.063619 0.191435 -0.490152
0.061389 0.191265 -0.490750
0.059801 0.191265 -0.490172
0.058213 0.191265 -0.489594
0.055990 0.191096 -0.490193
0.054403 0.191096 -0.489615
0.052185 0.190927 -0.490213
0.049971 0.190758 -0.490810
0.048387 0.190758 -0.490233
0.046178 0.190590 -0.490830
0.044595 0.190590 -0.490254
0.042392 0.190422 -0.490850
0.040810 0.190422 -0.490274
0.038612 0.190254 -0.490869
0.037032 0.190254 -0.490294
0.034839 0.190087 -0.490889
0.033261 0.190087 -0.490314
0.031073 0.189919 -0.490909
0.029496 0.189919 -0.490335
0.027919 0.189919 -0.489761
0.025738 0.189752 -0.490355
0.024162 0.189752 -0.489781
0.021986 0.189586 -0.490375
0.020412 0.189586 -0.489802
0.018838 0.189586 -0.489229
0.016668 0.189419 -0.489822
0.015095 0.189419 -0.489250
0.012931 0.189253 -0.489843
0.011360 0.189253 -0.489271
0.009200 0.189088 -0.489863
0.007630 0.189088 -0.489292
0.005476 0.188922 -0.489884
0.003908 0.188922 -0.489313
0.001759 0.188757 -0.489904
0.000191 0.188757 -0.489334
-0.001376 0.188757 -0.488763
-0.003518 0.188592 -0.489355
-0.005084 0.188592 -0.488785
-0.007222 0.188427 -0.489375
-0.009355 0.188263 -0.489965
-0.010919 0.188263 -0.489396
-0.013047 0.188099 -0.489985
-0.014609 0.188099 -0.489417
-0.016733 0.187935 -0.490006
-0.018293 0.187935 -0.489438
-0.020412 0.187772 -0.490026
-0.021971 0.187772 -0.489458
-0.024084 0.187609 -0.490046
-0.025642 0.187609 -0.489479
-0.027751 0.187446 -0.490066
-0.029307 0.187446 -0.489500
-0.030864 0.187446 -0.488933
-0.032966 0.187283 -0.489520
-0.034521 0.187283 -0.488954
-0.036618 0.187121 -0.489541
-0.038172 0.187121 -0.488975
-0.039726 0.187121 -0.488410
-0.041817 0.186959 -0.488996
-0.043369 0.186959 -0.488431
-0.045455 0.186797 -0.489017
-0.047006 0.186797 -0.488453
-0.049087 0.186635 -0.489038
-0.050637 0.186635 -0.488474
-0.052713 0.186474 -0.489059
-0.054261 0.186474 -0.488495
-0.056332 0.186313 -0.489080
-0.057879 0.186313 -0.488517
-0.059427 0.186313 -0.487954
-0.061491 0.186153 -0.488538
-0.063037 0.186153 -0.487975
-0.065097 0.185992 -0.488559
-0.067154 0.185832 -0.489142
-0.068697 0.185832 -0.488581
-0.070749 0.185672 -0.489163
-0.072290 0.185672 -0.488602
-0.074337 0.185513 -0.489184
-0.075878 0.185513 -0.488623
-0.077920 0.185353 -0.489204
-0.079459 0.185353 -0.488644
-0.081496 0.185194 -0.489225
-0.083034 0.185194 -0.488665
-0.085066 0.185036 -0.489245
-0.086603 0.185036 -0.488686
-0.088139 0.185036 -0.488127
-0.090166 0.184877 -0.488707
-0.091701 0.184877 -0.488148
-0.093722 0.184719 -0.488728
-0.095256 0.184719 -0.488170
-0.096790 0.184719 -0.487612
-0.098806 0.184561 -0.488191
-0.100338 0.184561 -0.487633
-0.102349 0.184403 -0.488213
-0.103880 0.184403 -0.487655
-0.105886 0.184246 -0.488234
-0.107416 0.184246 -0.487677
-0.109417 0.184089 -0.488255
-0.110946 0.184089 -0.487699
-0.112943 0.183932 -0.488277
-0.114470 0.183932 -0.487721
-0.115997 0.183932 -0.487165
-0.117988 0.183775 -0.487742
-0.119514 0.183775 -0.487187
-0.121500 0.183619 -0.487764
-0.123483 0.183463 -0.488340
-0.125006 0.183463 -0.487786
-0.126984 0.183307 -0.488361
-0.128506 0.183307 -0.487807
-0.130480 0.183151 -0.488382
-0.132001 0.183151 -0.487829
-0.133969 0.182996 -0.488403
-0.135489 0.182996 -0.487850
-0.137453 0.182841 -0.488424
-0.138971 0.182841 -0.487872
-0.140931 0.182686 -0.488445
-0.142448 0.182686 -0.487893
-0.143965 0.182686 -0.487341
-0.146354 0.182378 -0.489038
-0.147869 0.182378 -0.488487
-0.149816 0.182224 -0.489059
-0.151329 0.182224 -0.488508
-0.152842 0.182224 -0.487957
-0.154783 0.182070 -0.488529
-0.156295 0.182070 -0.487979
-0.158232 0.181916 -0.488550
-0.159743 0.181916 -0.488000
-0.161675 0.181763 -0.488571
-0.163184 0.181763 -0.488021
-0.165112 0.181610 -0.488591
-0.166620 0.181610 -0.488042
-0.168543 0.181458 -0.488612
-0.170050 0.181458 -0.488063
-0.171969 0.181305 -0.488633
-0.173474 0.181305 -0.488085
-0.175389 0.181153 -0.488653
-0.176893 0.181153 -0.488106
-0.178397 0.181153 -0.487558
-0.179902 0.181153 -0.487011
-0.181809 0.181001 -0.487580
-0.183312 0.181001 -0.487033
-0.184815 0.181001 -0.486485
-0.186717 0.180849 -0.487055
-0.188219 0.180849 -0.486508
-0.190116 0.180698 -0.487076
-0.191616 0.180698 -0.486530
-0.193509 0.180547 -0.487098
-0.195008 0.180547 -0.486553
-0.196508 0.180547 -0.486007
-0.198395 0.180396 -0.486575
-0.199893 0.180396 -0.486030
-0.201775 0.180245 -0.486597
-0.203272 0.180245 -0.486052
-0.205151 0.180095 -0.486619
-0.206646 0.180095 -0.486075
-0.208520 0.179945 -0.486641
-0.210014 0.179945 -0.486098
-0.211509 0.179945 -0.485554
-0.213377 0.179795 -0.486120
-0.214870 0.179795 -0.485577
-0.216734 0.179645 -0.486143
-0.218226 0.179645 -0.485600
-0.220086 0.179496 -0.486165
-0.221576 0.179496 -0.485623
-0.223432 0.179346 -0.486188
-0.224921 0.179346 -0.485646
-0.226410 0.179346 -0.485103
-0.228260 0.179198 -0.485668
-0.229748 0.179198 -0.485127
-0.231594 0.179049 -0.485691
-0.233081 0.179049 -0.485150
-0.234568 0.179049 -0.484609
-0.236408 0.178900 -0.485173
-0.237894 0.178900 -0.484633
-0.239379 0.178900 -0.484092
-0.241214 0.178752 -0.484656
-0.242698 0.178752 -0.484116
-0.244528 0.178604 -0.484680
-0.246012 0.178604 -0.484140
-0.247495 0.178604 -0.483600
-0.249320 0.178457 -0.484164
-0.250802 0.178457 -0.483625
-0.252284 0.178457 -0.483085
-0.254103 0.178309 -0.483649
-0.255584 0.178309 -0.483110
-0.257399 0.178162 -0.483673
-0.258879 0.178162 -0.483135
-0.260358 0.178162 -0.482596
-0.261838 0.178162 -0.482058
-0.263318 0.178162 -0.481519
-0.264797 0.178162 -0.480981
-0.266277 0.178162 -0.480442
-0.268082 0.178015 -0.481007
-0.269560 0.178015 -0.480469
-0.271361 0.177868 -0.481034
-0.272838 0.177868 -0.480496
-0.274315 0.177868 -0.479959
-0.275792 0.177868 -0.479421
-0.277269 0.177868 -0.478883
-0.278747 0.177868 -0.478346
-0.280224 0.177868 -0.477808
-0.281387 0.178015 -0.476165
-0.282865 0.178015 -0.475626
-0.284344 0.178015 -0.475088
-0.285822 0.178015 -0.474550
-0.287301 0.178015 -0.474012
-0.288779 0.178015 -0.473474
-0.290257 0.178015 -0.472936
-0.291736 0.178015 -0.472398
-0.293214 0.178015 -0.471860
-0.294693 0.178015 -0.471322
-0.296171 0.178015 -0.470784
-0.297649 0.178015 -0.470246
-0.299128 0.178015 -0.469707
-0.300606 0.178015 -0.469169
-0.302085 0.178015 -0.468631
-0.303563 0.178015 -0.468093
-0.305336 0.177868 -0.468668
-0.306813 0.177868 -0.468130
-0.308290 0.177868 -0.467593
-0.309477 0.178015 -0.465941
-0.310955 0.178015 -0.465403
-0.312433 0.178015 -0.464865
-0.313912 0.178015 -0.464327
-0.315390 0.178015 -0.463788
-0.316583 0.178162 -0.462132
-0.318063 0.178162 -0.461594
-0.319543 0.178162 -0.461055
-0.321022 0.178162 -0.460517
-0.322502 0.178162 -0.459978
-0.323981 0.178162 -0.459439
-0.325461 0.178162 -0.458901
-0.326941 0.178162 -0.458362
-0.328420 0.178162 -0.457824
-0.329900 0.178162 -0.457285
-0.331380 0.178162 -0.456747
-0.332859 0.178162 -0.456208
-0.334339 0.178162 -0.455670
-0.335818 0.178162 -0.455131
-0.337298 0.178162 -0.454593
-0.338778 0.178162 -0.454054
-0.340257 0.178162 -0.453516
-0.341472 0.178309 -0.451849
-0.342953 0.178309 -0.451310
-0.344434 0.178309 -0.450772
-0.345653 0.178457 -0.449102
-0.347135 0.178457 -0.448562
-0.348617 0.178457 -0.448023
-0.350099 0.178457 -0.447483
-0.351581 0.178457 -0.446944
-0.353063 0.178457 -0.446405
-0.354290 0.178604 -0.444730
-0.355774 0.178604 -0.444190
-0.357257 0.178604 -0.443650
-0.358740 0.178604 -0.443110
-0.360224 0.178604 -0.442570
-0.361458 0.178752 -0.440891
-0.362942 0.178752 -0.440351
-0.364427 0.178752 -0.439810
-0.365911 0.178752 -0.439270
-0.367396 0.178752 -0.438730
-0.368637 0.178900 -0.437046
-0.370123 0.178900 -0.436505
-0.371608 0.178900 -0.435964
-0.373094 0.178900 -0.435424
-0.374580 0.178900 -0.434883
-0.375828 0.179049 -0.433194
-0.377315 0.179049 -0.432653
-0.378567 0.179198 -0.430961
-0.380055 0.179198 -0.430420
-0.381310 0.179346 -0.428725
-0.382799 0.179346 -0.428183
-0.384288 0.179346 -0.427641
-0.385548 0.179496 -0.425942
-0.387038 0.179496 -0.425399
-0.388301 0.179645 -0.423697
-0.389793 0.179645 -0.423154
-0.391285 0.179645 -0.422611
-0.392552 0.179795 -0.420906
-0.394045 0.179795 -0.420362
-0.395538 0.179795 -0.419819
-0.396810 0.179945 -0.418109
-0.398305 0.179945 -0.417566
-0.399799 0.179945 -0.417022
-0.401076 0.180095 -0.415309
-0.402571 0.180095 -0.414764
-0.403851 0.180245 -0.413048
-0.405348 0.180245 -0.412503
-0.406845 0.180245 -0.411958
-0.408129 0.180396 -0.410238
-0.409627 0.180396 -0.409692
-0.410915 0.180547 -0.407969
-0.412414 0.180547 -0.407423
-0.413914 0.180547 -0.406878
-0.415206 0.180698 -0.405150
-0.416707 0.180698 -0.404604
-0.418003 0.180849 -0.402873
-0.419301 0.181001 -0.401140
-0.420601 0.181153 -0.399403
-0.421904 0.181305 -0.397664
-0.423208 0.181458 -0.395921
-0.424715 0.181458 -0.395373
-0.426023 0.181610 -0.393627
-0.427333 0.181763 -0.391879
-0.428646 0.181916 -0.390127
-0.429961 0.182070 -0.388373
-0.431473 0.182070 -0.387822
-0.432791 0.182224 -0.386064
-0.434111 0.182378 -0.384304
-0.435242 0.182686 -0.381325
-0.436567 0.182841 -0.379556
-0.437895 0.182996 -0.377783
-0.439226 0.183151 -0.376008
-0.440370 0.183463 -0.373003
-0.441893 0.183463 -0.372448
-0.443230 0.183619 -0.370664
-0.444569 0.183775 -0.368876
-0.445911 0.183932 -0.367086
-0.447255 0.184089 -0.365292
-0.448601 0.184246 -0.363496
-0.449950 0.184403 -0.361696
-0.451120 0.184719 -0.358646
-0.452474 0.184877 -0.356838
-0.453471 0.185353 -0.352515
-0.454654 0.185672 -0.349433
-0.455840 0.185992 -0.346341
-0.456852 0.186474 -0.341964
-0.457693 0.187121 -0.336282
0.317055 0.201347 -0.485058
0.313536 0.200969 -0.486949
0.310940 0.200780 -0.487586
0.309259 0.200780 -0.486974
0.307577 0.200780 -0.486362
0.304989 0.200592 -0.486998
0.302407 0.200404 -0.487634
0.300728 0.200404 -0.487023
0.298152 0.200217 -0.487658
0.296475 0.200217 -0.487047
0.293905 0.200030 -0.487682
0.291340 0.199843 -0.488315
0.289667 0.199843 -0.487706
0.287108 0.199657 -0.488338
0.285435 0.199657 -0.487729
0.282883 0.199471 -0.488361
0.280335 0.199285 -0.488992
0.278666 0.199285 -0.488384
0.276125 0.199099 -0.489015
0.274457 0.199099 -0.488408
0.272790 0.199099 -0.487801
0.270256 0.198914 -0.488431
0.267727 0.198730 -0.489059
0.266063 0.198730 -0.488454
0.263540 0.198545 -0.489082
0.261877 0.198545 -0.488477
0.259360 0.198361 -0.489104
0.257699 0.198361 -0.488500
0.255189 0.198178 -0.489127
0.252683 0.197994 -0.489752
0.251025 0.197994 -0.489149
0.248525 0.197811 -0.489774
0.246868 0.197811 -0.489171
0.244375 0.197629 -0.489796
0.241886 0.197446 -0.490419
0.240232 0.197446 -0.489817
0.238578 0.197446 -0.489215
0.236097 0.197264 -0.489839
0.234445 0.197264 -0.489238
0.231970 0.197083 -0.489861
0.230319 0.197083 -0.489260
0.227850 0.196901 -0.489882
0.225385 0.196720 -0.490503
0.223738 0.196720 -0.489903
0.221279 0.196540 -0.490524
0.219633 0.196540 -0.489925
0.217180 0.196359 -0.490545
0.214732 0.196179 -0.491164
0.213089 0.196179 -0.490566
0.210647 0.196000 -0.491184
0.209005 0.196000 -0.490586
0.207364 0.196000 -0.489989
0.205722 0.196000 -0.489391
0.202499 0.195642 -0.491224
0.200860 0.195642 -0.490628
0.198436 0.195463 -0.491244
0.196799 0.195463 -0.490648
0.194380 0.195284 -0.491264
0.192744 0.195284 -0.490669
0.190332 0.195106 -0.491284
0.188698 0.195106 -0.490690
0.186291 0.194929 -0.491304
0.184658 0.194929 -0.490710
0.182258 0.194751 -0.491324
0.180626 0.194751 -0.490731
0.178231 0.194574 -0.491344
0.176601 0.194574 -0.490751
0.174212 0.194398 -0.491364
0.172584 0.194398 -0.490772
0.170201 0.194221 -0.491384
0.168574 0.194221 -0.490792
0.166196 0.194045 -0.491404
0.164571 0.194045 -0.490812
0.162199 0.193869 -0.491424
0.160575 0.193869 -0.490833
0.157469 0.193519 -0.492643
0.155848 0.193519 -0.492053
0.154227 0.193519 -0.491463
0.151871 0.193344 -0.492072
0.150251 0.193344 -0.491483
0.147901 0.193169 -0.492091
0.146283 0.193169 -0.491502
0.143938 0.192995 -0.492110
0.142321 0.192995 -0.491522
0.140705 0.192995 -0.490933
0.138367 0.192821 -0.491541
0.136752 0.192821 -0.490954
0.134420 0.192648 -0.491561
0.132806 0.192648 -0.490974
0.130480 0.192474 -0.491580
0.128868 0.192474 -0.490994
0.126547 0.192301 -0.491600
0.124936 0.192301 -0.491014
0.122621 0.192129 -0.491619
0.121012 0.192129 -0.491034
0.118702 0.191956 -0.491639
0.117094 0.191956 -0.491053
0.114791 0.191784 -0.491658
0.113184 0.191784 -0.491073
0.110886 0.191613 -0.491677
0.109281 0.191613 -0.491093
0.106988 0.191441 -0.491697
0.105384 0.191441 -0.491113
0.103097 0.191270 -0.491716
0.101495 0.191270 -0.491133
0.099213 0.191099 -0.491735
0.097612 0.191099 -0.491152
0.095336 0.190929 -0.491754
0.093736 0.190929 -0.491172
0.091465 0.190758 -0.491773
0.089867 0.190758 -0.491192
0.087602 0.190589 -0.491793
0.086006 0.190589 -0.491211
0.083746 0.190419 -0.491812
0.082150 0.190419 -0.491231
0.080555 0.190419 -0.490650
0.078960 0.190419 -0.490070
0.076709 0.190250 -0.490671
0.075115 0.190250 -0.490090
0.072869 0.190081 -0.490691
0.071276 0.190081 -0.490111
0.069035 0.189912 -0.490710
0.067444 0.189912 -0.490131
0.065209 0.189744 -0.490730
0.063619 0.189744 -0.490152
0.061389 0.189575 -0.490750
0.059801 0.189575 -0.490172
0.058213 0.189575 -0.489594
0.055990 0.189408 -0.490193
0.054403 0.189408 -0.489615
0.052185 0.189240 -0.490213
0.049971 0.189073 -0.490810
0.048387 0.189073 -0.490233
0.046178 0.188906 -0.490830
0.044595 0.188906 -0.490254
0.042392 0.188739 -0.490850
0.040810 0.188739 -0.490274
0.038612 0.188573 -0.490869
0.037032 0.188573 -0.490294
0.034839 0.188407 -0.490889
0.033261 0.188407 -0.490314
0.031073 0.188241 -0.490909
0.029496 0.188241 -0.490335
0.027919 0.188241 -0.489761
0.025738 0.188076 -0.490355
0.024162 0.188076 -0.489781
0.021986 0.187911 -0.490375
0.020412 0.187911 -0.489802
0.018838 0.187911 -0.489229
0.016668 0.187746 -0.489822
0.015095 0.187746 -0.489250
0.012931 0.187581 -0.489843
0.011360 0.187581 -0.489271
0.009200 0.187417 -0.489863
0.007630 0.187417 -0.489292
0.005476 0.187253 -0.489884
0.003908 0.187253 -0.489313
0.001759 0.187089 -0.489904
0.000191 0.187089 -0.489334
-0.001376 0.187089 -0.488763
-0.003518 0.186926 -0.489355
-0.005084 0.186926 -0.488785
-0.007222 0.186762 -0.489375
-0.009355 0.186600 -0.489965
-0.010919 0.186600 -0.489396
-0.013047 0.186437 -0.489985
-0.014609 0.186437 -0.489417
-0.016733 0.186275 -0.490006
-0.018293 0.186275 -0.489438
-0.020412 0.186113 -0.490026
-0.021971 0.186113 -0.489458
-0.024084 0.185951 -0.490046
-0.025642 0.185951 -0.489479
-0.027751 0.185789 -0.490066
-0.029307 0.185789 -0.489500
-0.030864 0.185789 -0.488933
-0.032966 0.185628 -0.489520
-0.034521 0.185628 -0.488954
-0.036618 0.185467 -0.489541
-0.038172 0.185467 -0.488975
-0.039726 0.185467 -0.488410
-0.041817 0.185307 -0.488996
-0.043369 0.185307 -0.488431
-0.045455 0.185146 -0.489017
-0.047006 0.185146 -0.488453
-0.049087 0.184986 -0.489038
-0.050637 0.184986 -0.488474
-0.052713 0.184826 -0.489059
-0.054261 0.184826 -0.488495
-0.056332 0.184667 -0.489080
-0.057879 0.184667 -0.488517
-0.059427 0.184667 -0.487954
-0.061491 0.184508 -0.488538
-0.063037 0.184508 -0.487975
-0.065097 0.184349 -0.488559
-0.067154 0.184190 -0.489142
-0.068697 0.184190 -0.488581
-0.070749 0.184031 -0.489163
-0.072290 0.184031 -0.488602
-0.074337 0.183873 -0.489184
-0.075878 0.183873 -0.488623
-0.077920 0.183715 -0.489204
-0.079459 0.183715 -0.488644
-0.081496 0.183558 -0.489225
-0.083034 0.183558 -0.488665
-0.085066 0.183400 -0.489245
-0.086603 0.183400 -0.488686
-0.088139 0.183400 -0.488127
-0.090166 0.183243 -0.488707
-0.091701 0.183243 -0.488148
-0.093722 0.183086 -0.488728
-0.095256 0.183086 -0.488170
-0.096790 0.183086 -0.487612
-0.098806 0.182930 -0.488191
-0.100338 0.182930 -0.487633
-0.102349 0.182774 -0.488213
-0.103880 0.182774 -0.487655
-0.105886 0.182618 -0.488234
-0.107416 0.182618 -0.487677
-0.109417 0.182462 -0.488255
-0.110946 0.182462 -0.487699
-0.112943 0.182306 -0.488277
-0.114470 0.182306 -0.487721
-0.115997 0.182306 -0.487165
-0.117988 0.182151 -0.487742
-0.119514 0.182151 -0.487187
-0.121500 0.181996 -0.487764
-0.123483 0.181841 -0.488340
-0.125006 0.181841 -0.487786
-0.126984 0.181687 -0.488361
-0.128506 0.181687 -0.487807
-0.130480 0.181533 -0.488382
-0.132001 0.181533 -0.487829
-0.133969 0.181379 -0.488403
-0.135489 0.181379 -0.487850
-0.137453 0.181225 -0.488424
-0.138971 0.181225 -0.487872
-0.140931 0.181072 -0.488445
-0.142448 0.181072 -0.487893
-0.143965 0.181072 -0.487341
-0.146354 0.180766 -0.489038
-0.147869 0.180766 -0.488487
-0.149816 0.180613 -0.489059
-0.151329 0.180613 -0.488508
-0.152842 0.180613 -0.487957
-0.154783 0.180461 -0.488529
-0.156295 0.180461 -0.487979
-0.158232 0.180309 -0.488550
-0.159743 0.180309 -0.488000
-0.161675 0.180157 -0.488571
-0.163184 0.180157 -0.488021
-0.165112 0.180005 -0.488591
-0.166620 0.180005 -0.488042
-0.168543 0.179854 -0.488612
-0.170463 0.179703 -0.489181
-0.171969 0.179703 -0.488633
-0.173474 0.179703 -0.488085
-0.175389 0.179552 -0.488653
-0.176893 0.179552 -0.488106
-0.178397 0.179552 -0.487558
-0.179902 0.179552 -0.487011
-0.181809 0.179401 -0.487580
-0.183312 0.179401 -0.487033
-0.185215 0.179251 -0.487601
-0.186717 0.179251 -0.487055
-0.188219 0.179251 -0.486508
-0.190116 0.179101 -0.487076
-0.191616 0.179101 -0.486530
-0.193509 0.178951 -0.487098
-0.195008 0.178951 -0.486553
-0.196897 0.178802 -0.487120
-0.198395 0.178802 -0.486575
-0.199893 0.178802 -0.486030
-0.201775 0.178652 -0.486597
-0.203272 0.178652 -0.486052
-0.205151 0.178503 -0.486619
-0.206646 0.178503 -0.486075
-0.208520 0.178354 -0.486641
-0.210014 0.178354 -0.486098
-0.211884 0.178206 -0.486664
-0.213377 0.178206 -0.486120
-0.214870 0.178206 -0.485577
-0.216734 0.178057 -0.486143
-0.218226 0.178057 -0.485600
-0.220086 0.177909 -0.486165
-0.221576 0.177909 -0.485623
-0.223432 0.177761 -0.486188
-0.224921 0.177761 -0.485646
-0.226410 0.177761 -0.485103
-0.228260 0.177614 -0.485668
-0.229748 0.177614 -0.485127
-0.231594 0.177466 -0.485691
-0.233081 0.177466 -0.485150
-0.234568 0.177466 -0.484609
-0.236408 0.177319 -0.485173
-0.237894 0.177319 -0.484633
-0.239729 0.177172 -0.485197
-0.241214 0.177172 -0.484656
-0.242698 0.177172 -0.484116
-0.244528 0.177026 -0.484680
-0.246012 0.177026 -0.484140
-0.247495 0.177026 -0.483600
-0.249320 0.176879 -0.484164
-0.250802 0.176879 -0.483625
-0.252284 0.176879 -0.483085
-0.254103 0.176733 -0.483649
-0.255920 0.176587 -0.484212
-0.257399 0.176587 -0.483673
-0.258879 0.176587 -0.483135
-0.260358 0.176587 -0.482596
-0.261838 0.176587 -0.482058
-0.263646 0.176442 -0.482622
-0.264797 0.176587 -0.480981
-0.266603 0.176442 -0.481545
-0.268082 0.176442 -0.481007
-0.269560 0.176442 -0.480469
-0.271361 0.176296 -0.481034
-0.272838 0.176296 -0.480496
-0.274315 0.176296 -0.479959
-0.275792 0.176296 -0.479421
-0.277269 0.176296 -0.478883
-0.278747 0.176296 -0.478346
-0.280224 0.176296 -0.477808
-0.281701 0.176296 -0.477270
-0.283178 0.176296 -0.476733
-0.284655 0.176296 -0.476195
-0.286132 0.176296 -0.475657
-0.287610 0.176296 -0.475120
-0.289087 0.176296 -0.474582
-0.290564 0.176296 -0.474044
-0.292041 0.176296 -0.473507
-0.293518 0.176296 -0.472969
-0.294995 0.176296 -0.472432
-0.296473 0.176296 -0.471894
-0.297950 0.176296 -0.471356
-0.299427 0.176296 -0.470819
-0.300904 0.176296 -0.470281
-0.302381 0.176296 -0.469743
-0.303859 0.176296 -0.469206
-0.305041 0.176442 -0.467555
-0.306813 0.176296 -0.468130
-0.308290 0.176296 -0.467593
-0.309767 0.176296 -0.467055
-0.311244 0.176296 -0.466517
-0.312433 0.176442 -0.464865
-0.313912 0.176442 -0.464327
-0.315390 0.176442 -0.463788
-0.316868 0.176442 -0.463250
-0.318063 0.176587 -0.461594
-0.319543 0.176587 -0.461055
-0.321022 0.176587 -0.460517
-0.322502 0.176587 -0.459978
-0.323981 0.176587 -0.459439
-0.325461 0.176587 -0.458901
-0.326941 0.176587 -0.458362
-0.328420 0.176587 -0.457824
-0.329900 0.176587 -0.457285
-0.331380 0.176587 -0.456747
-0.332859 0.176587 -0.456208
-0.334339 0.176587 -0.455670
-0.335818 0.176587 -0.455131
-0.337298 0.176587 -0.454593
-0.338778 0.176587 -0.454054
-0.340257 0.176587 -0.453516
-0.341737 0.176587 -0.452977
-0.342953 0.176733 -0.451310
-0.344434 0.176733 -0.450772
-0.345914 0.176733 -0.450233
-0.347395 0.176733 -0.449694
-0.348876 0.176733 -0.449155
-0.350099 0.176879 -0.447483
-0.351581 0.176879 -0.446944
-0.353063 0.176879 -0.446405
-0.354545 0.176879 -0.445865
-0.356027 0.176879 -0.445326
-0.357509 0.176879 -0.444786
-0.358740 0.177026 -0.443110
-0.360224 0.177026 -0.442570
-0.361707 0.177026 -0.442030
-0.363190 0.177026 -0.441491
-0.364673 0.177026 -0.440951
-0.365911 0.177172 -0.439270
-0.367396 0.177172 -0.438730
-0.368880 0.177172 -0.438189
-0.370365 0.177172 -0.437649
-0.371849 0.177172 -0.437109
-0.373094 0.177319 -0.435424
-0.374580 0.177319 -0.434883
-0.376066 0.177319 -0.434342
-0.377551 0.177319 -0.433801
-0.378802 0.177466 -0.432112
-0.380289 0.177466 -0.431571
-0.381543 0.177614 -0.429878
-0.383031 0.177614 -0.429336
-0.384519 0.177614 -0.428795
-0.385778 0.177761 -0.427098
-0.387267 0.177761 -0.426556
-0.388529 0.177909 -0.424857
-0.390020 0.177909 -0.424314
-0.391510 0.177909 -0.423772
-0.392777 0.178057 -0.422068
-0.394269 0.178057 -0.421525
-0.395538 0.178206 -0.419819
-0.397032 0.178206 -0.419275
-0.398525 0.178206 -0.418732
-0.399799 0.178354 -0.417022
-0.401293 0.178354 -0.416478
-0.402788 0.178354 -0.415934
-0.404067 0.178503 -0.414220
-0.405562 0.178503 -0.413675
-0.407058 0.178503 -0.413131
-0.408342 0.178652 -0.411413
-0.409838 0.178652 -0.410868
-0.411125 0.178802 -0.409147
-0.412623 0.178802 -0.408602
-0.414122 0.178802 -0.408057
-0.415413 0.178951 -0.406332
-0.416912 0.178951 -0.405786
-0.418207 0.179101 -0.404058
-0.419708 0.179101 -0.403512
-0.421007 0.179251 -0.401780
-0.422307 0.179401 -0.400045
-0.423810 0.179401 -0.399498
-0.425114 0.179552 -0.397761
-0.426420 0.179703 -0.396020
-0.427729 0.179854 -0.394276
-0.429040 0.180005 -0.392529
-0.430352 0.180157 -0.390780
-0.431667 0.180309 -0.389027
-0.432985 0.180461 -0.387272
-0.434304 0.180613 -0.385514
-0.435626 0.180766 -0.383752
-0.436759 0.181072 -0.380773
-0.438086 0.181225 -0.379003
-0.439415 0.181379 -0.377230
-0.440747 0.181533 -0.375454
-0.442080 0.181687 -0.373676
-0.443417 0.181841 -0.371894
-0.444755 0.181996 -0.370109
-0.446095 0.182151 -0.368321
-0.447438 0.182306 -0.366530
-0.448784 0.182462 -0.364736
-0.450131 0.182618 -0.362939
-0.451481 0.182774 -0.361139
-0.452833 0.182930 -0.359336
-0.454009 0.183243 -0.356279
-0.455011 0.183715 -0.351954
-0.456195 0.184031 -0.348872
-0.457384 0.184349 -0.345779
-0.458224 0.184986 -0.340124
-0.459070 0.185628 -0.334431
0.320587 0.199928 -0.483160
0.316136 0.199365 -0.486311
0.314451 0.199365 -0.485698
0.311852 0.199178 -0.486337
0.309259 0.198991 -0.486974
0.306670 0.198804 -0.487610
0.304989 0.198804 -0.486998
0.302407 0.198618 -0.487634
0.300728 0.198618 -0.487023
0.298152 0.198432 -0.487658
0.295581 0.198247 -0.488292
0.293905 0.198247 -0.487682
0.291340 0.198062 -0.488315
0.289667 0.198062 -0.487706
0.287108 0.197877 -0.488338
0.284554 0.197693 -0.488969
0.282883 0.197693 -0.488361
0.280335 0.197508 -0.488992
0.278666 0.197508 -0.488384
0.276125 0.197325 -0.489015
0.274457 0.197325 -0.488408
0.272790 0.197325 -0.487801
0.270256 0.197141 -0.488431
0.267727 0.196958 -0.489059
0.266063 0.196958 -0.488454
0.263540 0.196776 -0.489082
0.261877 0.196776 -0.488477
0.259360 0.196593 -0.489104
0.257699 0.196593 -0.488500
0.255189 0.196411 -0.489127
0.252683 0.196230 -0.489752
0.251025 0.196230 -0.489149
0.248525 0.196048 -0.489774
0.246868 0.196048 -0.489171
0.244375 0.195867 -0.489796
0.241886 0.195686 -0.490419
0.239402 0.195506 -0.491042
0.237750 0.195506 -0.490440
0.235271 0.195326 -0.491062
0.233621 0.195326 -0.490461
0.231148 0.195146 -0.491083
0.229499 0.195146 -0.490482
0.227033 0.194967 -0.491103
0.225385 0.194967 -0.490503
0.222925 0.194788 -0.491123
0.221279 0.194788 -0.490524
0.218825 0.194609 -0.491144
0.217180 0.194609 -0.490545
0.215536 0.194609 -0.489946
0.213089 0.194431 -0.490566
0.211446 0.194431 -0.489968
0.209005 0.194253 -0.490586
0.207364 0.194253 -0.489989
0.204138 0.193898 -0.491821
0.202499 0.193898 -0.491224
0.200073 0.193720 -0.491840
0.198436 0.193720 -0.491244
0.196016 0.193544 -0.491860
0.194380 0.193544 -0.491264
0.191966 0.193367 -0.491879
0.190332 0.193367 -0.491284
0.187924 0.193191 -0.491899
0.186291 0.193191 -0.491304
0.183889 0.193015 -0.491918
