ply
format ascii 1.0
element vertex 1700
property float x
property float y
property float z
end_header
0.459275 0.137313 -0.053508
0.461910 0.141782 -0.065284
0.461961 0.143441 -0.070283
0.462011 0.145090 -0.075255
0.462061 0.146731 -0.080199
0.462111 0.148362 -0.085115
0.462161 0.149984 -0.090004
0.462210 0.151597 -0.094866
0.462260 0.153201 -0.099701
0.462308 0.154796 -0.104510
0.461857 0.155854 -0.108029
0.461407 0.156909 -0.111536
0.461458 0.158484 -0.116281
0.460012 0.158484 -0.117262
0.459567 0.159529 -0.120736
0.459125 0.160571 -0.124197
0.458184 0.161090 -0.126411
0.457246 0.161608 -0.128622
0.456309 0.162125 -0.130828
0.455373 0.162642 -0.133030
0.454440 0.163157 -0.135228
0.454009 0.164185 -0.138641
0.453079 0.164698 -0.140828
0.452151 0.165210 -0.143012
0.451225 0.165721 -0.145191
0.450300 0.166231 -0.147366
0.449377 0.166740 -0.149538
0.448455 0.167248 -0.151705
0.447536 0.167755 -0.153869
0.446114 0.167755 -0.154834
0.445197 0.168261 -0.156993
0.444281 0.168767 -0.159148
0.443368 0.169271 -0.161300
0.442456 0.169775 -0.163447
0.441039 0.169775 -0.164409
0.440130 0.170277 -0.166551
0.439223 0.170779 -0.168690
0.438317 0.171280 -0.170825
0.437413 0.171780 -0.172956
0.436510 0.172279 -0.175084
0.435609 0.172777 -0.177207
0.434710 0.173274 -0.179327
0.433812 0.173771 -0.181443
0.432916 0.174266 -0.183556
0.432021 0.174761 -0.185664
0.430617 0.174761 -0.186617
0.429725 0.175255 -0.188721
0.428835 0.175748 -0.190822
0.427946 0.176240 -0.192918
0.426546 0.176240 -0.193869
0.426174 0.177221 -0.197100
0.424776 0.177221 -0.198049
0.423893 0.177710 -0.200134
0.422496 0.177710 -0.201082
0.421616 0.178199 -0.203162
0.420220 0.178199 -0.204110
0.419343 0.178687 -0.206185
0.417949 0.178687 -0.207132
0.416554 0.178687 -0.208079
0.415681 0.179174 -0.210149
0.414288 0.179174 -0.211095
0.413417 0.179660 -0.213161
0.412025 0.179660 -0.214106
0.411158 0.180145 -0.216167
0.409767 0.180145 -0.217111
0.408376 0.180145 -0.218055
0.407512 0.180629 -0.220111
0.406650 0.181112 -0.222164
0.405262 0.181112 -0.223106
0.404402 0.181595 -0.225154
0.403015 0.181595 -0.226096
0.401628 0.181595 -0.227038
0.400773 0.182077 -0.229080
0.399387 0.182077 -0.230021
0.398534 0.182558 -0.232060
0.397149 0.182558 -0.233000
0.395764 0.182558 -0.233940
0.394915 0.183038 -0.235973
0.393532 0.183038 -0.236912
0.392686 0.183517 -0.238941
0.391303 0.183517 -0.239879
0.389921 0.183517 -0.240818
0.388539 0.183517 -0.241756
0.387698 0.183995 -0.243779
0.386316 0.183995 -0.244717
0.385478 0.184473 -0.246735
0.384098 0.184473 -0.247672
0.382718 0.184473 -0.248609
0.381338 0.184473 -0.249546
0.379958 0.184473 -0.250482
0.378578 0.184473 -0.251419
0.377747 0.184949 -0.253430
0.376368 0.184949 -0.254366
0.374990 0.184949 -0.255302
0.373611 0.184949 -0.256238
0.372232 0.184949 -0.257174
0.370853 0.184949 -0.258110
0.369475 0.184949 -0.259046
0.368096 0.184949 -0.259982
0.366717 0.184949 -0.260918
0.365897 0.185425 -0.262919
0.364520 0.185425 -0.263854
0.363142 0.185425 -0.264789
0.361764 0.185425 -0.265724
0.360387 0.185425 -0.266659
0.359009 0.185425 -0.267594
0.357632 0.185425 -0.268530
0.356820 0.185900 -0.270522
0.355444 0.185900 -0.271456
0.354068 0.185900 -0.272391
0.352691 0.185900 -0.273325
0.351315 0.185900 -0.274260
0.349939 0.185900 -0.275194
0.348562 0.185900 -0.276128
0.347760 0.186375 -0.278112
0.346384 0.186375 -0.279046
0.345584 0.186848 -0.281026
0.344210 0.186848 -0.281958
0.342836 0.186848 -0.282891
0.341462 0.186848 -0.283824
0.340088 0.186848 -0.284757
0.338714 0.186848 -0.285689
0.337340 0.186848 -0.286622
0.336549 0.187321 -0.288594
0.335176 0.187321 -0.289526
0.333803 0.187321 -0.290458
0.332431 0.187321 -0.291390
0.331058 0.187321 -0.292321
0.329685 0.187321 -0.293253
0.328312 0.187321 -0.294185
0.326939 0.187321 -0.295117
0.325567 0.187321 -0.296049
0.324786 0.187792 -0.298011
0.323414 0.187792 -0.298942
0.322043 0.187792 -0.299873
0.320671 0.187792 -0.300804
0.319299 0.187792 -0.301735
0.317928 0.187792 -0.302666
0.316556 0.187792 -0.303598
0.315784 0.188263 -0.305551
0.314414 0.188263 -0.306481
0.313043 0.188263 -0.307412
0.311673 0.188263 -0.308342
0.310302 0.188263 -0.309272
0.308932 0.188263 -0.310202
0.307562 0.188263 -0.311133
0.306191 0.188263 -0.312063
0.304821 0.188263 -0.312993
0.304059 0.188733 -0.314937
0.302690 0.188733 -0.315867
0.301321 0.188733 -0.316796
0.299952 0.188733 -0.317726
0.298582 0.188733 -0.318655
0.297213 0.188733 -0.319585
0.295844 0.188733 -0.320514
0.295091 0.189203 -0.322450
0.293723 0.189203 -0.323378
0.292355 0.189203 -0.324307
0.290987 0.189203 -0.325236
0.289619 0.189203 -0.326164
0.288251 0.189203 -0.327093
0.286883 0.189203 -0.328022
0.285515 0.189203 -0.328950
0.284147 0.189203 -0.329879
0.283404 0.189671 -0.331805
0.282038 0.189671 -0.332733
0.280671 0.189671 -0.333661
0.279304 0.189671 -0.334589
0.277937 0.189671 -0.335516
0.276570 0.189671 -0.336444
0.275203 0.189671 -0.337372
0.274469 0.190139 -0.339290
0.273104 0.190139 -0.340217
0.271738 0.190139 -0.341144
0.270372 0.190139 -0.342071
0.269007 0.190139 -0.342998
0.267641 0.190139 -0.343925
0.266275 0.190139 -0.344852
0.265550 0.190606 -0.346762
0.264185 0.190606 -0.347688
0.262821 0.190606 -0.348615
0.261456 0.190606 -0.349541
0.260092 0.190606 -0.350467
0.258727 0.190606 -0.351393
0.257363 0.190606 -0.352320
0.309554 0.229165 -0.433917
0.313841 0.233157 -0.443122
0.316427 0.235914 -0.449734
0.316814 0.237086 -0.453029
0.317198 0.238252 -0.456308
0.317581 0.239414 -0.459572
0.318502 0.240953 -0.463620
0.318880 0.242102 -0.466850
0.318720 0.242864 -0.469273
0.318024 0.243245 -0.470900
0.317329 0.243625 -0.472524
0.316636 0.244004 -0.474146
0.315406 0.244004 -0.474981
0.314714 0.244383 -0.476600
0.313485 0.244383 -0.477434
0.312796 0.244761 -0.479049
0.312108 0.245138 -0.480662
0.310881 0.245138 -0.481495
0.310734 0.245891 -0.483881
0.309509 0.245891 -0.484713
0.308284 0.245891 -0.485544
0.307059 0.245891 -0.486376
0.305290 0.245515 -0.486434
0.304064 0.245515 -0.487267
0.302292 0.245138 -0.487326
0.300516 0.244761 -0.487385
0.298738 0.244383 -0.487445
0.296958 0.244004 -0.487504
0.295174 0.243625 -0.487564
0.293388 0.243245 -0.487624
0.291599 0.242864 -0.487683
0.289808 0.242483 -0.487743
0.288013 0.242102 -0.487803
0.286216 0.241719 -0.487863
0.284415 0.241337 -0.487923
0.282612 0.240953 -0.487984
0.280807 0.240569 -0.488044
0.278427 0.239799 -0.487323
0.276614 0.239414 -0.487383
0.275372 0.239414 -0.488226
0.273555 0.239027 -0.488286
0.271735 0.238640 -0.488347
0.269912 0.238252 -0.488408
0.268086 0.237864 -0.488469
0.266258 0.237475 -0.488530
0.264426 0.237086 -0.488591
0.262592 0.236696 -0.488653
0.260755 0.236305 -0.488714
0.258915 0.235914 -0.488776
0.257071 0.235522 -0.488837
0.255225 0.235129 -0.488899
0.253376 0.234736 -0.488961
0.251525 0.234342 -0.489023
0.249670 0.233948 -0.489085
0.247812 0.233553 -0.489147
0.245951 0.233157 -0.489209
0.244088 0.232761 -0.489271
0.242221 0.232364 -0.489333
0.240352 0.231966 -0.489396
0.238479 0.231568 -0.489459
0.236603 0.231169 -0.489521
0.234725 0.230769 -0.489584
0.232843 0.230369 -0.489647
0.230959 0.229969 -0.489710
0.229071 0.229567 -0.489773
0.227181 0.229165 -0.489836
0.225287 0.228762 -0.489899
0.223390 0.228359 -0.489963
0.221491 0.227955 -0.490026
0.219588 0.227550 -0.490090
0.217682 0.227145 -0.490154
0.215773 0.226739 -0.490217
0.213861 0.226333 -0.490281
0.211305 0.225517 -0.489543
0.209384 0.225109 -0.489606
0.207461 0.224700 -0.489670
0.205535 0.224290 -0.489734
0.203605 0.223879 -0.489798
0.201672 0.223468 -0.489861
0.199737 0.223056 -0.489925
0.197798 0.222643 -0.489990
0.195856 0.222230 -0.490054
0.193910 0.221816 -0.490118
0.191962 0.221402 -0.490183
0.190010 0.220987 -0.490247
0.188056 0.220571 -0.490312
0.186098 0.220154 -0.490377
0.184137 0.219737 -0.490441
0.182172 0.219319 -0.490506
0.179528 0.218481 -0.489758
0.177555 0.218061 -0.489823
0.175579 0.217640 -0.489887
0.173600 0.217219 -0.489952
0.171617 0.216797 -0.490017
0.169631 0.216374 -0.490082
0.167642 0.215950 -0.490147
0.165650 0.215526 -0.490212
0.163654 0.215101 -0.490277
0.161655 0.214676 -0.490343
0.159653 0.214250 -0.490408
0.157647 0.213823 -0.490474
0.155638 0.213395 -0.490540
0.153626 0.212967 -0.490606
0.151611 0.212537 -0.490672
0.149592 0.212108 -0.490738
0.147569 0.211677 -0.490804
0.145544 0.211246 -0.490870
0.143515 0.210814 -0.490937
0.141483 0.210381 -0.491003
0.139447 0.209948 -0.491070
0.137408 0.209514 -0.491137
0.135365 0.209079 -0.491203
0.133319 0.208643 -0.491270
0.131270 0.208207 -0.491337
0.129217 0.207770 -0.491405
0.127161 0.207332 -0.491472
0.125102 0.206894 -0.491539
0.123039 0.206455 -0.491607
0.120972 0.206015 -0.491674
0.118902 0.205574 -0.491742
0.116829 0.205133 -0.491810
0.114002 0.204248 -0.491043
0.112671 0.204248 -0.491946
0.109833 0.203360 -0.491178
0.107743 0.202915 -0.491246
0.104888 0.202022 -0.490475
0.102789 0.201575 -0.490542
0.100686 0.201127 -0.490609
0.098580 0.200678 -0.490677
0.096470 0.200228 -0.490744
0.094356 0.199778 -0.490812
0.092239 0.199326 -0.490880
0.090118 0.198874 -0.490948
0.087994 0.198422 -0.491016
0.085082 0.197514 -0.490238
0.082948 0.197059 -0.490305
0.080810 0.196603 -0.490373
0.078669 0.196146 -0.490441
0.076524 0.195689 -0.490509
0.073577 0.194772 -0.489726
0.071422 0.194312 -0.489794
0.069264 0.193852 -0.489861
0.067101 0.193390 -0.489929
0.064935 0.192928 -0.489997
0.062766 0.192465 -0.490065
0.060592 0.192002 -0.490133
0.058415 0.191537 -0.490201
0.056234 0.191072 -0.490269
0.054050 0.190606 -0.490338
0.051861 0.190139 -0.490407
0.048841 0.189203 -0.489615
0.046642 0.188733 -0.489683
0.044440 0.188263 -0.489752
0.043070 0.188263 -0.490682
0.040862 0.187792 -0.490751
0.037810 0.186848 -0.489957
0.035592 0.186375 -0.490026
0.033371 0.185900 -0.490095
0.031145 0.185425 -0.490164
0.028916 0.184949 -0.490233
0.026683 0.184473 -0.490302
0.024445 0.183995 -0.490371
0.022204 0.183517 -0.490441
0.019959 0.183038 -0.490510
0.017711 0.182558 -0.490580
0.015458 0.182077 -0.490650
0.012329 0.181112 -0.489847
0.010065 0.180629 -0.489917
0.007798 0.180145 -0.489986
0.005526 0.179660 -0.490056
0.003251 0.179174 -0.490125
0.000084 0.178199 -0.489318
-0.002202 0.177710 -0.489387
-0.004493 0.177221 -0.489456
-0.006787 0.176731 -0.489526
-0.009086 0.176240 -0.489595
-0.011388 0.175748 -0.489665
-0.013695 0.175255 -0.489735
-0.016005 0.174761 -0.489805
-0.018320 0.174266 -0.489875
-0.020639 0.173771 -0.489945
-0.022962 0.173274 -0.490016
-0.026210 0.172279 -0.489199
-0.028544 0.171780 -0.489269
-0.030882 0.171280 -0.489339
-0.032295 0.171280 -0.490298
-0.034639 0.170779 -0.490369
-0.037922 0.169775 -0.489550
-0.040278 0.169271 -0.489620
-0.042637 0.168767 -0.489691
-0.045001 0.168261 -0.489762
-0.047368 0.167755 -0.489833
-0.049741 0.167248 -0.489904
-0.052117 0.166740 -0.489975
-0.054498 0.166231 -0.490046
-0.056883 0.165721 -0.490117
-0.059272 0.165210 -0.490189
-0.061665 0.164698 -0.490261
-0.065033 0.163672 -0.489432
-0.067438 0.163157 -0.489503
-0.069848 0.162642 -0.489574
-0.072262 0.162125 -0.489646
-0.074681 0.161608 -0.489717
-0.078090 0.160571 -0.488883
-0.080521 0.160050 -0.488954
-0.082956 0.159529 -0.489025
-0.086393 0.158484 -0.488187
-0.088840 0.157960 -0.488258
-0.091291 0.157435 -0.488329
-0.093747 0.156909 -0.488399
-0.096207 0.156382 -0.488470
-0.098672 0.155854 -0.488542
-0.101141 0.155326 -0.488613
-0.103615 0.154796 -0.488684
-0.107119 0.153733 -0.487838
-0.109605 0.153201 -0.487909
-0.112096 0.152667 -0.487980
-0.113556 0.152667 -0.488972
-0.116053 0.152132 -0.489044
-0.119596 0.151060 -0.488194
-0.122105 0.150522 -0.488266
-0.124619 0.149984 -0.488338
-0.127138 0.149444 -0.488410
-0.129661 0.148903 -0.488482
-0.132189 0.148362 -0.488554
-0.134722 0.147819 -0.488626
-0.137259 0.147275 -0.488699
-0.139801 0.146731 -0.488771
-0.142348 0.146185 -0.488844
-0.144900 0.145638 -0.488917
-0.148537 0.144542 -0.488057
-0.151101 0.143992 -0.488130
-0.153671 0.143441 -0.488202
-0.156245 0.142889 -0.488275
-0.158824 0.142336 -0.488347
-0.162507 0.141227 -0.487482
-0.165100 0.140671 -0.487555
-0.167697 0.140114 -0.487627
-0.170299 0.139556 -0.487699
-0.172906 0.138997 -0.487772
-0.175518 0.138437 -0.487845
-0.178134 0.137875 -0.487917
-0.181882 0.136749 -0.487045
-0.184513 0.136185 -0.487117
-0.187148 0.135619 -0.487190
-0.189788 0.135053 -0.487262
-0.192434 0.134485 -0.487335
-0.195084 0.133916 -0.487408
-0.197739 0.133346 -0.487481
-0.200400 0.132775 -0.487554
-0.203065 0.132203 -0.487627
-0.206897 0.131056 -0.486746
-0.209577 0.130480 -0.486818
-0.212261 0.129904 -0.486891
-0.214951 0.129326 -0.486964
-0.217646 0.128748 -0.487037
-0.220346 0.128168 -0.487111
-0.223051 0.127587 -0.487184
-0.226951 0.126422 -0.486295
-0.229670 0.125838 -0.486368
-0.232395 0.125252 -0.486441
-0.235125 0.124666 -0.486514
-0.237860 0.124078 -0.486587
-0.240601 0.123489 -0.486661
-0.243347 0.122899 -0.486734
-0.247316 0.121716 -0.485837
-0.250077 0.121122 -0.485910
-0.252843 0.120528 -0.485983
-0.256846 0.119335 -0.485082
-0.259627 0.118737 -0.485154
-0.262413 0.118138 -0.485227
-0.265204 0.117538 -0.485300
-0.269252 0.116333 -0.484392
-0.272058 0.115729 -0.484464
-0.274870 0.115124 -0.484536
-0.278952 0.113910 -0.483624
-0.281779 0.113302 -0.483696
-0.284612 0.112692 -0.483768
-0.288730 0.111468 -0.482850
-0.291577 0.110855 -0.482921
-0.294431 0.110240 -0.482992
-0.297290 0.109624 -0.483064
-0.301454 0.108389 -0.482140
-0.306942 0.106526 -0.480213
-0.312463 0.104652 -0.478274
-0.315365 0.104025 -0.478341
-0.319603 0.102767 -0.477400
-0.325195 0.100871 -0.475441
-0.329473 0.099600 -0.474489
-0.333769 0.098325 -0.473533
-0.340809 0.095758 -0.470521
-0.349286 0.092519 -0.466448
-0.356454 0.089905 -0.463379
-0.363681 0.087269 -0.460285
-0.372390 0.083944 -0.456105
-0.381190 0.080584 -0.451881
-0.391540 0.076506 -0.446530
-0.404988 0.070988 -0.438913
0.477952 0.072593 0.149054
0.491428 0.091368 0.101406
0.492959 0.095253 0.090693
0.494472 0.099091 0.080109
0.495966 0.102883 0.069652
0.495408 0.104137 0.065480
0.494342 0.104762 0.062865
0.494299 0.106630 0.057186
0.493748 0.107869 0.053063
0.492689 0.108486 0.050476
0.492143 0.109718 0.046379
0.491599 0.110945 0.042298
0.490548 0.111557 0.039734
0.489498 0.112167 0.037176
0.488452 0.112776 0.034622
0.487407 0.113384 0.032074
0.486364 0.113991 0.029530
0.484810 0.113991 0.028475
0.483257 0.113991 0.027421
0.482219 0.114597 0.024885
0.480668 0.114597 0.023831
0.479116 0.114597 0.022778
0.478083 0.115201 0.020248
0.477052 0.115804 0.017723
0.475504 0.115804 0.016672
0.474477 0.116407 0.014154
0.472929 0.116407 0.013103
0.471906 0.117007 0.010590
0.470360 0.117007 0.009541
0.469340 0.117607 0.007034
0.467796 0.117607 0.005986
0.466251 0.117607 0.004938
0.464707 0.117607 0.003890
0.463693 0.118206 0.001391
0.462151 0.118206 0.000343
0.460608 0.118206 -0.000704
0.459599 0.118803 -0.003196
0.458058 0.118803 -0.004242
0.456517 0.118803 -0.005288
0.455513 0.119399 -0.007773
0.453974 0.119399 -0.008818
0.452434 0.119399 -0.009864
0.451435 0.119994 -0.012342
0.449897 0.119994 -0.013386
0.448359 0.119994 -0.014430
0.454877 0.128784 -0.036593
0.460695 0.136762 -0.056780
0.462291 0.140117 -0.065846
0.462341 0.141781 -0.070844
0.462391 0.143435 -0.075814
0.462440 0.145080 -0.080756
0.462489 0.146715 -0.085671
0.462537 0.148342 -0.090559
0.462586 0.149960 -0.095419
0.462634 0.151568 -0.100253
0.462681 0.153168 -0.105059
0.462229 0.154229 -0.108578
0.462278 0.155815 -0.113340
0.461329 0.156341 -0.115576
0.460383 0.156866 -0.117808
0.459938 0.157915 -0.121281
0.459494 0.158959 -0.124741
0.458553 0.159479 -0.126955
0.457614 0.159999 -0.129165
0.457177 0.161036 -0.132598
0.456241 0.161553 -0.134797
0.455308 0.162069 -0.136991
0.454376 0.162584 -0.139182
0.453446 0.163098 -0.141369
0.452518 0.163611 -0.143551
0.451591 0.164124 -0.145730
0.450666 0.164635 -0.147905
0.449742 0.165145 -0.150076
0.448318 0.165145 -0.151043
0.447397 0.165655 -0.153209
0.446478 0.166164 -0.155372
0.445561 0.166671 -0.157530
0.444646 0.167178 -0.159685
0.443732 0.167684 -0.161835
0.442313 0.167684 -0.162798
0.441402 0.168189 -0.164944
0.440493 0.168693 -0.167086
0.439585 0.169196 -0.169225
0.438679 0.169698 -0.171359
0.437775 0.170200 -0.173490
0.436872 0.170700 -0.175617
0.435971 0.171200 -0.177740
0.435071 0.171698 -0.179859
0.434173 0.172196 -0.181975
0.433276 0.172693 -0.184087
0.432382 0.173189 -0.186195
0.430977 0.173189 -0.187148
0.430085 0.173684 -0.189252
0.429195 0.174179 -0.191351
0.428306 0.174672 -0.193447
0.426905 0.174672 -0.194398
0.426533 0.175656 -0.197628
0.425134 0.175656 -0.198577
0.424251 0.176147 -0.200662
0.422854 0.176147 -0.201610
0.421974 0.176637 -0.203690
0.420578 0.176637 -0.204637
0.419701 0.177126 -0.206712
0.418306 0.177126 -0.207659
0.416912 0.177126 -0.208606
0.416038 0.177614 -0.210675
0.414645 0.177614 -0.211621
0.413252 0.177614 -0.212567
0.412382 0.178102 -0.214632
0.410990 0.178102 -0.215577
0.410124 0.178588 -0.217637
0.408733 0.178588 -0.218581
0.407869 0.179074 -0.220636
0.406479 0.179074 -0.221580
0.405618 0.179559 -0.223631
0.404229 0.179559 -0.224573
0.403371 0.180043 -0.226620
0.401984 0.180043 -0.227562
0.401128 0.180526 -0.229604
0.399742 0.180526 -0.230545
0.398356 0.180526 -0.231486
0.397504 0.181008 -0.233523
0.396119 0.181008 -0.234463
0.395270 0.181489 -0.236496
0.393887 0.181489 -0.237435
0.393040 0.181970 -0.239463
0.391658 0.181970 -0.240402
0.390275 0.181970 -0.241340
0.388893 0.181970 -0.242279
0.388052 0.182450 -0.244301
0.386671 0.182450 -0.245239
0.385289 0.182450 -0.246176
0.384452 0.182928 -0.248193
0.383072 0.182928 -0.249130
0.381692 0.182928 -0.250067
0.380312 0.182928 -0.251004
0.378932 0.182928 -0.251941
0.377552 0.182928 -0.252877
0.376722 0.183407 -0.254887
0.375343 0.183407 -0.255823
0.373965 0.183407 -0.256759
0.372586 0.183407 -0.257695
0.371207 0.183407 -0.258631
0.369828 0.183407 -0.259567
0.368449 0.183407 -0.260503
0.367071 0.183407 -0.261439
0.365692 0.183407 -0.262375
0.364873 0.183884 -0.264374
0.363495 0.183884 -0.265309
0.362118 0.183884 -0.266245
0.360740 0.183884 -0.267180
0.359363 0.183884 -0.268115
0.357985 0.183884 -0.269050
0.357174 0.184360 -0.271042
0.355797 0.184360 -0.271977
0.354421 0.184360 -0.272911
0.353044 0.184360 -0.273845
0.351668 0.184360 -0.274780
0.350292 0.184360 -0.275714
0.348915 0.184360 -0.276648
0.348112 0.184836 -0.278632
0.346737 0.184836 -0.279565
0.345937 0.185310 -0.281545
0.344563 0.185310 -0.282478
0.343189 0.185310 -0.283410
0.341815 0.185310 -0.284343
0.340441 0.185310 -0.285276
0.339067 0.185310 -0.286209
0.337693 0.185310 -0.287141
0.336901 0.185784 -0.289112
0.335528 0.185784 -0.290044
0.334155 0.185784 -0.290976
0.332783 0.185784 -0.291908
0.331410 0.185784 -0.292840
0.330037 0.185784 -0.293772
0.328664 0.185784 -0.294704
0.327291 0.185784 -0.295636
0.325919 0.185784 -0.296568
0.325138 0.186257 -0.298529
0.323766 0.186257 -0.299460
0.322394 0.186257 -0.300391
0.321023 0.186257 -0.301322
0.319651 0.186257 -0.302254
0.318280 0.186257 -0.303185
0.316908 0.186257 -0.304116
0.316136 0.186730 -0.306069
0.314765 0.186730 -0.306999
0.313395 0.186730 -0.307929
0.312024 0.186730 -0.308860
0.310654 0.186730 -0.309790
0.309283 0.186730 -0.310720
0.307913 0.186730 -0.311651
0.306543 0.186730 -0.312581
0.305172 0.186730 -0.313511
0.304411 0.187201 -0.315454
0.303041 0.187201 -0.316384
0.301672 0.187201 -0.317313
0.300303 0.187201 -0.318243
0.298934 0.187201 -0.319172
0.297564 0.187201 -0.320102
0.296195 0.187201 -0.321031
0.295442 0.187672 -0.322966
0.294074 0.187672 -0.323895
0.292706 0.187672 -0.324824
0.291338 0.187672 -0.325753
0.289970 0.187672 -0.326681
0.288602 0.187672 -0.327610
0.287234 0.187672 -0.328539
0.285866 0.187672 -0.329467
0.284497 0.187672 -0.330396
0.283755 0.188142 -0.332321
0.282388 0.188142 -0.333249
0.281021 0.188142 -0.334177
0.279654 0.188142 -0.335105
0.278288 0.188142 -0.336033
0.276921 0.188142 -0.336961
0.275554 0.188142 -0.337889
0.274820 0.188611 -0.339806
0.273454 0.188611 -0.340733
0.272088 0.188611 -0.341660
0.270723 0.188611 -0.342587
0.269357 0.188611 -0.343514
0.267991 0.188611 -0.344441
0.266626 0.188611 -0.345368
0.265260 0.188611 -0.346296
0.263894 0.188611 -0.347223
0.262528 0.188611 -0.348150
0.261163 0.188611 -0.349077
0.259797 0.188611 -0.350004
0.258431 0.188611 -0.350931
0.257066 0.188611 -0.351858
0.310437 0.228150 -0.435237
0.314714 0.232147 -0.444424
0.316748 0.234514 -0.450206
0.317133 0.235690 -0.453500
0.317517 0.236860 -0.456778
0.317900 0.238024 -0.460041
0.318819 0.239568 -0.464088
0.319196 0.240720 -0.467316
0.319036 0.241485 -0.469739
0.318340 0.241866 -0.471365
0.317645 0.242247 -0.472989
0.316414 0.242247 -0.473825
0.315721 0.242628 -0.475446
0.315030 0.243007 -0.477064
0.313801 0.243007 -0.477898
0.313111 0.243387 -0.479513
0.311883 0.243387 -0.480347
0.311195 0.243765 -0.481959
0.310509 0.244143 -0.483568
0.309823 0.244520 -0.485175
0.308598 0.244520 -0.486007
0.307373 0.244520 -0.486839
0.305604 0.244143 -0.486898
0.303833 0.243765 -0.486957
0.302059 0.243387 -0.487016
0.300283 0.243007 -0.487075
0.298503 0.242628 -0.487134
0.296721 0.242247 -0.487193
0.294936 0.241866 -0.487253
0.293148 0.241485 -0.487312
0.291358 0.241103 -0.487372
0.289564 0.240720 -0.487432
0.288330 0.240720 -0.488270
0.286533 0.240337 -0.488330
0.284733 0.239953 -0.488391
0.282930 0.239568 -0.488451
0.281124 0.239183 -0.488512
0.278745 0.238411 -0.487792
0.276932 0.238024 -0.487852
0.275116 0.237637 -0.487912
0.273297 0.237249 -0.487973
0.271476 0.236860 -0.488033
0.269651 0.236471 -0.488094
0.267824 0.236081 -0.488155
0.265994 0.235690 -0.488216
0.264160 0.235299 -0.488277
0.262324 0.234907 -0.488338
0.260485 0.234514 -0.488399
0.259235 0.234514 -0.489248
0.257392 0.234121 -0.489310
0.255547 0.233728 -0.489372
0.253698 0.233333 -0.489434
0.251846 0.232938 -0.489496
0.249390 0.232147 -0.488768
0.247531 0.231750 -0.488830
0.245669 0.231353 -0.488892
0.243803 0.230954 -0.488954
0.242544 0.230954 -0.489809
0.240675 0.230556 -0.489872
0.238802 0.230156 -0.489935
0.236927 0.229756 -0.489998
0.235049 0.229356 -0.490061
0.233168 0.228955 -0.490125
0.231283 0.228553 -0.490188
0.229396 0.228150 -0.490251
0.226881 0.227343 -0.489518
0.224985 0.226939 -0.489581
0.223087 0.226533 -0.489644
0.221185 0.226128 -0.489707
0.219281 0.225721 -0.489771
0.217373 0.225314 -0.489834
0.215462 0.224906 -0.489898
0.213549 0.224498 -0.489961
0.211632 0.224089 -0.490025
0.209712 0.223679 -0.490089
0.207789 0.223269 -0.490153
0.205863 0.222858 -0.490217
0.203934 0.222446 -0.490281
0.202001 0.222034 -0.490346
0.200066 0.221621 -0.490410
0.198127 0.221207 -0.490475
0.195526 0.220377 -0.489731
0.193579 0.219962 -0.489795
0.191629 0.219545 -0.489859
0.189675 0.219128 -0.489924
0.187719 0.218710 -0.489988
0.185759 0.218292 -0.490053
0.183796 0.217873 -0.490117
0.181830 0.217453 -0.490182
0.179860 0.217033 -0.490247
0.177888 0.216611 -0.490312
0.175912 0.216189 -0.490377
0.173933 0.215767 -0.490442
0.171950 0.215344 -0.490508
0.169965 0.214920 -0.490573
0.167976 0.214495 -0.490638
0.165984 0.214070 -0.490704
0.163293 0.213217 -0.489951
0.161292 0.212789 -0.490016
0.159288 0.212361 -0.490081
0.157281 0.211932 -0.490146
0.155270 0.211503 -0.490212
0.153256 0.211072 -0.490278
0.151238 0.210641 -0.490343
0.149217 0.210210 -0.490409
0.147906 0.210210 -0.491299
0.145880 0.209777 -0.491366
0.143852 0.209344 -0.491433
0.141820 0.208910 -0.491500
0.139784 0.208476 -0.491567
0.137746 0.208040 -0.491634
0.135703 0.207604 -0.491701
0.133658 0.207167 -0.491769
0.130878 0.206292 -0.491007
0.128823 0.205853 -0.491074
0.126765 0.205413 -0.491141
0.124703 0.204973 -0.491208
0.122638 0.204531 -0.491275
0.120569 0.204089 -0.491343
0.118497 0.203647 -0.491410
0.116422 0.203203 -0.491478
0.114343 0.202759 -0.491546
0.112260 0.202314 -0.491613
0.110174 0.201869 -0.491681
0.108085 0.201422 -0.491750
0.105231 0.200527 -0.490979
0.103132 0.200079 -0.491047
0.101029 0.199629 -0.491115
0.098154 0.198728 -0.490341
0.096042 0.198276 -0.490408
0.093926 0.197824 -0.490476
0.091807 0.197371 -0.490543
0.089684 0.196917 -0.490611
0.087557 0.196462 -0.490679
0.085427 0.196006 -0.490747
0.083294 0.195550 -0.490815
0.081156 0.195093 -0.490883
0.078222 0.194176 -0.490102
0.076075 0.193717 -0.490170
0.073924 0.193257 -0.490238
0.071770 0.192796 -0.490306
0.069611 0.192334 -0.490374
0.067450 0.191871 -0.490442
0.065284 0.191408 -0.490510
0.062302 0.190479 -0.489723
0.060127 0.190013 -0.489791
0.057947 0.189546 -0.489859
0.055764 0.189079 -0.489927
0.053577 0.188611 -0.489995
0.051386 0.188142 -0.490064
0.049192 0.187672 -0.490132
0.046994 0.187201 -0.490201
0.044792 0.186730 -0.490269
0.042586 0.186257 -0.490338
0.040376 0.185784 -0.490407
0.038162 0.185310 -0.490476
0.035945 0.184836 -0.490545
0.033724 0.184360 -0.490615
0.031498 0.183884 -0.490684
0.029269 0.183407 -0.490754
0.026181 0.182450 -0.489956
0.023941 0.181970 -0.490025
0.021698 0.181489 -0.490094
0.019451 0.181008 -0.490163
0.017199 0.180526 -0.490233
0.014944 0.180043 -0.490302
0.012685 0.179559 -0.490372
0.010422 0.179074 -0.490442
0.008155 0.178588 -0.490512
0.005002 0.177614 -0.489706
0.002724 0.177126 -0.489775
0.000442 0.176637 -0.489845
-0.001844 0.176147 -0.489915
-0.004134 0.175656 -0.489985
-0.006428 0.175165 -0.490055
-0.008726 0.174672 -0.490125
-0.011931 0.173684 -0.489313
-0.014241 0.173189 -0.489382
-0.016554 0.172693 -0.489452
-0.018871 0.172196 -0.489522
-0.021193 0.171698 -0.489592
-0.023518 0.171200 -0.489662
-0.025848 0.170700 -0.489732
-0.028182 0.170200 -0.489802
-0.030520 0.169698 -0.489873
-0.032862 0.169196 -0.489944
-0.035208 0.168693 -0.490014
-0.037559 0.168189 -0.490085
-0.039914 0.167684 -0.490156
-0.042273 0.167178 -0.490227
-0.044636 0.166671 -0.490299
-0.047004 0.166164 -0.490370
-0.050327 0.165145 -0.489546
-0.052706 0.164635 -0.489617
-0.055089 0.164124 -0.489688
-0.057477 0.163611 -0.489759
-0.059869 0.163098 -0.489830
-0.062265 0.162584 -0.489902
-0.064666 0.162069 -0.489973
-0.067071 0.161553 -0.490045
-0.069480 0.161036 -0.490117
-0.072874 0.159999 -0.489285
-0.075295 0.159479 -0.489356
-0.077721 0.158959 -0.489427
-0.080151 0.158437 -0.489499
-0.082586 0.157915 -0.489571
-0.086022 0.156866 -0.488733
-0.088469 0.156341 -0.488804
-0.091926 0.155287 -0.487963
-0.094384 0.154759 -0.488034
-0.096847 0.154229 -0.488105
-0.099315 0.153699 -0.488176
-0.101787 0.153168 -0.488247
-0.104264 0.152636 -0.488318
-0.106745 0.152102 -0.488389
-0.109231 0.151568 -0.488461
-0.111722 0.151033 -0.488532
-0.114217 0.150497 -0.488604
-0.116716 0.149960 -0.488676
-0.119221 0.149421 -0.488748
-0.121729 0.148882 -0.488820
-0.124243 0.148342 -0.488892
-0.126761 0.147801 -0.488964
-0.129284 0.147259 -0.489037
-0.132872 0.146171 -0.488183
-0.135407 0.145626 -0.488255
-0.137948 0.145080 -0.488327
-0.140493 0.144533 -0.488399
-0.143043 0.143984 -0.488472
-0.145598 0.143435 -0.488544
-0.148157 0.142885 -0.488617
-0.150721 0.142333 -0.488690
-0.153290 0.141781 -0.488763
-0.156956 0.140673 -0.487900
-0.159539 0.140117 -0.487972
-0.162125 0.139561 -0.488045
-0.164717 0.139003 -0.488118
-0.167314 0.138445 -0.488191
-0.171028 0.137324 -0.487322
-0.173638 0.136762 -0.487394
-0.176253 0.136199 -0.487467
-0.178873 0.135636 -0.487539
-0.181498 0.135070 -0.487612
-0.184128 0.134504 -0.487685
-0.186762 0.133937 -0.487758
-0.189402 0.133369 -0.487831
-0.193190 0.132229 -0.486954
-0.195843 0.131658 -0.487027
-0.198502 0.131085 -0.487099
-0.201166 0.130511 -0.487172
-0.203835 0.129937 -0.487245
-0.206509 0.129361 -0.487318
-0.209188 0.128784 -0.487391
-0.211872 0.128206 -0.487465
-0.215735 0.127046 -0.486580
-0.218433 0.126465 -0.486652
-0.221137 0.125882 -0.486725
-0.223845 0.125299 -0.486799
-0.226559 0.124714 -0.486872
-0.229278 0.124128 -0.486945
-0.232003 0.123541 -0.487019
-0.234732 0.122953 -0.487092
-0.238674 0.121773 -0.486199
-0.241418 0.121181 -0.486272
-0.244167 0.120588 -0.486345
-0.246922 0.119994 -0.486419
-0.250906 0.118803 -0.485519
-0.253675 0.118206 -0.485592
-0.256450 0.117607 -0.485665
-0.259230 0.117007 -0.485738
-0.263258 0.115804 -0.484833
-0.266053 0.115201 -0.484906
-0.268854 0.114597 -0.484978
-0.272916 0.113384 -0.484068
-0.275732 0.112776 -0.484140
-0.278553 0.112167 -0.484213
-0.281379 0.111557 -0.484285
-0.285487 0.110332 -0.483369
-0.288328 0.109718 -0.483441
-0.291176 0.109103 -0.483513
-0.295319 0.107869 -0.482592
-0.298182 0.107250 -0.482663
-0.303655 0.105386 -0.480739
-0.307847 0.104137 -0.479807
-0.312057 0.102883 -0.478871
-0.314959 0.102254 -0.478939
-0.320527 0.100360 -0.476989
-0.324787 0.099091 -0.476042
-0.329064 0.097817 -0.475091
-0.333359 0.096537 -0.474136
-0.340397 0.093963 -0.471127
-0.348873 0.090716 -0.467057
-0.357435 0.087435 -0.462945
-0.364673 0.084786 -0.459846
-0.373396 0.081445 -0.455659
-0.383655 0.077389 -0.450354
-0.392578 0.073970 -0.446069
-0.410532 0.066322 -0.435120
0.469360 0.059475 0.176266
0.489734 0.086942 0.107278
0.492328 0.092168 0.093280
0.493847 0.096033 0.082660
0.495348 0.099851 0.072166
0.495302 0.101743 0.066431
0.494235 0.102371 0.063812
0.493682 0.103623 0.059660
0.493130 0.104871 0.055525
0.492581 0.106113 0.051405
0.492035 0.107351 0.047303
0.490980 0.107968 0.044726
0.490438 0.109198 0.040649
0.489898 0.110424 0.036587
0.488851 0.111035 0.034034
0.487294 0.111035 0.032978
0.486251 0.111644 0.030431
0.484696 0.111644 0.029375
0.483656 0.112253 0.026834
0.482102 0.112253 0.025780
0.480549 0.112253 0.024725
0.479514 0.112860 0.022191
0.478481 0.113466 0.019662
0.476930 0.113466 0.018610
0.475901 0.114071 0.016087
0.474352 0.114071 0.015036
0.473326 0.114675 0.012519
0.471779 0.114675 0.011468
0.470232 0.114675 0.010418
0.469211 0.115278 0.007908
0.467665 0.115278 0.006859
0.466647 0.115879 0.004354
0.465103 0.115879 0.003306
0.463559 0.115879 0.002258
0.462546 0.116479 -0.000239
0.461004 0.116479 -0.001287
0.459461 0.116479 -0.002334
0.457918 0.116479 -0.003381
0.456912 0.117078 -0.005870
0.455371 0.117078 -0.006917
0.453830 0.117078 -0.007963
0.452829 0.117676 -0.010445
0.451289 0.117676 -0.011491
0.450291 0.118273 -0.013967
0.448753 0.118273 -0.015011
0.456322 0.128243 -0.039935
0.461595 0.135652 -0.058694
0.463185 0.139010 -0.067740
0.463232 0.140675 -0.072728
0.463279 0.142330 -0.077689
0.463325 0.143977 -0.082621
0.463372 0.145614 -0.087526
0.463418 0.147242 -0.092404
0.463464 0.148861 -0.097255
0.463509 0.150471 -0.102079
0.463555 0.152073 -0.106876
0.463101 0.153135 -0.110388
0.462649 0.154194 -0.113887
0.461701 0.154722 -0.116123
0.460754 0.155249 -0.118355
0.460806 0.156824 -0.123068
0.459863 0.157347 -0.125285
0.458922 0.157869 -0.127499
0.457983 0.158390 -0.129708
0.457545 0.159430 -0.133140
0.456609 0.159948 -0.135338
0.455675 0.160466 -0.137532
0.454743 0.160982 -0.139723
0.453813 0.161498 -0.141909
0.452884 0.162013 -0.144091
0.451957 0.162526 -0.146269
0.451031 0.163039 -0.148444
0.450108 0.163551 -0.150614
0.448683 0.163551 -0.151582
0.447762 0.164062 -0.153747
0.446843 0.164572 -0.155909
0.445926 0.165081 -0.158067
0.445010 0.165589 -0.160221
0.443590 0.165589 -0.161185
0.442677 0.166097 -0.163334
0.441766 0.166603 -0.165480
0.440856 0.167109 -0.167621
0.439948 0.167613 -0.169759
0.439042 0.168117 -0.171893
0.438137 0.168620 -0.174023
0.437234 0.169121 -0.176150
0.436332 0.169622 -0.178272
0.435432 0.170123 -0.180391
0.434534 0.170622 -0.182506
0.433637 0.171120 -0.184618
0.432742 0.171618 -0.186725
0.431337 0.171618 -0.187679
0.430445 0.172114 -0.189782
0.429554 0.172610 -0.191881
0.428152 0.172610 -0.192833
0.427264 0.173105 -0.194927
0.426891 0.174092 -0.198157
0.425493 0.174092 -0.199106
0.424610 0.174584 -0.201189
0.423213 0.174584 -0.202138
0.422332 0.175075 -0.204217
0.420936 0.175075 -0.205164
0.420059 0.175565 -0.207239
0.418664 0.175565 -0.208186
0.417789 0.176055 -0.210256
0.415875 0.175565 -0.210079
0.415002 0.176055 -0.212148
0.413609 0.176055 -0.213093
0.412739 0.176544 -0.215158
0.411347 0.176544 -0.216103
0.410480 0.177032 -0.218162
0.409089 0.177032 -0.219106
0.407699 0.177032 -0.220051
0.406835 0.177519 -0.222105
0.405446 0.177519 -0.223048
0.404586 0.178005 -0.225098
0.403727 0.178490 -0.227144
0.402340 0.178490 -0.228086
0.401484 0.178975 -0.230128
0.400097 0.178975 -0.231069
0.398711 0.178975 -0.232010
0.397859 0.179458 -0.234046
0.396475 0.179458 -0.234986
0.395625 0.179941 -0.237019
0.394242 0.179941 -0.237958
0.392858 0.179941 -0.238897
0.392012 0.180423 -0.240924
0.390630 0.180423 -0.241863
0.389248 0.180423 -0.242801
0.388406 0.180904 -0.244823
0.387025 0.180904 -0.245760
0.385644 0.180904 -0.246698
0.384806 0.181384 -0.248715
0.383426 0.181384 -0.249652
0.382046 0.181384 -0.250588
0.380666 0.181384 -0.251525
0.379286 0.181384 -0.252462
0.377906 0.181384 -0.253399
0.376526 0.181384 -0.254336
0.375697 0.181864 -0.256344
0.374318 0.181864 -0.257280
0.372939 0.181864 -0.258216
0.371561 0.181864 -0.259152
0.370182 0.181864 -0.260088
0.368803 0.181864 -0.261024
0.367424 0.181864 -0.261960
0.366045 0.181864 -0.262896
0.364667 0.181864 -0.263832
0.363849 0.182342 -0.265830
0.362471 0.182342 -0.266765
0.361093 0.182342 -0.267700
0.359716 0.182342 -0.268635
0.358338 0.182342 -0.269571
0.356961 0.182342 -0.270506
0.356150 0.182820 -0.272497
0.354774 0.182820 -0.273431
0.353397 0.182820 -0.274365
0.352021 0.182820 -0.275300
0.350645 0.182820 -0.276234
0.349268 0.182820 -0.277168
0.348465 0.183297 -0.279151
0.347090 0.183297 -0.280085
0.345715 0.183297 -0.281019
0.344915 0.183773 -0.282997
0.343541 0.183773 -0.283929
0.342167 0.183773 -0.284862
0.340793 0.183773 -0.285795
0.339419 0.183773 -0.286728
0.338045 0.183773 -0.287660
0.336671 0.183773 -0.288593
0.335880 0.184248 -0.290563
0.334507 0.184248 -0.291495
0.333135 0.184248 -0.292427
0.331762 0.184248 -0.293359
0.330389 0.184248 -0.294291
0.329016 0.184248 -0.295223
0.327643 0.184248 -0.296155
0.326271 0.184248 -0.297086
0.324898 0.184248 -0.298018
0.324118 0.184723 -0.299978
0.322746 0.184723 -0.300910
0.321375 0.184723 -0.301841
0.320003 0.184723 -0.302772
0.318631 0.184723 -0.303703
0.317260 0.184723 -0.304634
0.315888 0.184723 -0.305565
0.315117 0.185196 -0.307517
0.313746 0.185196 -0.308447
0.312376 0.185196 -0.309377
0.311005 0.185196 -0.310308
0.309635 0.185196 -0.311238
0.308264 0.185196 -0.312168
0.306894 0.185196 -0.313099
0.305524 0.185196 -0.314029
0.304153 0.185196 -0.314959
0.303392 0.185669 -0.316901
0.302023 0.185669 -0.317831
0.300654 0.185669 -0.318760
0.299285 0.185669 -0.319690
0.297916 0.185669 -0.320619
0.296546 0.185669 -0.321549
0.295177 0.185669 -0.322478
0.294425 0.186141 -0.324412
0.293057 0.186141 -0.325341
0.291689 0.186141 -0.326269
0.290321 0.186141 -0.327198
0.288953 0.186141 -0.328127
0.287584 0.186141 -0.329056
0.286216 0.186141 -0.329984
0.284848 0.186141 -0.330913
0.283480 0.186141 -0.331842
0.282739 0.186612 -0.333766
0.281372 0.186612 -0.334694
0.280005 0.186612 -0.335621
0.278638 0.186612 -0.336549
0.277271 0.186612 -0.337477
0.275904 0.186612 -0.338405
0.274538 0.186612 -0.339333
0.273804 0.187082 -0.341249
0.272439 0.187082 -0.342176
0.271073 0.187082 -0.343103
0.269707 0.187082 -0.344030
0.268342 0.187082 -0.344957
0.266976 0.187082 -0.345884
0.265610 0.187082 -0.346812
0.264244 0.187082 -0.347739
0.262879 0.187082 -0.348666
0.261513 0.187082 -0.349593
0.260147 0.187082 -0.350520
0.258782 0.187082 -0.351447
0.257416 0.187082 -0.352374
0.311319 0.227137 -0.436554
0.315585 0.231138 -0.445724
0.317068 0.233115 -0.450678
0.317453 0.234294 -0.453971
0.317837 0.235467 -0.457248
0.318218 0.236635 -0.460510
0.319137 0.238183 -0.464556
0.319513 0.239338 -0.467782
0.319352 0.240105 -0.470204
0.318656 0.240488 -0.471831
0.317961 0.240870 -0.473454
0.316730 0.240870 -0.474290
0.316037 0.241251 -0.475910
0.314807 0.241251 -0.476745
0.314116 0.241632 -0.478362
0.313426 0.242012 -0.479977
0.312198 0.242012 -0.480811
0.311510 0.242392 -0.482423
0.310823 0.242771 -0.484032
0.309597 0.242771 -0.484864
0.308912 0.243149 -0.486470
0.307145 0.242771 -0.486529
0.305375 0.242392 -0.486587
0.304148 0.242392 -0.487420
0.302374 0.242012 -0.487480
0.300598 0.241632 -0.487539
0.298819 0.241251 -0.487599
0.297037 0.240870 -0.487658
0.295252 0.240488 -0.487718
0.293464 0.240105 -0.487778
0.291674 0.239722 -0.487838
0.289881 0.239338 -0.487898
0.288085 0.238954 -0.487958
0.286286 0.238569 -0.488018
0.284485 0.238183 -0.488079
0.282681 0.237797 -0.488139
0.280304 0.237023 -0.487418
0.278492 0.236635 -0.487478
0.276677 0.236246 -0.487538
0.274860 0.235857 -0.487599
0.273616 0.235857 -0.488443
0.271795 0.235467 -0.488504
0.269971 0.235077 -0.488565
0.268144 0.234686 -0.488626
0.266314 0.234294 -0.488687
0.264481 0.233902 -0.488749
0.262645 0.233509 -0.488810
0.260806 0.233115 -0.488872
0.258965 0.232721 -0.488933
0.257120 0.232326 -0.488995
0.255273 0.231931 -0.489057
0.253422 0.231535 -0.489119
0.251569 0.231138 -0.489181
0.249713 0.230741 -0.489243
0.247854 0.230343 -0.489305
0.245991 0.229944 -0.489368
0.244126 0.229545 -0.489430
0.242258 0.229145 -0.489493
0.240387 0.228745 -0.489555
0.238513 0.228344 -0.489618
0.236636 0.227942 -0.489681
0.234756 0.227540 -0.489744
0.232873 0.227137 -0.489807
0.230987 0.226733 -0.489870
0.229098 0.226329 -0.489934
0.227206 0.225924 -0.489997
0.225311 0.225518 -0.490060
0.223413 0.225112 -0.490124
0.221511 0.224705 -0.490188
0.219607 0.224297 -0.490251
0.217700 0.223889 -0.490315
0.215789 0.223480 -0.490379
0.213876 0.223071 -0.490443
0.211317 0.222250 -0.489704
0.209395 0.221838 -0.489768
0.207471 0.221426 -0.489832
0.205543 0.221013 -0.489896
0.203611 0.220599 -0.489960
0.201677 0.220185 -0.490024
0.199740 0.219770 -0.490088
0.197799 0.219355 -0.490152
0.195856 0.218939 -0.490217
0.193909 0.218522 -0.490281
0.191959 0.218104 -0.490346
0.190006 0.217686 -0.490411
0.188050 0.217267 -0.490476
0.186090 0.216847 -0.490541
0.184127 0.216427 -0.490606
0.182161 0.216006 -0.490671
0.179515 0.215162 -0.489922
0.177541 0.214739 -0.489987
0.175563 0.214315 -0.490052
0.173582 0.213891 -0.490117
0.171598 0.213465 -0.490182
0.169610 0.213040 -0.490247
0.167619 0.212613 -0.490312
0.165625 0.212186 -0.490378
0.163628 0.211758 -0.490443
0.161627 0.211329 -0.490509
0.159623 0.210900 -0.490574
0.157616 0.210470 -0.490640
0.155605 0.210039 -0.490706
0.153591 0.209607 -0.490772
0.151574 0.209175 -0.490838
0.149554 0.208742 -0.490905
0.147530 0.208308 -0.490971
0.145502 0.207874 -0.491037
0.143472 0.207439 -0.491104
0.141438 0.207003 -0.491171
0.139400 0.206567 -0.491238
0.137359 0.206129 -0.491305
0.135315 0.205691 -0.491372
0.133267 0.205253 -0.491439
0.131216 0.204813 -0.491506
0.129162 0.204373 -0.491573
0.127104 0.203932 -0.491641
0.125043 0.203490 -0.491708
0.122978 0.203048 -0.491776
0.120910 0.202605 -0.491844
0.118838 0.202161 -0.491912
0.116014 0.201271 -0.491145
0.114684 0.201271 -0.492048
0.111848 0.200378 -0.491280
0.109760 0.199930 -0.491348
0.106909 0.199033 -0.490577
0.104812 0.198583 -0.490645
0.102710 0.198132 -0.490712
0.100606 0.197681 -0.490780
0.098498 0.197228 -0.490847
0.096386 0.196775 -0.490915
0.094270 0.196322 -0.490983
0.092151 0.195867 -0.491051
0.090029 0.195412 -0.491119
0.087120 0.194499 -0.490341
0.084988 0.194041 -0.490409
0.082852 0.193583 -0.490477
0.080712 0.193124 -0.490545
0.078569 0.192664 -0.490613
0.075625 0.191741 -0.489830
0.073472 0.191279 -0.489898
0.071316 0.190816 -0.489965
0.069155 0.190352 -0.490033
0.066991 0.189887 -0.490101
0.064823 0.189422 -0.490169
0.062651 0.188956 -0.490237
0.060476 0.188489 -0.490306
0.058297 0.188021 -0.490374
0.056114 0.187552 -0.490443
0.053927 0.187082 -0.490511
0.050911 0.186141 -0.489720
0.048714 0.185669 -0.489789
0.046513 0.185196 -0.489857
0.044309 0.184723 -0.489925
0.042937 0.184723 -0.490857
0.039889 0.183773 -0.490063
0.037673 0.183297 -0.490131
0.035453 0.182820 -0.490200
0.033229 0.182342 -0.490269
0.031002 0.181864 -0.490339
0.028770 0.181384 -0.490408
0.026535 0.180904 -0.490477
0.024296 0.180423 -0.490547
0.022053 0.179941 -0.490617
0.019806 0.179458 -0.490686
0.017555 0.178975 -0.490756
0.014429 0.178005 -0.489954
0.012168 0.177519 -0.490023
0.009902 0.177032 -0.490093
0.007633 0.176544 -0.490163
0.005359 0.176055 -0.490232
0.002196 0.175075 -0.489425
-0.000089 0.174584 -0.489494
-0.002377 0.174092 -0.489564
-0.004670 0.173599 -0.489633
-0.006966 0.173105 -0.489703
-0.009267 0.172610 -0.489773
-0.011572 0.172114 -0.489843
-0.013880 0.171618 -0.489913
-0.016193 0.171120 -0.489983
-0.018510 0.170622 -0.490053
-0.020831 0.170123 -0.490124
-0.024075 0.169121 -0.489307
-0.026408 0.168620 -0.489377
-0.028744 0.168117 -0.489448
-0.031085 0.167613 -0.489518
-0.032499 0.167613 -0.490478
-0.035779 0.166603 -0.489659
-0.038132 0.166097 -0.489729
-0.040489 0.165589 -0.489800
-0.042851 0.165081 -0.489871
-0.045217 0.164572 -0.489942
-0.047587 0.164062 -0.490013
-0.049961 0.163551 -0.490084
-0.052340 0.163039 -0.490156
-0.054723 0.162526 -0.490227
-0.057111 0.162013 -0.490299
-0.059502 0.161498 -0.490370
-0.062866 0.160466 -0.489542
-0.065269 0.159948 -0.489613
-0.067677 0.159430 -0.489685
-0.070089 0.158911 -0.489756
-0.072506 0.158390 -0.489828
-0.075911 0.157347 -0.488994
-0.078340 0.156824 -0.489065
-0.080773 0.156300 -0.489136
-0.084206 0.155249 -0.488298
-0.086651 0.154722 -0.488369
-0.089100 0.154194 -0.488440
-0.091554 0.153665 -0.488511
-0.094012 0.153135 -0.488582
-0.096475 0.152604 -0.488653
-0.098942 0.152073 -0.488725
-0.101414 0.151540 -0.488796
-0.104914 0.150471 -0.487950
-0.107398 0.149936 -0.488021
-0.109887 0.149399 -0.488093
-0.112380 0.148861 -0.488164
-0.113842 0.148861 -0.489156
-0.117381 0.147783 -0.488307
-0.119888 0.147242 -0.488379
-0.122400 0.146700 -0.488450
-0.124916 0.146158 -0.488522
-0.127438 0.145614 -0.488595
-0.129964 0.145069 -0.488667
-0.132494 0.144524 -0.488739
-0.135029 0.143977 -0.488812
-0.137569 0.143429 -0.488884
-0.140114 0.142880 -0.488957
-0.142664 0.142330 -0.489030
-0.146296 0.141228 -0.488171
-0.148859 0.140675 -0.488244
-0.151426 0.140121 -0.488316
-0.153998 0.139566 -0.488389
-0.156575 0.139010 -0.488462
-0.160255 0.137895 -0.487597
-0.162845 0.137335 -0.487669
-0.165440 0.136775 -0.487741
-0.168040 0.136214 -0.487814
-0.170644 0.135652 -0.487887
-0.173254 0.135088 -0.487959
-0.175869 0.134524 -0.488032
-0.178488 0.133958 -0.488105
-0.182241 0.132824 -0.487233
-0.184874 0.132255 -0.487305
-0.187512 0.131685 -0.487378
-0.190155 0.131114 -0.487451
-0.192803 0.130542 -0.487524
-0.195456 0.129969 -0.487597
-0.198115 0.129395 -0.487670
-0.200778 0.128820 -0.487743
-0.204605 0.127666 -0.486862
-0.207283 0.127087 -0.486935
-0.209965 0.126507 -0.487008
-0.212652 0.125927 -0.487081
-0.215345 0.125345 -0.487154
-0.218043 0.124762 -0.487228
-0.220746 0.124177 -0.487301
-0.223454 0.123592 -0.487375
-0.227359 0.122418 -0.486485
-0.230081 0.121829 -0.486558
-0.232809 0.121240 -0.486632
-0.235542 0.120649 -0.486705
-0.238280 0.120056 -0.486778
-0.241024 0.119463 -0.486852
-0.243773 0.118869 -0.486926
-0.247747 0.117676 -0.486028
-0.250511 0.117078 -0.486102
-0.253280 0.116479 -0.486175
-0.257288 0.115278 -0.485273
-0.260072 0.114675 -0.485346
-0.262861 0.114071 -0.485418
-0.265656 0.113466 -0.485492
-0.269708 0.112253 -0.484584
-0.272518 0.111644 -0.484656
-0.275333 0.111035 -0.484729
-0.279420 0.109812 -0.483815
-0.282250 0.109198 -0.483887
-0.285086 0.108584 -0.483959
-0.289209 0.107351 -0.483041
-0.292060 0.106733 -0.483113
-0.294917 0.106113 -0.483184
-0.297779 0.105493 -0.483256
-0.300647 0.104871 -0.483328
-0.307443 0.102371 -0.480403
-0.311651 0.101113 -0.479469
-0.314553 0.100483 -0.479537
-0.320119 0.098583 -0.477588
-0.324379 0.097311 -0.476643
-0.328656 0.096033 -0.475693
-0.334304 0.094106 -0.473719
-0.341353 0.091520 -0.470705
-0.349842 0.088257 -0.466628
-0.357019 0.085622 -0.463557
-0.365667 0.082299 -0.459407
-0.375835 0.078265 -0.454147
-0.384680 0.074865 -0.449899
-0.395085 0.070738 -0.444519
-0.417636 0.060904 -0.430175
0.476032 0.067492 0.150101
0.491170 0.088418 0.097485
0.492180 0.091671 0.088397
0.493697 0.095530 0.077827
0.495196 0.099344 0.067384
0.494128 0.099975 0.064762
0.493574 0.101233 0.060604
0.492511 0.101861 0.057996
0.492473 0.103735 0.052337
0.491926 0.104979 0.048228
0.490871 0.105599 0.045648
0.490328 0.106835 0.041565
0.489788 0.108066 0.037497
0.488740 0.108680 0.034941
0.487694 0.109293 0.032390
0.486137 0.109293 0.031333
0.485094 0.109904 0.028788
0.483540 0.109904 0.027732
0.481985 0.109904 0.026677
0.480947 0.110515 0.024138
0.479394 0.110515 0.023084
0.478360 0.111124 0.020552
0.477328 0.111731 0.018024
0.475778 0.111731 0.016972
0.474227 0.111731 0.015919
0.473201 0.112338 0.013399
0.471652 0.112338 0.012348
0.470628 0.112944 0.009833
0.469081 0.112944 0.008783
0.468061 0.113548 0.006275
0.466516 0.113548 0.005225
0.464970 0.113548 0.004176
0.463955 0.114151 0.001674
0.462411 0.114151 0.000626
0.460867 0.114151 -0.000422
0.459857 0.114753 -0.002917
0.458314 0.114753 -0.003964
0.456771 0.114753 -0.005011
0.455766 0.115354 -0.007499
0.454225 0.115354 -0.008545
0.452684 0.115354 -0.009592
0.451684 0.115953 -0.012072
0.450144 0.115953 -0.013118
0.448604 0.115953 -0.014163
0.457237 0.127128 -0.041887
0.462493 0.134543 -0.060604
0.463566 0.137347 -0.068302
0.463612 0.139016 -0.073288
0.463658 0.140676 -0.078247
0.463703 0.142327 -0.083178
0.463749 0.143969 -0.088081
0.463794 0.145602 -0.092958
0.463839 0.147226 -0.097807
0.463883 0.148840 -0.102629
0.463927 0.150446 -0.107425
0.463473 0.151512 -0.110936
0.463519 0.153103 -0.115687
0.462072 0.153103 -0.116669
0.461124 0.153631 -0.118901
0.461176 0.155211 -0.123613
0.460233 0.155735 -0.125830
0.459291 0.156259 -0.128042
0.458352 0.156782 -0.130251
0.457913 0.157824 -0.133682
0.456977 0.158344 -0.135880
0.456043 0.158863 -0.138074
0.455110 0.159381 -0.140263
0.454179 0.159898 -0.142449
0.453250 0.160414 -0.144631
0.452323 0.160929 -0.146809
0.451397 0.161443 -0.148983
0.449971 0.161443 -0.149951
0.449048 0.161957 -0.152120
0.448127 0.162469 -0.154285
0.447208 0.162981 -0.156446
0.446290 0.163491 -0.158604
0.444869 0.163491 -0.159568
0.443954 0.164001 -0.161721
0.443041 0.164509 -0.163870
0.442129 0.165017 -0.166015
0.441219 0.165524 -0.168156
0.440311 0.166030 -0.170294
0.439404 0.166535 -0.172427
0.438499 0.167039 -0.174557
0.437595 0.167543 -0.176683
0.436694 0.168045 -0.178805
0.435793 0.168547 -0.180923
0.434895 0.169047 -0.183038
0.433997 0.169547 -0.185149
0.432592 0.169547 -0.186103
0.431697 0.170046 -0.188209
0.430805 0.170544 -0.190312
0.429402 0.170544 -0.191264
0.428512 0.171041 -0.193362
0.427623 0.171537 -0.195457
0.426737 0.172032 -0.197547
0.425852 0.172527 -0.199634
0.424453 0.172527 -0.200583
0.423571 0.173020 -0.202666
0.422174 0.173020 -0.203614
0.421294 0.173513 -0.205692
0.419899 0.173513 -0.206639
0.419022 0.174005 -0.208713
0.417627 0.174005 -0.209659
0.416233 0.174005 -0.210606
0.415360 0.174496 -0.212674
0.413966 0.174496 -0.213620
0.413096 0.174986 -0.215684
0.411704 0.174986 -0.216629
0.410837 0.175475 -0.218688
0.409446 0.175475 -0.219632
0.408055 0.175475 -0.220576
0.407192 0.175964 -0.222630
0.405802 0.175964 -0.223573
0.404942 0.176451 -0.225623
0.403553 0.176451 -0.226565
0.402695 0.176938 -0.228610
0.401839 0.177424 -0.230651
0.400453 0.177424 -0.231592
0.399067 0.177424 -0.232533
0.398215 0.177908 -0.234569
0.396830 0.177908 -0.235509
0.395980 0.178393 -0.237541
0.394596 0.178393 -0.238481
0.393213 0.178393 -0.239420
0.392367 0.178876 -0.241446
0.390985 0.178876 -0.242385
0.389602 0.178876 -0.243323
0.388760 0.179358 -0.245345
0.387379 0.179358 -0.246282
0.385998 0.179358 -0.247220
0.385160 0.179840 -0.249236
0.383780 0.179840 -0.250173
0.382400 0.179840 -0.251110
0.381020 0.179840 -0.252047
0.379640 0.179840 -0.252983
0.378260 0.179840 -0.253920
0.376880 0.179840 -0.254857
0.376051 0.180321 -0.256865
0.374672 0.180321 -0.257801
0.373293 0.180321 -0.258737
0.371914 0.180321 -0.259673
0.370535 0.180321 -0.260609
0.369157 0.180321 -0.261545
0.367778 0.180321 -0.262481
0.366399 0.180321 -0.263417
0.365020 0.180321 -0.264353
0.364202 0.180801 -0.266350
0.362824 0.180801 -0.267286
0.361447 0.180801 -0.268221
0.360069 0.180801 -0.269156
0.358692 0.180801 -0.270091
0.357314 0.180801 -0.271026
0.355936 0.180801 -0.271961
0.355127 0.181280 -0.273951
0.353750 0.181280 -0.274885
0.352374 0.181280 -0.275820
0.350998 0.181280 -0.276754
0.349621 0.181280 -0.277688
