ply
format ascii 1.0
element vertex 1681
property float x
property float y
property float z
end_header
0.404338 0.201289 -0.209397
0.401160 0.200674 -0.214670
0.398406 0.200266 -0.218167
0.395662 0.199859 -0.221650
0.392930 0.199454 -0.225119
0.334226 0.170438 -0.473737
0.331714 0.169996 -0.477523
0.329215 0.169557 -0.481289
0.327009 0.169265 -0.483789
0.325089 0.169119 -0.485036
0.323173 0.168974 -0.486281
0.321535 0.168974 -0.486281
0.319623 0.168829 -0.487523
0.317986 0.168829 -0.487523
0.316350 0.168829 -0.487523
0.314713 0.168829 -0.487523
0.313077 0.168829 -0.487523
0.311440 0.168829 -0.487523
0.309804 0.168829 -0.487523
0.308167 0.168829 -0.487523
0.306531 0.168829 -0.487523
0.304633 0.168684 -0.488764
0.302998 0.168684 -0.488764
0.301363 0.168684 -0.488764
0.299728 0.168684 -0.488764
0.298093 0.168684 -0.488764
0.296458 0.168684 -0.488764
0.294822 0.168684 -0.488764
0.293187 0.168684 -0.488764
0.291552 0.168684 -0.488764
0.289917 0.168684 -0.488764
0.288282 0.168684 -0.488764
0.286647 0.168684 -0.488764
0.285012 0.168684 -0.488764
0.283377 0.168684 -0.488764
0.281741 0.168684 -0.488764
0.280106 0.168684 -0.488764
0.278233 0.168540 -0.490002
0.276599 0.168540 -0.490002
0.274966 0.168540 -0.490002
0.273332 0.168540 -0.490002
0.271698 0.168540 -0.490002
0.270064 0.168540 -0.490002
0.268431 0.168540 -0.490002
0.266797 0.168540 -0.490002
0.265163 0.168540 -0.490002
0.263530 0.168540 -0.490002
0.261896 0.168540 -0.490002
0.260262 0.168540 -0.490002
0.258628 0.168540 -0.490002
0.256995 0.168540 -0.490002
0.255361 0.168540 -0.490002
0.253727 0.168540 -0.490002
0.252093 0.168540 -0.490002
0.250246 0.168395 -0.491238
0.248613 0.168395 -0.491238
0.246981 0.168395 -0.491238
0.245349 0.168395 -0.491238
0.243716 0.168395 -0.491238
0.242084 0.168395 -0.491238
0.240452 0.168395 -0.491238
0.238819 0.168395 -0.491238
0.237187 0.168395 -0.491238
0.235555 0.168395 -0.491238
0.233922 0.168395 -0.491238
0.232290 0.168395 -0.491238
0.230658 0.168395 -0.491238
0.229025 0.168395 -0.491238
0.227199 0.168251 -0.492472
0.225568 0.168251 -0.492472
0.223937 0.168251 -0.492472
0.222306 0.168251 -0.492472
0.220675 0.168251 -0.492472
0.219044 0.168251 -0.492472
0.217413 0.168251 -0.492472
0.215782 0.168251 -0.492472
0.214151 0.168251 -0.492472
0.212520 0.168251 -0.492472
0.210889 0.168251 -0.492472
0.209259 0.168251 -0.492472
0.207628 0.168251 -0.492472
0.205997 0.168251 -0.492472
0.204366 0.168251 -0.492472
0.202562 0.168108 -0.493704
0.200932 0.168108 -0.493704
0.199473 0.168251 -0.492472
0.197842 0.168251 -0.492472
0.196211 0.168251 -0.492472
0.194580 0.168251 -0.492472
0.192949 0.168251 -0.492472
0.191318 0.168251 -0.492472
0.189687 0.168251 -0.492472
0.188056 0.168251 -0.492472
0.186425 0.168251 -0.492472
0.184794 0.168251 -0.492472
0.183163 0.168251 -0.492472
0.181532 0.168251 -0.492472
0.179902 0.168251 -0.492472
0.178271 0.168251 -0.492472
0.176640 0.168251 -0.492472
0.175009 0.168251 -0.492472
0.173526 0.168395 -0.491238
0.171894 0.168395 -0.491238
0.170261 0.168395 -0.491238
0.168629 0.168395 -0.491238
0.166997 0.168395 -0.491238
0.165364 0.168395 -0.491238
0.163732 0.168395 -0.491238
0.162100 0.168395 -0.491238
0.160467 0.168395 -0.491238
0.158835 0.168395 -0.491238
0.157203 0.168395 -0.491238
0.155570 0.168395 -0.491238
0.153938 0.168395 -0.491238
0.152306 0.168395 -0.491238
0.150673 0.168395 -0.491238
0.149041 0.168395 -0.491238
0.147409 0.168395 -0.491238
0.145776 0.168395 -0.491238
0.144144 0.168395 -0.491238
0.142512 0.168395 -0.491238
0.140879 0.168395 -0.491238
0.139247 0.168395 -0.491238
0.137615 0.168395 -0.491238
0.135982 0.168395 -0.491238
0.134350 0.168395 -0.491238
0.132718 0.168395 -0.491238
0.131085 0.168395 -0.491238
0.129453 0.168395 -0.491238
0.127821 0.168395 -0.491238
0.126188 0.168395 -0.491238
0.124556 0.168395 -0.491238
0.122924 0.168395 -0.491238
0.121291 0.168395 -0.491238
0.119659 0.168395 -0.491238
0.118027 0.168395 -0.491238
0.116394 0.168395 -0.491238
0.114762 0.168395 -0.491238
0.113130 0.168395 -0.491238
0.111497 0.168395 -0.491238
0.109865 0.168395 -0.491238
0.108233 0.168395 -0.491238
0.106600 0.168395 -0.491238
0.104968 0.168395 -0.491238
0.103424 0.168540 -0.490002
0.101790 0.168540 -0.490002
0.100157 0.168540 -0.490002
0.098523 0.168540 -0.490002
0.096889 0.168540 -0.490002
0.095255 0.168540 -0.490002
0.093622 0.168540 -0.490002
0.091988 0.168540 -0.490002
0.090354 0.168540 -0.490002
0.088720 0.168540 -0.490002
0.087087 0.168540 -0.490002
0.085453 0.168540 -0.490002
0.083819 0.168540 -0.490002
0.082186 0.168540 -0.490002
0.080552 0.168540 -0.490002
0.078918 0.168540 -0.490002
0.077284 0.168540 -0.490002
0.075651 0.168540 -0.490002
0.074017 0.168540 -0.490002
0.072383 0.168540 -0.490002
0.070749 0.168540 -0.490002
0.069116 0.168540 -0.490002
0.067482 0.168540 -0.490002
0.065848 0.168540 -0.490002
0.064215 0.168540 -0.490002
0.062581 0.168540 -0.490002
0.060947 0.168540 -0.490002
0.059313 0.168540 -0.490002
0.057680 0.168540 -0.490002
0.056046 0.168540 -0.490002
0.054412 0.168540 -0.490002
0.052778 0.168540 -0.490002
0.051145 0.168540 -0.490002
0.049511 0.168540 -0.490002
0.047877 0.168540 -0.490002
0.046243 0.168540 -0.490002
0.044610 0.168540 -0.490002
0.042976 0.168540 -0.490002
0.041342 0.168540 -0.490002
0.039709 0.168540 -0.490002
0.038075 0.168540 -0.490002
0.036441 0.168540 -0.490002
0.034807 0.168540 -0.490002
0.033174 0.168540 -0.490002
0.031540 0.168540 -0.490002
0.029906 0.168540 -0.490002
0.028272 0.168540 -0.490002
0.026639 0.168540 -0.490002
0.025005 0.168540 -0.490002
0.023371 0.168540 -0.490002
0.021738 0.168540 -0.490002
0.020104 0.168540 -0.490002
0.018470 0.168540 -0.490002
0.016836 0.168540 -0.490002
0.015203 0.168540 -0.490002
0.013569 0.168540 -0.490002
0.011935 0.168540 -0.490002
0.010301 0.168540 -0.490002
0.008668 0.168540 -0.490002
0.007034 0.168540 -0.490002
0.005400 0.168540 -0.490002
0.003767 0.168540 -0.490002
0.002133 0.168540 -0.490002
0.000499 0.168540 -0.490002
-0.001135 0.168684 -0.488764
-0.002770 0.168684 -0.488764
-0.004406 0.168684 -0.488764
-0.006041 0.168684 -0.488764
-0.007676 0.168684 -0.488764
-0.009311 0.168684 -0.488764
-0.010946 0.168684 -0.488764
-0.012581 0.168684 -0.488764
-0.014216 0.168684 -0.488764
-0.015851 0.168684 -0.488764
-0.017487 0.168684 -0.488764
-0.019122 0.168684 -0.488764
-0.020757 0.168684 -0.488764
-0.022392 0.168684 -0.488764
-0.024027 0.168684 -0.488764
-0.025662 0.168684 -0.488764
-0.027297 0.168684 -0.488764
-0.028933 0.168684 -0.488764
-0.030568 0.168684 -0.488764
-0.032203 0.168684 -0.488764
-0.033838 0.168684 -0.488764
-0.035473 0.168684 -0.488764
-0.037108 0.168684 -0.488764
-0.038743 0.168684 -0.488764
-0.040378 0.168684 -0.488764
-0.042014 0.168684 -0.488764
-0.043649 0.168684 -0.488764
-0.045284 0.168684 -0.488764
-0.046919 0.168684 -0.488764
-0.048554 0.168684 -0.488764
-0.050189 0.168684 -0.488764
-0.051824 0.168684 -0.488764
-0.053459 0.168684 -0.488764
-0.055095 0.168684 -0.488764
-0.056730 0.168684 -0.488764
-0.058365 0.168684 -0.488764
-0.060000 0.168684 -0.488764
-0.061635 0.168684 -0.488764
-0.063270 0.168684 -0.488764
-0.064905 0.168684 -0.488764
-0.066540 0.168684 -0.488764
-0.068176 0.168684 -0.488764
-0.069811 0.168684 -0.488764
-0.071446 0.168684 -0.488764
-0.073081 0.168684 -0.488764
-0.074716 0.168684 -0.488764
-0.076351 0.168684 -0.488764
-0.077986 0.168684 -0.488764
-0.079621 0.168684 -0.488764
-0.081257 0.168684 -0.488764
-0.082892 0.168684 -0.488764
-0.084527 0.168684 -0.488764
-0.086162 0.168684 -0.488764
-0.087797 0.168684 -0.488764
-0.089432 0.168684 -0.488764
-0.091067 0.168684 -0.488764
-0.092702 0.168684 -0.488764
-0.094338 0.168684 -0.488764
-0.095973 0.168684 -0.488764
-0.097608 0.168684 -0.488764
-0.099243 0.168684 -0.488764
-0.100878 0.168684 -0.488764
-0.102513 0.168684 -0.488764
-0.104148 0.168684 -0.488764
-0.105874 0.168829 -0.487523
-0.107510 0.168829 -0.487523
-0.109147 0.168829 -0.487523
-0.110783 0.168829 -0.487523
-0.112420 0.168829 -0.487523
-0.114056 0.168829 -0.487523
-0.115693 0.168829 -0.487523
-0.117329 0.168829 -0.487523
-0.118966 0.168829 -0.487523
-0.120602 0.168829 -0.487523
-0.122239 0.168829 -0.487523
-0.123875 0.168829 -0.487523
-0.125512 0.168829 -0.487523
-0.127148 0.168829 -0.487523
-0.128785 0.168829 -0.487523
-0.130422 0.168829 -0.487523
-0.132058 0.168829 -0.487523
-0.133695 0.168829 -0.487523
-0.135331 0.168829 -0.487523
-0.136968 0.168829 -0.487523
-0.138604 0.168829 -0.487523
-0.140241 0.168829 -0.487523
-0.141877 0.168829 -0.487523
-0.143514 0.168829 -0.487523
-0.145150 0.168829 -0.487523
-0.146787 0.168829 -0.487523
-0.148423 0.168829 -0.487523
-0.150060 0.168829 -0.487523
-0.151696 0.168829 -0.487523
-0.153333 0.168829 -0.487523
-0.154969 0.168829 -0.487523
-0.156606 0.168829 -0.487523
-0.158242 0.168829 -0.487523
-0.159879 0.168829 -0.487523
-0.161515 0.168829 -0.487523
-0.163152 0.168829 -0.487523
-0.164789 0.168829 -0.487523
-0.166425 0.168829 -0.487523
-0.168062 0.168829 -0.487523
-0.169698 0.168829 -0.487523
-0.171335 0.168829 -0.487523
-0.172971 0.168829 -0.487523
-0.174608 0.168829 -0.487523
-0.176244 0.168829 -0.487523
-0.177881 0.168829 -0.487523
-0.179517 0.168829 -0.487523
-0.181154 0.168829 -0.487523
-0.182790 0.168829 -0.487523
-0.184427 0.168829 -0.487523
-0.186063 0.168829 -0.487523
-0.187700 0.168829 -0.487523
-0.189336 0.168829 -0.487523
-0.190973 0.168829 -0.487523
-0.192609 0.168829 -0.487523
-0.194246 0.168829 -0.487523
-0.195883 0.168829 -0.487523
-0.197519 0.168829 -0.487523
-0.199156 0.168829 -0.487523
-0.200792 0.168829 -0.487523
-0.202429 0.168829 -0.487523
-0.204065 0.168829 -0.487523
-0.205702 0.168829 -0.487523
-0.207338 0.168829 -0.487523
-0.208975 0.168829 -0.487523
-0.210791 0.168974 -0.486281
-0.212429 0.168974 -0.486281
-0.214067 0.168974 -0.486281
-0.215705 0.168974 -0.486281
-0.217343 0.168974 -0.486281
-0.218981 0.168974 -0.486281
-0.220619 0.168974 -0.486281
-0.222257 0.168974 -0.486281
-0.223895 0.168974 -0.486281
-0.225533 0.168974 -0.486281
-0.227171 0.168974 -0.486281
-0.228808 0.168974 -0.486281
-0.230644 0.169119 -0.485036
-0.232283 0.169119 -0.485036
-0.233922 0.169119 -0.485036
-0.235562 0.169119 -0.485036
-0.237201 0.169119 -0.485036
-0.238840 0.169119 -0.485036
-0.240480 0.169119 -0.485036
-0.242119 0.169119 -0.485036
-0.243967 0.169265 -0.483789
-0.245608 0.169265 -0.483789
-0.247248 0.169265 -0.483789
-0.248889 0.169265 -0.483789
-0.250530 0.169265 -0.483789
-0.252171 0.169265 -0.483789
-0.253811 0.169265 -0.483789
-0.255452 0.169265 -0.483789
-0.257313 0.169411 -0.482540
-0.258955 0.169411 -0.482540
-0.260821 0.169557 -0.481289
-0.262465 0.169557 -0.481289
-0.263882 0.169411 -0.482540
-0.265524 0.169411 -0.482540
-0.267395 0.169557 -0.481289
-0.269270 0.169703 -0.480036
-0.270915 0.169703 -0.480036
-0.272794 0.169849 -0.478781
-0.274441 0.169849 -0.478781
-0.276087 0.169849 -0.478781
-0.277972 0.169996 -0.477523
-0.279620 0.169996 -0.477523
-0.281268 0.169996 -0.477523
-0.283159 0.170143 -0.476264
-0.284809 0.170143 -0.476264
-0.286458 0.170143 -0.476264
-0.288355 0.170290 -0.475002
-0.290006 0.170290 -0.475002
-0.291657 0.170290 -0.475002
-0.293560 0.170438 -0.473737
-0.295212 0.170438 -0.473737
-0.297121 0.170586 -0.472471
-0.299032 0.170734 -0.471203
-0.300687 0.170734 -0.471203
-0.302604 0.170882 -0.469932
-0.304260 0.170882 -0.469932
-0.306181 0.171031 -0.468659
-0.307839 0.171031 -0.468659
-0.309765 0.171180 -0.467384
-0.311694 0.171329 -0.466107
-0.313627 0.171478 -0.464827
-0.315289 0.171478 -0.464827
-0.317227 0.171628 -0.463546
-0.319167 0.171777 -0.462262
-0.320832 0.171777 -0.462262
-0.322778 0.171927 -0.460976
-0.324727 0.172078 -0.459687
-0.326395 0.172078 -0.459687
-0.328349 0.172228 -0.458396
-0.330306 0.172379 -0.457103
-0.331977 0.172379 -0.457103
-0.333939 0.172531 -0.455808
-0.335612 0.172531 -0.455808
-0.337579 0.172682 -0.454511
-0.339549 0.172834 -0.453211
-0.341224 0.172834 -0.453211
-0.343200 0.172986 -0.451909
-0.345179 0.173138 -0.450605
-0.346857 0.173138 -0.450605
-0.348535 0.173138 -0.450605
-0.350520 0.173290 -0.449298
-0.352509 0.173443 -0.447989
-0.354502 0.173596 -0.446678
-0.356497 0.173749 -0.445365
-0.358497 0.173903 -0.444049
-0.360182 0.173903 -0.444049
-0.362187 0.174057 -0.442731
-0.364195 0.174211 -0.441410
-0.366206 0.174365 -0.440087
-0.368221 0.174520 -0.438762
-0.369913 0.174520 -0.438762
-0.371933 0.174675 -0.437435
-0.373956 0.174830 -0.436105
-0.375984 0.174986 -0.434773
-0.378014 0.175141 -0.433438
-0.379712 0.175141 -0.433438
-0.382087 0.175454 -0.430762
-0.384129 0.175610 -0.429420
-0.386174 0.175767 -0.428076
-0.388223 0.175924 -0.426730
-0.390276 0.176082 -0.425381
-0.392332 0.176239 -0.424030
-0.394392 0.176397 -0.422676
-0.396456 0.176556 -0.421320
-0.398523 0.176714 -0.419961
-0.400594 0.176873 -0.418600
-0.402669 0.177032 -0.417237
-0.404747 0.177192 -0.415871
-0.407195 0.177511 -0.413132
-0.409283 0.177672 -0.411759
-0.411375 0.177832 -0.410383
-0.413471 0.177993 -0.409005
-0.415946 0.178316 -0.406241
-0.418051 0.178477 -0.404855
-0.420160 0.178639 -0.403467
-0.422656 0.178964 -0.400683
-0.425161 0.179290 -0.397889
-0.428064 0.179782 -0.393679
-0.431377 0.180441 -0.388029
-0.434316 0.180939 -0.383765
-0.437271 0.181439 -0.379477
-0.439837 0.181774 -0.376606
-0.442821 0.182279 -0.372278
-0.445409 0.182618 -0.369380
-0.448423 0.183127 -0.365012
-0.451453 0.183640 -0.360620
0.490883 0.229875 0.054790
0.483518 0.227463 0.033927
0.479619 0.226671 0.027069
0.476849 0.226408 0.024794
0.473538 0.225883 0.020259
0.423382 0.202864 -0.178899
0.418789 0.201606 -0.189785
0.415103 0.200776 -0.196968
0.411870 0.200158 -0.202317
0.409073 0.199747 -0.205864
0.406289 0.199339 -0.209397
0.403515 0.198932 -0.212916
0.400753 0.198527 -0.216420
0.397599 0.197923 -0.221650
0.394862 0.197522 -0.225119
0.392137 0.197123 -0.228574
0.334226 0.168786 -0.473737
0.331714 0.168348 -0.477523
0.329215 0.167913 -0.481289
0.327009 0.167624 -0.483789
0.325089 0.167480 -0.485036
0.323173 0.167336 -0.486281
0.321535 0.167336 -0.486281
0.319623 0.167193 -0.487523
0.317986 0.167193 -0.487523
0.316350 0.167193 -0.487523
0.314713 0.167193 -0.487523
0.313077 0.167193 -0.487523
0.311440 0.167193 -0.487523
0.309804 0.167193 -0.487523
0.308167 0.167193 -0.487523
0.306531 0.167193 -0.487523
0.304633 0.167049 -0.488764
0.302998 0.167049 -0.488764
0.301363 0.167049 -0.488764
0.299728 0.167049 -0.488764
0.298093 0.167049 -0.488764
0.296458 0.167049 -0.488764
0.294822 0.167049 -0.488764
0.293187 0.167049 -0.488764
0.291552 0.167049 -0.488764
0.289917 0.167049 -0.488764
0.288282 0.167049 -0.488764
0.286647 0.167049 -0.488764
0.285012 0.167049 -0.488764
0.283377 0.167049 -0.488764
0.281741 0.167049 -0.488764
0.280106 0.167049 -0.488764
0.278233 0.166906 -0.490002
0.276599 0.166906 -0.490002
0.274966 0.166906 -0.490002
0.273332 0.166906 -0.490002
0.271698 0.166906 -0.490002
0.270064 0.166906 -0.490002
0.268431 0.166906 -0.490002
0.266797 0.166906 -0.490002
0.265163 0.166906 -0.490002
0.263530 0.166906 -0.490002
0.261896 0.166906 -0.490002
0.260262 0.166906 -0.490002
0.258628 0.166906 -0.490002
0.256995 0.166906 -0.490002
0.255361 0.166906 -0.490002
0.253727 0.166906 -0.490002
0.251878 0.166763 -0.491238
0.250246 0.166763 -0.491238
0.248613 0.166763 -0.491238
0.246981 0.166763 -0.491238
0.245349 0.166763 -0.491238
0.243716 0.166763 -0.491238
0.242084 0.166763 -0.491238
0.240452 0.166763 -0.491238
0.238819 0.166763 -0.491238
0.237187 0.166763 -0.491238
0.235555 0.166763 -0.491238
0.233922 0.166763 -0.491238
0.232290 0.166763 -0.491238
0.230658 0.166763 -0.491238
0.229025 0.166763 -0.491238
0.227199 0.166621 -0.492472
0.225568 0.166621 -0.492472
0.223937 0.166621 -0.492472
0.222306 0.166621 -0.492472
0.220675 0.166621 -0.492472
0.219044 0.166621 -0.492472
0.217413 0.166621 -0.492472
0.215782 0.166621 -0.492472
0.214151 0.166621 -0.492472
0.212520 0.166621 -0.492472
0.210889 0.166621 -0.492472
0.209259 0.166621 -0.492472
0.207628 0.166621 -0.492472
0.205997 0.166621 -0.492472
0.204191 0.166478 -0.493704
0.202562 0.166478 -0.493704
0.201104 0.166621 -0.492472
0.199473 0.166621 -0.492472
0.197842 0.166621 -0.492472
0.196211 0.166621 -0.492472
0.194580 0.166621 -0.492472
0.192949 0.166621 -0.492472
0.191318 0.166621 -0.492472
0.189687 0.166621 -0.492472
0.188056 0.166621 -0.492472
0.186425 0.166621 -0.492472
0.184794 0.166621 -0.492472
0.183163 0.166621 -0.492472
0.181532 0.166621 -0.492472
0.179902 0.166621 -0.492472
0.178271 0.166621 -0.492472
0.176640 0.166621 -0.492472
0.175158 0.166763 -0.491238
0.173526 0.166763 -0.491238
0.171894 0.166763 -0.491238
0.170261 0.166763 -0.491238
0.168629 0.166763 -0.491238
0.166997 0.166763 -0.491238
0.165364 0.166763 -0.491238
0.163732 0.166763 -0.491238
0.162100 0.166763 -0.491238
0.160467 0.166763 -0.491238
0.158835 0.166763 -0.491238
0.157203 0.166763 -0.491238
0.155570 0.166763 -0.491238
0.153938 0.166763 -0.491238
0.152306 0.166763 -0.491238
0.150673 0.166763 -0.491238
0.149041 0.166763 -0.491238
0.147409 0.166763 -0.491238
0.145776 0.166763 -0.491238
0.144144 0.166763 -0.491238
0.142512 0.166763 -0.491238
0.140879 0.166763 -0.491238
0.139247 0.166763 -0.491238
0.137615 0.166763 -0.491238
0.135982 0.166763 -0.491238
0.134350 0.166763 -0.491238
0.132718 0.166763 -0.491238
0.131085 0.166763 -0.491238
0.129453 0.166763 -0.491238
0.127821 0.166763 -0.491238
0.126188 0.166763 -0.491238
0.124556 0.166763 -0.491238
0.122924 0.166763 -0.491238
0.121291 0.166763 -0.491238
0.119659 0.166763 -0.491238
0.118027 0.166763 -0.491238
0.116394 0.166763 -0.491238
0.114762 0.166763 -0.491238
0.113130 0.166763 -0.491238
0.111497 0.166763 -0.491238
0.109865 0.166763 -0.491238
0.108233 0.166763 -0.491238
0.106600 0.166763 -0.491238
0.104968 0.166763 -0.491238
0.103424 0.166906 -0.490002
0.101790 0.166906 -0.490002
0.100157 0.166906 -0.490002
0.098523 0.166906 -0.490002
0.096889 0.166906 -0.490002
0.095255 0.166906 -0.490002
0.093622 0.166906 -0.490002
0.091988 0.166906 -0.490002
0.090354 0.166906 -0.490002
0.088720 0.166906 -0.490002
0.087087 0.166906 -0.490002
0.085453 0.166906 -0.490002
0.083819 0.166906 -0.490002
0.082186 0.166906 -0.490002
0.080552 0.166906 -0.490002
0.078918 0.166906 -0.490002
0.077284 0.166906 -0.490002
0.075651 0.166906 -0.490002
0.074017 0.166906 -0.490002
0.072383 0.166906 -0.490002
0.070749 0.166906 -0.490002
0.069116 0.166906 -0.490002
0.067482 0.166906 -0.490002
0.065848 0.166906 -0.490002
0.064215 0.166906 -0.490002
0.062581 0.166906 -0.490002
0.060947 0.166906 -0.490002
0.059313 0.166906 -0.490002
0.057680 0.166906 -0.490002
0.056046 0.166906 -0.490002
0.054412 0.166906 -0.490002
0.052778 0.166906 -0.490002
0.051145 0.166906 -0.490002
0.049511 0.166906 -0.490002
0.047877 0.166906 -0.490002
0.046243 0.166906 -0.490002
0.044610 0.166906 -0.490002
0.042976 0.166906 -0.490002
0.041342 0.166906 -0.490002
0.039709 0.166906 -0.490002
0.038075 0.166906 -0.490002
0.036441 0.166906 -0.490002
0.034807 0.166906 -0.490002
0.033174 0.166906 -0.490002
0.031540 0.166906 -0.490002
0.029906 0.166906 -0.490002
0.028272 0.166906 -0.490002
0.026639 0.166906 -0.490002
0.025005 0.166906 -0.490002
0.023371 0.166906 -0.490002
0.021738 0.166906 -0.490002
0.020104 0.166906 -0.490002
0.018470 0.166906 -0.490002
0.016836 0.166906 -0.490002
0.015203 0.166906 -0.490002
0.013569 0.166906 -0.490002
0.011935 0.166906 -0.490002
0.010301 0.166906 -0.490002
0.008668 0.166906 -0.490002
0.007034 0.166906 -0.490002
0.005400 0.166906 -0.490002
0.003767 0.166906 -0.490002
0.002133 0.166906 -0.490002
0.000499 0.166906 -0.490002
-0.001135 0.167049 -0.488764
-0.002770 0.167049 -0.488764
-0.004406 0.167049 -0.488764
-0.006041 0.167049 -0.488764
-0.007676 0.167049 -0.488764
-0.009311 0.167049 -0.488764
-0.010946 0.167049 -0.488764
-0.012581 0.167049 -0.488764
-0.014216 0.167049 -0.488764
-0.015851 0.167049 -0.488764
-0.017487 0.167049 -0.488764
-0.019122 0.167049 -0.488764
-0.020757 0.167049 -0.488764
-0.022392 0.167049 -0.488764
-0.024027 0.167049 -0.488764
-0.025662 0.167049 -0.488764
-0.027297 0.167049 -0.488764
-0.028933 0.167049 -0.488764
-0.030568 0.167049 -0.488764
-0.032203 0.167049 -0.488764
-0.033838 0.167049 -0.488764
-0.035473 0.167049 -0.488764
-0.037108 0.167049 -0.488764
-0.038743 0.167049 -0.488764
-0.040378 0.167049 -0.488764
-0.042014 0.167049 -0.488764
-0.043649 0.167049 -0.488764
-0.045284 0.167049 -0.488764
-0.046919 0.167049 -0.488764
-0.048554 0.167049 -0.488764
-0.050189 0.167049 -0.488764
-0.051824 0.167049 -0.488764
-0.053459 0.167049 -0.488764
-0.055095 0.167049 -0.488764
-0.056730 0.167049 -0.488764
-0.058365 0.167049 -0.488764
-0.060000 0.167049 -0.488764
-0.061635 0.167049 -0.488764
-0.063270 0.167049 -0.488764
-0.064905 0.167049 -0.488764
-0.066540 0.167049 -0.488764
-0.068176 0.167049 -0.488764
-0.069811 0.167049 -0.488764
-0.071446 0.167049 -0.488764
-0.073081 0.167049 -0.488764
-0.074716 0.167049 -0.488764
-0.076351 0.167049 -0.488764
-0.077986 0.167049 -0.488764
-0.079621 0.167049 -0.488764
-0.081257 0.167049 -0.488764
-0.082892 0.167049 -0.488764
-0.084527 0.167049 -0.488764
-0.086162 0.167049 -0.488764
-0.087797 0.167049 -0.488764
-0.089432 0.167049 -0.488764
-0.091067 0.167049 -0.488764
-0.092702 0.167049 -0.488764
-0.094338 0.167049 -0.488764
-0.095973 0.167049 -0.488764
-0.097608 0.167049 -0.488764
-0.099243 0.167049 -0.488764
-0.100878 0.167049 -0.488764
-0.102513 0.167049 -0.488764
-0.104148 0.167049 -0.488764
-0.105874 0.167193 -0.487523
-0.107510 0.167193 -0.487523
-0.109147 0.167193 -0.487523
-0.110783 0.167193 -0.487523
-0.112420 0.167193 -0.487523
-0.114056 0.167193 -0.487523
-0.115693 0.167193 -0.487523
-0.117329 0.167193 -0.487523
-0.118966 0.167193 -0.487523
-0.120602 0.167193 -0.487523
-0.122239 0.167193 -0.487523
-0.123875 0.167193 -0.487523
-0.125512 0.167193 -0.487523
-0.127148 0.167193 -0.487523
-0.128785 0.167193 -0.487523
-0.130422 0.167193 -0.487523
-0.132058 0.167193 -0.487523
-0.133695 0.167193 -0.487523
-0.135331 0.167193 -0.487523
-0.136968 0.167193 -0.487523
-0.138604 0.167193 -0.487523
-0.140241 0.167193 -0.487523
-0.141877 0.167193 -0.487523
-0.143514 0.167193 -0.487523
-0.145150 0.167193 -0.487523
-0.146787 0.167193 -0.487523
-0.148423 0.167193 -0.487523
-0.150060 0.167193 -0.487523
-0.151696 0.167193 -0.487523
-0.153333 0.167193 -0.487523
-0.154969 0.167193 -0.487523
-0.156606 0.167193 -0.487523
-0.158242 0.167193 -0.487523
-0.159879 0.167193 -0.487523
-0.161515 0.167193 -0.487523
-0.163152 0.167193 -0.487523
-0.164789 0.167193 -0.487523
-0.166425 0.167193 -0.487523
-0.168062 0.167193 -0.487523
-0.169698 0.167193 -0.487523
-0.171335 0.167193 -0.487523
-0.172971 0.167193 -0.487523
-0.174608 0.167193 -0.487523
-0.176244 0.167193 -0.487523
-0.177881 0.167193 -0.487523
-0.179517 0.167193 -0.487523
-0.181154 0.167193 -0.487523
-0.182790 0.167193 -0.487523
-0.184427 0.167193 -0.487523
-0.186063 0.167193 -0.487523
-0.187700 0.167193 -0.487523
-0.189336 0.167193 -0.487523
-0.190973 0.167193 -0.487523
-0.192609 0.167193 -0.487523
-0.194246 0.167193 -0.487523
-0.195883 0.167193 -0.487523
-0.197519 0.167193 -0.487523
-0.199156 0.167193 -0.487523
-0.200792 0.167193 -0.487523
-0.202429 0.167193 -0.487523
-0.204065 0.167193 -0.487523
-0.205702 0.167193 -0.487523
-0.207338 0.167193 -0.487523
-0.208975 0.167193 -0.487523
-0.210791 0.167336 -0.486281
-0.212429 0.167336 -0.486281
-0.214067 0.167336 -0.486281
-0.215705 0.167336 -0.486281
-0.217343 0.167336 -0.486281
-0.218981 0.167336 -0.486281
-0.220619 0.167336 -0.486281
-0.222257 0.167336 -0.486281
-0.223895 0.167336 -0.486281
-0.225533 0.167336 -0.486281
-0.227171 0.167336 -0.486281
-0.228808 0.167336 -0.486281
-0.230644 0.167480 -0.485036
-0.232283 0.167480 -0.485036
-0.233922 0.167480 -0.485036
-0.235562 0.167480 -0.485036
-0.237201 0.167480 -0.485036
-0.238840 0.167480 -0.485036
-0.240480 0.167480 -0.485036
-0.242119 0.167480 -0.485036
-0.243758 0.167480 -0.485036
-0.245608 0.167624 -0.483789
-0.247248 0.167624 -0.483789
-0.248889 0.167624 -0.483789
-0.250530 0.167624 -0.483789
-0.252171 0.167624 -0.483789
-0.253811 0.167624 -0.483789
-0.255452 0.167624 -0.483789
-0.257313 0.167768 -0.482540
-0.258734 0.167624 -0.483789
-0.260598 0.167768 -0.482540
-0.262465 0.167913 -0.481289
-0.263882 0.167768 -0.482540
-0.265524 0.167768 -0.482540
-0.267166 0.167768 -0.482540
-0.269039 0.167913 -0.481289
-0.270915 0.168058 -0.480036
-0.272560 0.168058 -0.480036
-0.274441 0.168203 -0.478781
-0.276087 0.168203 -0.478781
-0.277972 0.168348 -0.477523
-0.279620 0.168348 -0.477523
-0.281268 0.168348 -0.477523
-0.283159 0.168494 -0.476264
-0.284809 0.168494 -0.476264
-0.286458 0.168494 -0.476264
-0.288355 0.168640 -0.475002
-0.290006 0.168640 -0.475002
-0.291908 0.168786 -0.473737
-0.293307 0.168640 -0.475002
-0.295212 0.168786 -0.473737
-0.297121 0.168932 -0.472471
-0.298774 0.168932 -0.472471
-0.300687 0.169079 -0.471203
-0.302342 0.169079 -0.471203
-0.304260 0.169226 -0.469932
-0.305916 0.169226 -0.469932
-0.307839 0.169373 -0.468659
-0.309765 0.169520 -0.467384
-0.311424 0.169520 -0.467384
-0.313355 0.169668 -0.466107
-0.315289 0.169816 -0.464827
-0.317227 0.169964 -0.463546
-0.318890 0.169964 -0.463546
-0.320832 0.170112 -0.462262
-0.322778 0.170261 -0.460976
-0.324445 0.170261 -0.460976
-0.326395 0.170410 -0.459687
-0.328349 0.170559 -0.458396
-0.330018 0.170559 -0.458396
-0.331977 0.170709 -0.457103
-0.333648 0.170709 -0.457103
-0.335612 0.170858 -0.455808
-0.337579 0.171008 -0.454511
-0.339252 0.171008 -0.454511
-0.341224 0.171158 -0.453211
-0.343200 0.171309 -0.451909
-0.344877 0.171309 -0.451909
-0.346857 0.171460 -0.450605
-0.348535 0.171460 -0.450605
-0.350520 0.171611 -0.449298
-0.352509 0.171762 -0.447989
-0.354190 0.171762 -0.447989
-0.356184 0.171914 -0.446678
-0.358182 0.172065 -0.445365
-0.360182 0.172217 -0.444049
-0.362187 0.172370 -0.442731
-0.363874 0.172370 -0.442731
-0.365883 0.172522 -0.441410
-0.367896 0.172675 -0.440087
-0.369913 0.172828 -0.438762
-0.371933 0.172982 -0.437435
-0.373626 0.172982 -0.437435
-0.375651 0.173136 -0.436105
-0.377680 0.173290 -0.434773
-0.379712 0.173444 -0.433438
-0.381748 0.173598 -0.432101
-0.383788 0.173753 -0.430762
-0.385831 0.173908 -0.429420
-0.387878 0.174064 -0.428076
-0.389928 0.174219 -0.426730
-0.391982 0.174375 -0.425381
-0.394040 0.174531 -0.424030
-0.396102 0.174688 -0.422676
-0.398167 0.174845 -0.421320
-0.400236 0.175002 -0.419961
-0.402308 0.175159 -0.418600
-0.404385 0.175316 -0.417237
-0.406830 0.175632 -0.414503
-0.408916 0.175791 -0.413132
-0.411005 0.175950 -0.411759
-0.413099 0.176109 -0.410383
-0.415196 0.176268 -0.409005
-0.417674 0.176587 -0.406241
-0.419781 0.176748 -0.404855
-0.421892 0.176908 -0.403467
-0.424391 0.177230 -0.400683
-0.427286 0.177715 -0.396488
-0.430198 0.178202 -0.392270
-0.433125 0.178692 -0.388029
-0.436069 0.179185 -0.383765
-0.439029 0.179681 -0.379477
-0.442005 0.180179 -0.375166
-0.444587 0.180513 -0.372278
-0.447593 0.181016 -0.367927
-0.450197 0.181353 -0.365012
-0.453654 0.182030 -0.359151
0.490306 0.227359 0.052451
0.483518 0.225239 0.033927
0.479619 0.224454 0.027069
0.476849 0.224193 0.024794
0.473538 0.223674 0.020259
0.421195 0.199840 -0.187980
0.417496 0.199016 -0.195178
0.414252 0.198403 -0.200537
0.411027 0.197793 -0.205864
0.408239 0.197389 -0.209397
0.405461 0.196986 -0.212916
0.402695 0.196585 -0.216420
0.399940 0.196186 -0.219910
0.396795 0.195590 -0.225119
0.394066 0.195194 -0.228574
0.391348 0.194800 -0.232015
0.333938 0.166989 -0.475002
0.331428 0.166557 -0.478781
0.328932 0.166126 -0.482540
0.326728 0.165841 -0.485036
0.324810 0.165698 -0.486281
0.322896 0.165556 -0.487523
0.321535 0.165698 -0.486281
0.319623 0.165556 -0.487523
0.317986 0.165556 -0.487523
0.316350 0.165556 -0.487523
0.314444 0.165414 -0.488764
0.313077 0.165556 -0.487523
0.311440 0.165556 -0.487523
0.309804 0.165556 -0.487523
0.308167 0.165556 -0.487523
0.306268 0.165414 -0.488764
0.304633 0.165414 -0.488764
0.302998 0.165414 -0.488764
0.301363 0.165414 -0.488764
0.299728 0.165414 -0.488764
0.298093 0.165414 -0.488764
0.296458 0.165414 -0.488764
0.294822 0.165414 -0.488764
0.293187 0.165414 -0.488764
0.291552 0.165414 -0.488764
0.289917 0.165414 -0.488764
0.288282 0.165414 -0.488764
0.286647 0.165414 -0.488764
0.285012 0.165414 -0.488764
0.283377 0.165414 -0.488764
0.281741 0.165414 -0.488764
0.279867 0.165272 -0.490002
0.278233 0.165272 -0.490002
0.276599 0.165272 -0.490002
0.274966 0.165272 -0.490002
0.273332 0.165272 -0.490002
0.271698 0.165272 -0.490002
0.270064 0.165272 -0.490002
0.268431 0.165272 -0.490002
0.266797 0.165272 -0.490002
0.265163 0.165272 -0.490002
0.263530 0.165272 -0.490002
0.261896 0.165272 -0.490002
0.260262 0.165272 -0.490002
0.258628 0.165272 -0.490002
0.256995 0.165272 -0.490002
0.255361 0.165272 -0.490002
0.253510 0.165131 -0.491238
0.251878 0.165131 -0.491238
0.250246 0.165131 -0.491238
0.248613 0.165131 -0.491238
0.246981 0.165131 -0.491238
0.245349 0.165131 -0.491238
0.243716 0.165131 -0.491238
0.242084 0.165131 -0.491238
0.240452 0.165131 -0.491238
0.238819 0.165131 -0.491238
0.237187 0.165131 -0.491238
0.235555 0.165131 -0.491238
0.233922 0.165131 -0.491238
0.232290 0.165131 -0.491238
0.230658 0.165131 -0.491238
0.228830 0.164990 -0.492472
0.227199 0.164990 -0.492472
0.225568 0.164990 -0.492472
0.223937 0.164990 -0.492472
0.222306 0.164990 -0.492472
0.220675 0.164990 -0.492472
0.219044 0.164990 -0.492472
0.217413 0.164990 -0.492472
0.215782 0.164990 -0.492472
0.214151 0.164990 -0.492472
0.212520 0.164990 -0.492472
0.210889 0.164990 -0.492472
0.209259 0.164990 -0.492472
0.207628 0.164990 -0.492472
0.205997 0.164990 -0.492472
0.204191 0.164849 -0.493704
0.202562 0.164849 -0.493704
0.201104 0.164990 -0.492472
0.199473 0.164990 -0.492472
0.197842 0.164990 -0.492472
0.196211 0.164990 -0.492472
0.194580 0.164990 -0.492472
0.192949 0.164990 -0.492472
0.191318 0.164990 -0.492472
0.189687 0.164990 -0.492472
0.188056 0.164990 -0.492472
0.186425 0.164990 -0.492472
0.184794 0.164990 -0.492472
0.183163 0.164990 -0.492472
0.181532 0.164990 -0.492472
0.179902 0.164990 -0.492472
0.178271 0.164990 -0.492472
0.176640 0.164990 -0.492472
0.175158 0.165131 -0.491238
0.173526 0.165131 -0.491238
0.171894 0.165131 -0.491238
0.170261 0.165131 -0.491238
0.168629 0.165131 -0.491238
0.166997 0.165131 -0.491238
0.165364 0.165131 -0.491238
0.163732 0.165131 -0.491238
0.162100 0.165131 -0.491238
0.160467 0.165131 -0.491238
0.158835 0.165131 -0.491238
0.157203 0.165131 -0.491238
0.155570 0.165131 -0.491238
0.153938 0.165131 -0.491238
0.152306 0.165131 -0.491238
0.150673 0.165131 -0.491238
0.149041 0.165131 -0.491238
0.147409 0.165131 -0.491238
0.145776 0.165131 -0.491238
0.144144 0.165131 -0.491238
0.142512 0.165131 -0.491238
0.140879 0.165131 -0.491238
0.139247 0.165131 -0.491238
0.137615 0.165131 -0.491238
0.135982 0.165131 -0.491238
0.134350 0.165131 -0.491238
0.132718 0.165131 -0.491238
0.131085 0.165131 -0.491238
0.129453 0.165131 -0.491238
0.127821 0.165131 -0.491238
0.126188 0.165131 -0.491238
0.124556 0.165131 -0.491238
0.122924 0.165131 -0.491238
0.121291 0.165131 -0.491238
0.119659 0.165131 -0.491238
0.118027 0.165131 -0.491238
0.116394 0.165131 -0.491238
0.114762 0.165131 -0.491238
0.113130 0.165131 -0.491238
0.111497 0.165131 -0.491238
0.109865 0.165131 -0.491238
0.108233 0.165131 -0.491238
0.106600 0.165131 -0.491238
0.104968 0.165131 -0.491238
0.103424 0.165272 -0.490002
0.101790 0.165272 -0.490002
0.100157 0.165272 -0.490002
0.098523 0.165272 -0.490002
0.096889 0.165272 -0.490002
0.095255 0.165272 -0.490002
0.093622 0.165272 -0.490002
0.091988 0.165272 -0.490002
0.090354 0.165272 -0.490002
0.088720 0.165272 -0.490002
0.087087 0.165272 -0.490002
0.085453 0.165272 -0.490002
0.083819 0.165272 -0.490002
0.082186 0.165272 -0.490002
0.080552 0.165272 -0.490002
0.078918 0.165272 -0.490002
0.077284 0.165272 -0.490002
0.075651 0.165272 -0.490002
0.074017 0.165272 -0.490002
0.072383 0.165272 -0.490002
0.070749 0.165272 -0.490002
0.069116 0.165272 -0.490002
0.067482 0.165272 -0.490002
0.065848 0.165272 -0.490002
0.064215 0.165272 -0.490002
0.062581 0.165272 -0.490002
0.060947 0.165272 -0.490002
0.059313 0.165272 -0.490002
0.057680 0.165272 -0.490002
0.056046 0.165272 -0.490002
0.054412 0.165272 -0.490002
0.052778 0.165272 -0.490002
0.051145 0.165272 -0.490002
0.049511 0.165272 -0.490002
0.047877 0.165272 -0.490002
0.046243 0.165272 -0.490002
0.044610 0.165272 -0.490002
0.042976 0.165272 -0.490002
0.041342 0.165272 -0.490002
0.039709 0.165272 -0.490002
0.038075 0.165272 -0.490002
0.036441 0.165272 -0.490002
0.034807 0.165272 -0.490002
0.033174 0.165272 -0.490002
0.031540 0.165272 -0.490002
0.029906 0.165272 -0.490002
0.028272 0.165272 -0.490002
0.026639 0.165272 -0.490002
0.025005 0.165272 -0.490002
0.023371 0.165272 -0.490002
0.021738 0.165272 -0.490002
0.020104 0.165272 -0.490002
0.018470 0.165272 -0.490002
0.016836 0.165272 -0.490002
0.015203 0.165272 -0.490002
0.013569 0.165272 -0.490002
0.011935 0.165272 -0.490002
0.010301 0.165272 -0.490002
0.008668 0.165272 -0.490002
0.007034 0.165272 -0.490002
0.005400 0.165272 -0.490002
0.003767 0.165272 -0.490002
0.002133 0.165272 -0.490002
0.000499 0.165272 -0.490002
-0.001135 0.165414 -0.488764
-0.002770 0.165414 -0.488764
-0.004406 0.165414 -0.488764
-0.006041 0.165414 -0.488764
-0.007676 0.165414 -0.488764
-0.009311 0.165414 -0.488764
-0.010946 0.165414 -0.488764
-0.012581 0.165414 -0.488764
-0.014216 0.165414 -0.488764
-0.015851 0.165414 -0.488764
-0.017487 0.165414 -0.488764
-0.019122 0.165414 -0.488764
-0.020757 0.165414 -0.488764
-0.022392 0.165414 -0.488764
-0.024027 0.165414 -0.488764
-0.025662 0.165414 -0.488764
-0.027297 0.165414 -0.488764
-0.028933 0.165414 -0.488764
-0.030568 0.165414 -0.488764
-0.032203 0.165414 -0.488764
-0.033838 0.165414 -0.488764
-0.035473 0.165414 -0.488764
-0.037108 0.165414 -0.488764
-0.038743 0.165414 -0.488764
-0.040378 0.165414 -0.488764
-0.042014 0.165414 -0.488764
-0.043649 0.165414 -0.488764
-0.045284 0.165414 -0.488764
-0.046919 0.165414 -0.488764
-0.048554 0.165414 -0.488764
-0.050189 0.165414 -0.488764
-0.051824 0.165414 -0.488764
-0.053459 0.165414 -0.488764
-0.055095 0.165414 -0.488764
-0.056730 0.165414 -0.488764
-0.058365 0.165414 -0.488764
-0.060000 0.165414 -0.488764
-0.061635 0.165414 -0.488764
-0.063270 0.165414 -0.488764
-0.064905 0.165414 -0.488764
-0.066540 0.165414 -0.488764
-0.068176 0.165414 -0.488764
-0.069811 0.165414 -0.488764
-0.071446 0.165414 -0.488764
-0.073081 0.165414 -0.488764
-0.074716 0.165414 -0.488764
-0.076351 0.165414 -0.488764
-0.077986 0.165414 -0.488764
-0.079621 0.165414 -0.488764
-0.081257 0.165414 -0.488764
-0.082892 0.165414 -0.488764
-0.084527 0.165414 -0.488764
-0.086162 0.165414 -0.488764
-0.087797 0.165414 -0.488764
-0.089432 0.165414 -0.488764
-0.091067 0.165414 -0.488764
-0.092702 0.165414 -0.488764
-0.094338 0.165414 -0.488764
-0.095973 0.165414 -0.488764
-0.097608 0.165414 -0.488764
-0.099243 0.165414 -0.488764
-0.100878 0.165414 -0.488764
-0.102513 0.165414 -0.488764
-0.104148 0.165414 -0.488764
-0.105874 0.165556 -0.487523
-0.107510 0.165556 -0.487523
-0.109147 0.165556 -0.487523
-0.110783 0.165556 -0.487523
-0.112420 0.165556 -0.487523
-0.114056 0.165556 -0.487523
-0.115693 0.165556 -0.487523
-0.117329 0.165556 -0.487523
-0.118966 0.165556 -0.487523
-0.120602 0.165556 -0.487523
-0.122239 0.165556 -0.487523
-0.123875 0.165556 -0.487523
-0.125512 0.165556 -0.487523
-0.127148 0.165556 -0.487523
-0.128785 0.165556 -0.487523
-0.130422 0.165556 -0.487523
-0.132058 0.165556 -0.487523
-0.133695 0.165556 -0.487523
-0.135331 0.165556 -0.487523
-0.136968 0.165556 -0.487523
-0.138604 0.165556 -0.487523
-0.140241 0.165556 -0.487523
-0.141877 0.165556 -0.487523
-0.143514 0.165556 -0.487523
-0.145150 0.165556 -0.487523
-0.146787 0.165556 -0.487523
-0.148423 0.165556 -0.487523
-0.150060 0.165556 -0.487523
-0.151696 0.165556 -0.487523
-0.153333 0.165556 -0.487523
-0.154969 0.165556 -0.487523
-0.156606 0.165556 -0.487523
-0.158242 0.165556 -0.487523
-0.159879 0.165556 -0.487523
-0.161515 0.165556 -0.487523
-0.163152 0.165556 -0.487523
-0.164789 0.165556 -0.487523
-0.166425 0.165556 -0.487523
-0.168062 0.165556 -0.487523
-0.169698 0.165556 -0.487523
-0.171335 0.165556 -0.487523
-0.172971 0.165556 -0.487523
-0.174608 0.165556 -0.487523
-0.176244 0.165556 -0.487523
-0.177881 0.165556 -0.487523
-0.179517 0.165556 -0.487523
-0.181154 0.165556 -0.487523
-0.182790 0.165556 -0.487523
-0.184427 0.165556 -0.487523
-0.186063 0.165556 -0.487523
-0.187700 0.165556 -0.487523
-0.189336 0.165556 -0.487523
-0.190973 0.165556 -0.487523
-0.192609 0.165556 -0.487523
-0.194246 0.165556 -0.487523
-0.195883 0.165556 -0.487523
-0.197519 0.165556 -0.487523
-0.199156 0.165556 -0.487523
-0.200792 0.165556 -0.487523
-0.202429 0.165556 -0.487523
-0.204065 0.165556 -0.487523
-0.205702 0.165556 -0.487523
-0.207338 0.165556 -0.487523
-0.208975 0.165556 -0.487523
-0.210791 0.165698 -0.486281
-0.212429 0.165698 -0.486281
-0.214067 0.165698 -0.486281
-0.215705 0.165698 -0.486281
-0.217343 0.165698 -0.486281
-0.218981 0.165698 -0.486281
-0.220619 0.165698 -0.486281
-0.222257 0.165698 -0.486281
-0.223895 0.165698 -0.486281
-0.225533 0.165698 -0.486281
-0.227171 0.165698 -0.486281
-0.228808 0.165698 -0.486281
-0.230446 0.165698 -0.486281
-0.232283 0.165841 -0.485036
-0.233922 0.165841 -0.485036
-0.235562 0.165841 -0.485036
-0.237201 0.165841 -0.485036
-0.238840 0.165841 -0.485036
-0.240480 0.165841 -0.485036
-0.242119 0.165841 -0.485036
-0.243758 0.165841 -0.485036
-0.245608 0.165983 -0.483789
-0.247248 0.165983 -0.483789
-0.248889 0.165983 -0.483789
-0.250530 0.165983 -0.483789
-0.252171 0.165983 -0.483789
-0.253811 0.165983 -0.483789
-0.255452 0.165983 -0.483789
-0.257093 0.165983 -0.483789
-0.258955 0.166126 -0.482540
-0.260598 0.166126 -0.482540
-0.262240 0.166126 -0.482540
-0.263882 0.166126 -0.482540
-0.265524 0.166126 -0.482540
-0.267166 0.166126 -0.482540
-0.269039 0.166270 -0.481289
-0.270915 0.166413 -0.480036
-0.272560 0.166413 -0.480036
-0.274441 0.166557 -0.478781
-0.276087 0.166557 -0.478781
-0.277733 0.166557 -0.478781
-0.279620 0.166701 -0.477523
-0.281268 0.166701 -0.477523
-0.282916 0.166701 -0.477523
-0.284809 0.166845 -0.476264
-0.286458 0.166845 -0.476264
-0.288107 0.166845 -0.476264
-0.290006 0.166989 -0.475002
-0.291908 0.167134 -0.473737
-0.293307 0.166989 -0.475002
-0.295212 0.167134 -0.473737
-0.296864 0.167134 -0.473737
-0.298774 0.167279 -0.472471
-0.300428 0.167279 -0.472471
-0.302342 0.167424 -0.471203
-0.304260 0.167569 -0.469932
-0.305916 0.167569 -0.469932
-0.307839 0.167715 -0.468659
-0.309497 0.167715 -0.468659
-0.311424 0.167861 -0.467384
-0.313083 0.167861 -0.467384
-0.315289 0.168154 -0.464827
-0.316951 0.168154 -0.464827
-0.318890 0.168300 -0.463546
-0.320554 0.168300 -0.463546
-0.322497 0.168447 -0.462262
-0.324445 0.168595 -0.460976
-0.326111 0.168595 -0.460976
-0.328063 0.168742 -0.459687
-0.330018 0.168890 -0.458396
-0.331688 0.168890 -0.458396
-0.333648 0.169038 -0.457103
-0.335612 0.169186 -0.455808
-0.337284 0.169186 -0.455808
-0.339252 0.169334 -0.454511
-0.341224 0.169483 -0.453211
-0.342900 0.169483 -0.453211
-0.344877 0.169632 -0.451909
-0.346553 0.169632 -0.451909
-0.348535 0.169782 -0.450605
-0.350520 0.169931 -0.449298
-0.352200 0.169931 -0.449298
-0.354190 0.170081 -0.447989
-0.356184 0.170231 -0.446678
-0.357867 0.170231 -0.446678
-0.359866 0.170381 -0.445365
-0.361868 0.170532 -0.444049
-0.363874 0.170683 -0.442731
-0.365883 0.170834 -0.441410
-0.367572 0.170834 -0.441410
-0.369586 0.170985 -0.440087
-0.371604 0.171137 -0.438762
-0.373626 0.171289 -0.437435
-0.375651 0.171441 -0.436105
-0.377345 0.171441 -0.436105
-0.379376 0.171594 -0.434773
-0.381410 0.171746 -0.433438
-0.383447 0.171899 -0.432101
-0.385488 0.172053 -0.430762
-0.387533 0.172206 -0.429420
-0.389581 0.172360 -0.428076
-0.391633 0.172514 -0.426730
-0.393689 0.172669 -0.425381
-0.395748 0.172823 -0.424030
-0.397811 0.172978 -0.422676
-0.399878 0.173133 -0.421320
-0.401948 0.173289 -0.419961
-0.404023 0.173445 -0.418600
-0.406100 0.173601 -0.417237
-0.408548 0.173914 -0.414503
-0.410636 0.174070 -0.413132
-0.412727 0.174228 -0.411759
-0.414822 0.174385 -0.410383
-0.417297 0.174701 -0.407624
-0.419402 0.174859 -0.406241
-0.421511 0.175018 -0.404855
-0.424006 0.175336 -0.402076
-0.426511 0.175655 -0.399287
-0.429026 0.175975 -0.396488
-0.431942 0.176458 -0.392270
-0.435272 0.177106 -0.386611
-0.437823 0.177432 -0.383765
-0.440787 0.177922 -0.379477
-0.443769 0.178416 -0.375166
-0.446354 0.178746 -0.372278
-0.449364 0.179244 -0.367927
-0.452391 0.179745 -0.363551
-0.455860 0.180417 -0.357679
0.490306 0.225113 0.052451
0.483518 0.223014 0.033927
0.479619 0.222237 0.027069
0.476849 0.221979 0.024794
0.425366 0.198895 -0.178899
0.419032 0.196847 -0.196968
0.416212 0.196443 -0.200537
0.413404 0.196040 -0.204092
0.410189 0.195439 -0.209397
0.407407 0.195040 -0.212916
0.404637 0.194643 -0.216420
0.401878 0.194247 -0.219910
0.399131 0.193853 -0.223386
0.396394 0.193461 -0.226848
0.393669 0.193070 -0.230296
0.390954 0.192681 -0.233731
0.333650 0.165196 -0.476264
0.331143 0.164768 -0.480036
0.328650 0.164343 -0.483789
0.326728 0.164201 -0.485036
0.324810 0.164060 -0.486281
0.322896 0.163919 -0.487523
0.321535 0.164060 -0.486281
0.319623 0.163919 -0.487523
0.317986 0.163919 -0.487523
0.316350 0.163919 -0.487523
0.314444 0.163779 -0.488764
0.313077 0.163919 -0.487523
0.311440 0.163919 -0.487523
0.309804 0.163919 -0.487523
0.307903 0.163779 -0.488764
0.306268 0.163779 -0.488764
0.304633 0.163779 -0.488764
0.302998 0.163779 -0.488764
0.301363 0.163779 -0.488764
0.299728 0.163779 -0.488764
0.298093 0.163779 -0.488764
0.296458 0.163779 -0.488764
0.294822 0.163779 -0.488764
0.293187 0.163779 -0.488764
0.291552 0.163779 -0.488764
0.289917 0.163779 -0.488764
0.288282 0.163779 -0.488764
0.286647 0.163779 -0.488764
0.285012 0.163779 -0.488764
0.283377 0.163779 -0.488764
0.281501 0.163639 -0.490002
0.279867 0.163639 -0.490002
0.278233 0.163639 -0.490002
0.276599 0.163639 -0.490002
0.274966 0.163639 -0.490002
0.273332 0.163639 -0.490002
0.271698 0.163639 -0.490002
0.270064 0.163639 -0.490002
0.268431 0.163639 -0.490002
0.266797 0.163639 -0.490002
0.265163 0.163639 -0.490002
0.263530 0.163639 -0.490002
0.261896 0.163639 -0.490002
0.260262 0.163639 -0.490002
0.258628 0.163639 -0.490002
0.256995 0.163639 -0.490002
0.255143 0.163498 -0.491238
0.253510 0.163498 -0.491238
0.251878 0.163498 -0.491238
0.250246 0.163498 -0.491238
0.248613 0.163498 -0.491238
0.246981 0.163498 -0.491238
0.245349 0.163498 -0.491238
0.243716 0.163498 -0.491238
0.242084 0.163498 -0.491238
0.240452 0.163498 -0.491238
0.238819 0.163498 -0.491238
0.237187 0.163498 -0.491238
0.235555 0.163498 -0.491238
0.233922 0.163498 -0.491238
0.232290 0.163498 -0.491238
0.230461 0.163359 -0.492472
0.228830 0.163359 -0.492472
0.227199 0.163359 -0.492472
0.225568 0.163359 -0.492472
0.223937 0.163359 -0.492472
0.222306 0.163359 -0.492472
0.220675 0.163359 -0.492472
0.219044 0.163359 -0.492472
0.217413 0.163359 -0.492472
0.215782 0.163359 -0.492472
0.214151 0.163359 -0.492472
0.212520 0.163359 -0.492472
0.210889 0.163359 -0.492472
0.209259 0.163359 -0.492472
0.207628 0.163359 -0.492472
0.205821 0.163219 -0.493704
0.204191 0.163219 -0.493704
0.202735 0.163359 -0.492472
0.201104 0.163359 -0.492472
0.199473 0.163359 -0.492472
0.197842 0.163359 -0.492472
0.196211 0.163359 -0.492472
0.194580 0.163359 -0.492472
0.192949 0.163359 -0.492472
0.191318 0.163359 -0.492472
0.189687 0.163359 -0.492472
0.188056 0.163359 -0.492472
0.186425 0.163359 -0.492472
0.184794 0.163359 -0.492472
0.183163 0.163359 -0.492472
0.181532 0.163359 -0.492472
0.179902 0.163359 -0.492472
0.178271 0.163359 -0.492472
0.176791 0.163498 -0.491238
0.175158 0.163498 -0.491238
0.173526 0.163498 -0.491238
0.171894 0.163498 -0.491238
0.170261 0.163498 -0.491238
0.168629 0.163498 -0.491238
0.166997 0.163498 -0.491238
0.165364 0.163498 -0.491238
0.163732 0.163498 -0.491238
0.162100 0.163498 -0.491238
0.160467 0.163498 -0.491238
0.158835 0.163498 -0.491238
0.157203 0.163498 -0.491238
0.155570 0.163498 -0.491238
0.153938 0.163498 -0.491238
0.152306 0.163498 -0.491238
0.150673 0.163498 -0.491238
0.149041 0.163498 -0.491238
0.147409 0.163498 -0.491238
0.145776 0.163498 -0.491238
0.144144 0.163498 -0.491238
0.142512 0.163498 -0.491238
0.140879 0.163498 -0.491238
0.139247 0.163498 -0.491238
0.137615 0.163498 -0.491238
0.135982 0.163498 -0.491238
0.134350 0.163498 -0.491238
0.132718 0.163498 -0.491238
0.131085 0.163498 -0.491238
0.129453 0.163498 -0.491238
0.127821 0.163498 -0.491238
0.126188 0.163498 -0.491238
0.124556 0.163498 -0.491238
0.122924 0.163498 -0.491238
0.121291 0.163498 -0.491238
0.119659 0.163498 -0.491238
0.118027 0.163498 -0.491238
0.116394 0.163498 -0.491238
0.114762 0.163498 -0.491238
0.113130 0.163498 -0.491238
0.111497 0.163498 -0.491238
0.109865 0.163498 -0.491238
0.108233 0.163498 -0.491238
0.106600 0.163498 -0.491238
0.104968 0.163498 -0.491238
0.103424 0.163639 -0.490002
0.101790 0.163639 -0.490002
0.100157 0.163639 -0.490002
0.098523 0.163639 -0.490002
0.096889 0.163639 -0.490002
0.095255 0.163639 -0.490002
0.093622 0.163639 -0.490002
0.091988 0.163639 -0.490002
0.090354 0.163639 -0.490002
0.088720 0.163639 -0.490002
0.087087 0.163639 -0.490002
0.085453 0.163639 -0.490002
0.083819 0.163639 -0.490002
0.082186 0.163639 -0.490002
0.080552 0.163639 -0.490002
0.078918 0.163639 -0.490002
0.077284 0.163639 -0.490002
0.075651 0.163639 -0.490002
0.074017 0.163639 -0.490002
0.072383 0.163639 -0.490002
0.070749 0.163639 -0.490002
0.069116 0.163639 -0.490002
0.067482 0.163639 -0.490002
0.065848 0.163639 -0.490002
0.064215 0.163639 -0.490002
0.062581 0.163639 -0.490002
0.060947 0.163639 -0.490002
0.059313 0.163639 -0.490002
0.057680 0.163639 -0.490002
0.056046 0.163639 -0.490002
0.054412 0.163639 -0.490002
0.052778 0.163639 -0.490002
0.051145 0.163639 -0.490002
0.049511 0.163639 -0.490002
0.047877 0.163639 -0.490002
0.046243 0.163639 -0.490002
0.044610 0.163639 -0.490002
0.042976 0.163639 -0.490002
0.041342 0.163639 -0.490002
0.039709 0.163639 -0.490002
0.038075 0.163639 -0.490002
0.036441 0.163639 -0.490002
0.034807 0.163639 -0.490002
0.033174 0.163639 -0.490002
0.031540 0.163639 -0.490002
0.029906 0.163639 -0.490002
0.028272 0.163639 -0.490002
0.026639 0.163639 -0.490002
0.025005 0.163639 -0.490002
0.023371 0.163639 -0.490002
0.021738 0.163639 -0.490002
0.020104 0.163639 -0.490002
0.018470 0.163639 -0.490002
0.016836 0.163639 -0.490002
0.015203 0.163639 -0.490002
0.013569 0.163639 -0.490002
0.011935 0.163639 -0.490002
0.010301 0.163639 -0.490002
0.008668 0.163639 -0.490002
0.007034 0.163639 -0.490002
0.005400 0.163639 -0.490002
0.003767 0.163639 -0.490002
0.002133 0.163639 -0.490002
0.000499 0.163639 -0.490002
-0.001135 0.163779 -0.488764
-0.002770 0.163779 -0.488764
-0.004406 0.163779 -0.488764
-0.006041 0.163779 -0.488764
-0.007676 0.163779 -0.488764
-0.009311 0.163779 -0.488764
-0.010946 0.163779 -0.488764
-0.012581 0.163779 -0.488764
-0.014216 0.163779 -0.488764
-0.015851 0.163779 -0.488764
-0.017487 0.163779 -0.488764
-0.019122 0.163779 -0.488764
-0.020757 0.163779 -0.488764
-0.022392 0.163779 -0.488764
-0.024027 0.163779 -0.488764
-0.025662 0.163779 -0.488764
-0.027297 0.163779 -0.488764
-0.028933 0.163779 -0.488764
-0.030568 0.163779 -0.488764
-0.032203 0.163779 -0.488764
-0.033838 0.163779 -0.488764
-0.035473 0.163779 -0.488764
-0.037108 0.163779 -0.488764
-0.038743 0.163779 -0.488764
-0.040378 0.163779 -0.488764
-0.042014 0.163779 -0.488764
-0.043649 0.163779 -0.488764
-0.045284 0.163779 -0.488764
-0.046919 0.163779 -0.488764
-0.048554 0.163779 -0.488764
-0.050189 0.163779 -0.488764
-0.051824 0.163779 -0.488764
-0.053459 0.163779 -0.488764
-0.055095 0.163779 -0.488764
-0.056730 0.163779 -0.488764
-0.058365 0.163779 -0.488764
-0.060000 0.163779 -0.488764
-0.061635 0.163779 -0.488764
-0.063270 0.163779 -0.488764
-0.064905 0.163779 -0.488764
-0.066540 0.163779 -0.488764
-0.068176 0.163779 -0.488764
-0.069811 0.163779 -0.488764
-0.071446 0.163779 -0.488764
-0.073081 0.163779 -0.488764
-0.074716 0.163779 -0.488764
-0.076351 0.163779 -0.488764
-0.077986 0.163779 -0.488764
-0.079621 0.163779 -0.488764
-0.081257 0.163779 -0.488764
-0.082892 0.163779 -0.488764
