ply
format ascii 1.0
element vertex 1695
property float x
property float y
property float z
end_header
0.307397 -0.278817 0.411023
0.309299 -0.279002 0.412914
0.311009 -0.279094 0.413633
0.312901 -0.279278 0.415516
0.314786 -0.279462 0.417391
0.316665 -0.279644 0.419261
0.318538 -0.279826 0.421125
0.320405 -0.280008 0.422982
0.321914 -0.280008 0.422538
0.323598 -0.280098 0.423243
0.325279 -0.280189 0.423946
0.327129 -0.280369 0.425793
0.328803 -0.280459 0.426493
0.330474 -0.280549 0.427192
0.332143 -0.280639 0.427889
0.333809 -0.280728 0.428586
0.335472 -0.280817 0.429281
0.337132 -0.280907 0.429975
0.338951 -0.281085 0.431800
0.340445 -0.281085 0.431360
0.341939 -0.281085 0.430920
0.343591 -0.281173 0.431611
0.345084 -0.281173 0.431171
0.346731 -0.281262 0.431861
0.348376 -0.281351 0.432551
0.349866 -0.281351 0.432112
0.351507 -0.281439 0.432800
0.353145 -0.281527 0.433487
0.354633 -0.281527 0.433049
0.356268 -0.281615 0.433736
0.357899 -0.281703 0.434421
0.359385 -0.281703 0.433984
0.361013 -0.281791 0.434668
0.362498 -0.281791 0.434231
0.364121 -0.281878 0.434915
0.365743 -0.281966 0.435598
0.367225 -0.281966 0.435161
0.368707 -0.281966 0.434725
0.370190 -0.281966 0.434288
0.371672 -0.281966 0.433852
0.373154 -0.281966 0.433415
0.374637 -0.281966 0.432979
0.375990 -0.281878 0.431420
0.377474 -0.281878 0.430983
0.378957 -0.281878 0.430547
0.380441 -0.281878 0.430110
0.381924 -0.281878 0.429673
0.383408 -0.281878 0.429236
0.384892 -0.281878 0.428799
0.386133 -0.281703 0.426108
0.387619 -0.281703 0.425670
0.388986 -0.281615 0.424102
0.390355 -0.281527 0.422531
0.391726 -0.281439 0.420957
0.393100 -0.281351 0.419381
0.394476 -0.281262 0.417803
0.395740 -0.281085 0.415078
0.397121 -0.280996 0.413492
-0.091976 -0.228688 -0.167010
-0.088968 -0.228886 -0.165243
-0.086727 -0.228886 -0.165903
-0.083730 -0.229082 -0.164139
-0.080740 -0.229279 -0.162380
-0.077757 -0.229474 -0.160625
-0.075524 -0.229474 -0.161282
-0.072552 -0.229670 -0.159531
-0.069586 -0.229864 -0.157783
-0.065898 -0.230253 -0.153647
-0.062951 -0.230446 -0.151913
-0.060732 -0.230446 -0.152567
-0.057795 -0.230639 -0.150836
-0.054865 -0.230831 -0.149110
-0.051942 -0.231023 -0.147388
-0.049731 -0.231023 -0.148039
-0.046818 -0.231215 -0.146320
-0.043911 -0.231406 -0.144605
-0.041012 -0.231597 -0.142895
-0.038120 -0.231787 -0.141188
-0.035234 -0.231976 -0.139486
-0.032356 -0.232166 -0.137788
-0.030161 -0.232166 -0.138434
-0.027292 -0.232355 -0.136739
-0.024430 -0.232543 -0.135048
-0.021574 -0.232731 -0.133361
-0.019387 -0.232731 -0.134005
-0.016541 -0.232918 -0.132322
-0.015012 -0.232731 -0.135293
-0.012825 -0.232731 -0.135937
-0.010638 -0.232731 -0.136582
-0.008450 -0.232731 -0.137226
-0.006263 -0.232731 -0.137870
-0.004075 -0.232731 -0.138514
-0.001248 -0.232918 -0.136825
0.000937 -0.232918 -0.137468
0.003122 -0.232918 -0.138112
0.005306 -0.232918 -0.138755
0.006861 -0.232731 -0.141734
0.008420 -0.232543 -0.144721
0.010610 -0.232543 -0.145366
0.012800 -0.232543 -0.146011
0.014990 -0.232543 -0.146655
0.016560 -0.232355 -0.149651
0.018752 -0.232355 -0.150297
0.020945 -0.232355 -0.150943
0.023138 -0.232355 -0.151588
0.024719 -0.232166 -0.154594
0.026915 -0.232166 -0.155240
0.029110 -0.232166 -0.155887
0.031305 -0.232166 -0.156533
0.033500 -0.232166 -0.157180
0.035695 -0.232166 -0.157826
0.037294 -0.231976 -0.160843
0.039492 -0.231976 -0.161490
0.041690 -0.231976 -0.162137
0.043298 -0.231787 -0.165162
0.045498 -0.231787 -0.165810
0.047112 -0.231597 -0.168844
0.048144 -0.231215 -0.174282
0.049767 -0.231023 -0.177337
0.051395 -0.230831 -0.180399
0.053026 -0.230639 -0.183468
0.054078 -0.230253 -0.188975
0.054552 -0.229670 -0.196957
0.055028 -0.229082 -0.204998
0.055508 -0.228491 -0.213097
0.053622 -0.227093 -0.231340
0.286527 -0.277181 0.373869
0.289572 -0.277854 0.382021
0.292169 -0.278329 0.387654
0.294948 -0.278895 0.394442
0.297298 -0.279269 0.398779
0.299435 -0.279547 0.401899
0.301561 -0.279825 0.405003
0.303483 -0.280009 0.406914
0.305398 -0.280192 0.408818
0.307496 -0.280466 0.411887
0.309397 -0.280648 0.413775
0.311105 -0.280739 0.414493
0.312995 -0.280920 0.416373
0.314879 -0.281100 0.418246
0.316756 -0.281280 0.420112
0.318628 -0.281460 0.421973
0.320316 -0.281549 0.422679
0.322001 -0.281638 0.423384
0.323683 -0.281727 0.424087
0.325363 -0.281816 0.424789
0.327211 -0.281994 0.426633
0.328883 -0.282082 0.427332
0.330553 -0.282171 0.428029
0.332221 -0.282259 0.428726
0.333885 -0.282347 0.429421
0.335547 -0.282435 0.430115
0.337206 -0.282523 0.430808
0.338862 -0.282611 0.431499
0.340516 -0.282698 0.432190
0.342009 -0.282698 0.431750
0.343659 -0.282786 0.432440
0.345151 -0.282786 0.432001
0.346797 -0.282873 0.432690
0.348287 -0.282873 0.432251
0.349929 -0.282960 0.432939
0.351569 -0.283047 0.433627
0.353205 -0.283134 0.434313
0.354692 -0.283134 0.433875
0.356325 -0.283220 0.434560
0.357811 -0.283220 0.434123
0.359440 -0.283307 0.434807
0.361066 -0.283393 0.435491
0.362550 -0.283393 0.435054
0.364172 -0.283480 0.435736
0.365655 -0.283480 0.435300
0.367273 -0.283566 0.435982
0.368755 -0.283566 0.435546
0.370236 -0.283566 0.435110
0.371717 -0.283566 0.434673
0.373198 -0.283566 0.434237
0.374549 -0.283480 0.432681
0.376031 -0.283480 0.432244
0.377514 -0.283480 0.431808
0.378996 -0.283480 0.431371
0.380479 -0.283480 0.430935
0.381961 -0.283480 0.430498
0.383443 -0.283480 0.430062
0.384804 -0.283393 0.428501
0.386166 -0.283307 0.426937
0.387651 -0.283307 0.426500
0.389017 -0.283220 0.424934
0.390385 -0.283134 0.423365
0.391755 -0.283047 0.421793
0.393128 -0.282960 0.420219
0.394503 -0.282873 0.418643
0.395766 -0.282698 0.415921
0.397146 -0.282611 0.414337
-0.077897 -0.231174 -0.168993
-0.074910 -0.231368 -0.167225
-0.071931 -0.231561 -0.165462
-0.069696 -0.231561 -0.166120
-0.066726 -0.231754 -0.164361
-0.063764 -0.231947 -0.162605
-0.060809 -0.232139 -0.160854
-0.058582 -0.232139 -0.161510
-0.054920 -0.232521 -0.157365
-0.051987 -0.232712 -0.155626
-0.049060 -0.232902 -0.153892
-0.046141 -0.233092 -0.152162
-0.043927 -0.233092 -0.152814
-0.041017 -0.233281 -0.151088
-0.038115 -0.233470 -0.149365
-0.035219 -0.233658 -0.147647
-0.032330 -0.233846 -0.145933
-0.030127 -0.233846 -0.146581
-0.027248 -0.234034 -0.144870
-0.024375 -0.234221 -0.143164
-0.021510 -0.234407 -0.141461
-0.018651 -0.234594 -0.139762
-0.016459 -0.234594 -0.140408
-0.014266 -0.234594 -0.141054
-0.012073 -0.234594 -0.141699
-0.009881 -0.234594 -0.142345
-0.007688 -0.234594 -0.142990
-0.005496 -0.234594 -0.143636
-0.002660 -0.234779 -0.141937
-0.000470 -0.234779 -0.142582
0.001720 -0.234779 -0.143227
0.003275 -0.234594 -0.146219
0.005467 -0.234594 -0.146864
0.007660 -0.234594 -0.147510
0.009852 -0.234594 -0.148155
0.011418 -0.234407 -0.151157
0.013613 -0.234407 -0.151803
0.015809 -0.234407 -0.152450
0.018004 -0.234407 -0.153096
0.019581 -0.234221 -0.156107
0.021779 -0.234221 -0.156754
0.023977 -0.234221 -0.157402
0.026175 -0.234221 -0.158049
0.027764 -0.234034 -0.161069
0.029357 -0.233846 -0.164097
0.031560 -0.233846 -0.164746
0.033763 -0.233846 -0.165394
0.035365 -0.233658 -0.168431
0.037571 -0.233658 -0.169080
0.039777 -0.233658 -0.169730
0.041388 -0.233470 -0.172775
0.043597 -0.233470 -0.173426
0.045214 -0.233281 -0.176479
0.046836 -0.233092 -0.179540
0.048462 -0.232902 -0.182608
0.048322 -0.232139 -0.192989
0.049369 -0.231754 -0.198546
0.050420 -0.231368 -0.204130
0.050883 -0.230784 -0.212226
0.051350 -0.230197 -0.220382
0.050623 -0.229208 -0.233665
0.286647 -0.278879 0.374790
0.289898 -0.279635 0.384150
0.292490 -0.280103 0.389765
0.295262 -0.280658 0.396531
0.297607 -0.281025 0.400853
0.299740 -0.281299 0.403963
0.301666 -0.281481 0.405877
0.303586 -0.281662 0.407784
0.305499 -0.281843 0.409686
0.307406 -0.282023 0.411581
0.309307 -0.282202 0.413470
0.311202 -0.282381 0.415352
0.313090 -0.282559 0.417228
0.314972 -0.282737 0.419098
0.316848 -0.282914 0.420962
0.318538 -0.283002 0.421669
0.320404 -0.283178 0.423524
0.322263 -0.283354 0.425373
0.323942 -0.283441 0.426074
0.325619 -0.283529 0.426774
0.327293 -0.283616 0.427472
0.328964 -0.283703 0.428170
0.330632 -0.283790 0.428866
0.332298 -0.283877 0.429561
0.333961 -0.283964 0.430255
0.335622 -0.284050 0.430947
0.337279 -0.284137 0.431639
0.338934 -0.284223 0.432330
0.340586 -0.284309 0.433019
0.342078 -0.284309 0.432580
0.343727 -0.284395 0.433268
0.345217 -0.284395 0.432829
0.346862 -0.284481 0.433517
0.348352 -0.284481 0.433078
0.349992 -0.284567 0.433766
0.351630 -0.284652 0.434452
0.353265 -0.284738 0.435136
0.354751 -0.284738 0.434699
0.356383 -0.284823 0.435383
0.357867 -0.284823 0.434946
0.359495 -0.284908 0.435629
0.360979 -0.284908 0.435192
0.362462 -0.284908 0.434756
0.364085 -0.284993 0.435438
0.365567 -0.284993 0.435002
0.367322 -0.285163 0.436801
0.368667 -0.285078 0.435248
0.370148 -0.285078 0.434812
0.371629 -0.285078 0.434376
0.373111 -0.285078 0.433940
0.374592 -0.285078 0.433503
0.376073 -0.285078 0.433067
0.377554 -0.285078 0.432631
0.379035 -0.285078 0.432195
0.380516 -0.285078 0.431759
0.381873 -0.284993 0.430200
0.383356 -0.284993 0.429764
0.384960 -0.285078 0.430450
0.386320 -0.284993 0.428891
0.387563 -0.284823 0.426202
0.388929 -0.284738 0.424635
0.390297 -0.284652 0.423066
0.391667 -0.284567 0.421494
0.393040 -0.284481 0.419920
0.394414 -0.284395 0.418343
0.395905 -0.284395 0.417904
0.397283 -0.284309 0.416324
-0.060887 -0.233844 -0.169203
-0.057928 -0.234034 -0.167439
-0.054977 -0.234224 -0.165680
-0.052747 -0.234224 -0.166337
-0.049805 -0.234413 -0.164581
-0.046165 -0.234790 -0.160428
-0.043943 -0.234790 -0.161083
-0.041023 -0.234978 -0.159340
-0.038109 -0.235166 -0.157601
-0.035203 -0.235353 -0.155867
-0.032990 -0.235353 -0.156519
-0.030093 -0.235539 -0.154787
-0.027203 -0.235725 -0.153060
-0.024321 -0.235911 -0.151338
-0.021445 -0.236096 -0.149619
-0.018576 -0.236281 -0.147905
-0.016376 -0.236281 -0.148553
-0.013516 -0.236465 -0.146841
-0.010664 -0.236649 -0.145134
-0.008469 -0.236649 -0.145781
-0.006273 -0.236649 -0.146427
-0.004078 -0.236649 -0.147074
-0.001883 -0.236649 -0.147720
-0.000329 -0.236465 -0.150724
0.001869 -0.236465 -0.151372
0.004066 -0.236465 -0.152019
0.006264 -0.236465 -0.152666
0.008462 -0.236465 -0.153313
0.010030 -0.236281 -0.156328
0.012230 -0.236281 -0.156976
0.014431 -0.236281 -0.157624
0.016631 -0.236281 -0.158272
0.018211 -0.236096 -0.161296
0.020414 -0.236096 -0.161945
0.022617 -0.236096 -0.162594
0.024206 -0.235911 -0.165627
0.026412 -0.235911 -0.166276
0.028007 -0.235725 -0.169318
0.030215 -0.235725 -0.169968
0.031817 -0.235539 -0.173017
0.034028 -0.235539 -0.173668
0.036239 -0.235539 -0.174319
0.037850 -0.235353 -0.177378
0.040064 -0.235353 -0.178030
0.041681 -0.235166 -0.181096
0.043303 -0.234978 -0.184170
0.043138 -0.234224 -0.194571
0.044173 -0.233844 -0.200138
0.044613 -0.233270 -0.208210
0.045657 -0.232886 -0.213845
0.046707 -0.232499 -0.219508
0.047160 -0.231916 -0.227721
0.286767 -0.280575 0.375710
0.290015 -0.281319 0.385056
0.292604 -0.281778 0.390662
0.295373 -0.282325 0.397418
0.297716 -0.282686 0.401733
0.299846 -0.282956 0.404838
0.301771 -0.283135 0.406749
0.303689 -0.283313 0.408654
0.305600 -0.283491 0.410552
0.307506 -0.283668 0.412444
0.309405 -0.283844 0.414330
0.311298 -0.284020 0.416209
0.313184 -0.284196 0.418082
0.315064 -0.284370 0.419950
0.316938 -0.284544 0.421811
0.318628 -0.284631 0.422517
0.320491 -0.284805 0.424369
0.322349 -0.284977 0.426215
0.324027 -0.285064 0.426914
0.325702 -0.285150 0.427613
0.327375 -0.285236 0.428310
0.329044 -0.285321 0.429006
0.330711 -0.285407 0.429701
0.332376 -0.285492 0.430395
0.333873 -0.285492 0.429954
0.335696 -0.285663 0.431779
0.337352 -0.285748 0.432469
0.339006 -0.285833 0.433158
0.340498 -0.285833 0.432719
0.342148 -0.285918 0.433407
0.343795 -0.286002 0.434095
0.345284 -0.286002 0.433656
0.346927 -0.286087 0.434343
0.348416 -0.286087 0.433905
0.350055 -0.286171 0.434591
0.351542 -0.286171 0.434153
0.353325 -0.286339 0.435959
0.354810 -0.286339 0.435522
0.356440 -0.286423 0.436205
0.357924 -0.286423 0.435768
0.359550 -0.286507 0.436450
0.361032 -0.286507 0.436013
0.362515 -0.286507 0.435577
0.364136 -0.286591 0.436259
0.365617 -0.286591 0.435823
0.367234 -0.286674 0.436504
0.368714 -0.286674 0.436068
0.370194 -0.286674 0.435632
0.371674 -0.286674 0.435196
0.373154 -0.286674 0.434760
0.374634 -0.286674 0.434325
0.376114 -0.286674 0.433889
0.377594 -0.286674 0.433453
0.379074 -0.286674 0.433017
0.380429 -0.286591 0.431461
0.381910 -0.286591 0.431025
0.383391 -0.286591 0.430589
0.384994 -0.286674 0.431274
0.386354 -0.286591 0.429716
0.387715 -0.286507 0.428156
0.388960 -0.286339 0.425466
0.390327 -0.286255 0.423899
0.391696 -0.286171 0.422329
0.393067 -0.286087 0.420757
0.394441 -0.286002 0.419182
0.395931 -0.286002 0.418743
0.397308 -0.285918 0.417165
-0.047607 -0.236126 -0.173601
-0.044665 -0.236314 -0.171833
-0.041729 -0.236501 -0.170068
-0.038801 -0.236687 -0.168308
-0.035187 -0.237059 -0.164146
-0.032278 -0.237244 -0.162400
-0.029375 -0.237429 -0.160657
-0.027159 -0.237429 -0.161310
-0.024266 -0.237613 -0.159571
-0.021380 -0.237797 -0.157836
-0.019168 -0.237797 -0.158487
-0.016292 -0.237980 -0.156756
-0.013422 -0.238163 -0.155029
-0.010560 -0.238346 -0.153306
-0.007704 -0.238528 -0.151587
-0.005504 -0.238528 -0.152235
-0.003303 -0.238528 -0.152883
-0.001103 -0.238528 -0.153531
0.000456 -0.238346 -0.156549
0.002659 -0.238346 -0.157198
0.004862 -0.238346 -0.157847
0.007065 -0.238346 -0.158496
0.008635 -0.238163 -0.161524
0.010841 -0.238163 -0.162173
0.013047 -0.238163 -0.162823
0.014626 -0.237980 -0.165860
0.016834 -0.237980 -0.166510
0.019043 -0.237980 -0.167160
0.020631 -0.237797 -0.170207
0.022842 -0.237797 -0.170858
0.025053 -0.237797 -0.171509
0.026650 -0.237613 -0.174564
0.028252 -0.237429 -0.177626
0.030468 -0.237429 -0.178278
0.032685 -0.237429 -0.178931
0.034295 -0.237244 -0.182002
0.036514 -0.237244 -0.182656
0.038131 -0.237059 -0.185735
0.037941 -0.236314 -0.196157
0.038965 -0.235939 -0.201735
0.039386 -0.235372 -0.209822
0.040419 -0.234992 -0.215468
0.041457 -0.234610 -0.221142
0.041891 -0.234034 -0.229371
0.042940 -0.233648 -0.235114
0.287100 -0.282359 0.377859
0.290131 -0.282999 0.385960
0.292717 -0.283451 0.391557
0.295484 -0.283989 0.398303
0.297824 -0.284345 0.402612
0.299953 -0.284610 0.405712
0.301875 -0.284786 0.407620
0.303792 -0.284961 0.409522
0.305702 -0.285136 0.411417
0.307605 -0.285310 0.413306
0.309502 -0.285484 0.415189
0.311393 -0.285657 0.417065
0.313278 -0.285829 0.418935
0.315157 -0.286001 0.420800
0.317029 -0.286173 0.422658
0.318717 -0.286258 0.423362
0.320579 -0.286429 0.425211
0.322260 -0.286514 0.425912
0.324111 -0.286683 0.427753
0.325785 -0.286768 0.428450
0.327456 -0.286852 0.429146
0.329125 -0.286937 0.429841
0.330790 -0.287021 0.430534
0.332453 -0.287105 0.431227
0.334113 -0.287189 0.431918
0.335608 -0.287189 0.431478
0.337426 -0.287356 0.433298
0.339078 -0.287440 0.433986
0.340569 -0.287440 0.433547
0.342217 -0.287523 0.434234
0.343706 -0.287523 0.433795
0.345351 -0.287607 0.434482
0.346992 -0.287690 0.435167
0.348480 -0.287690 0.434729
0.350117 -0.287773 0.435414
0.351603 -0.287773 0.434977
0.353385 -0.287938 0.436780
0.354869 -0.287938 0.436343
0.356497 -0.288021 0.437025
0.357980 -0.288021 0.436588
0.359604 -0.288103 0.437269
0.361086 -0.288103 0.436833
0.362567 -0.288103 0.436397
0.364187 -0.288186 0.437078
0.365667 -0.288186 0.436642
0.367283 -0.288268 0.437322
0.368762 -0.288268 0.436886
0.370240 -0.288268 0.436451
0.371719 -0.288268 0.436015
0.373198 -0.288268 0.435580
0.374677 -0.288268 0.435144
0.376156 -0.288268 0.434709
0.377634 -0.288268 0.434274
0.378987 -0.288186 0.432720
0.380467 -0.288186 0.432284
0.381947 -0.288186 0.431848
0.383427 -0.288186 0.431412
0.385028 -0.288268 0.432096
0.386387 -0.288186 0.430541
0.387747 -0.288103 0.428983
0.388991 -0.287938 0.426296
0.390357 -0.287856 0.424730
0.391725 -0.287773 0.423162
0.393095 -0.287690 0.421592
0.394468 -0.287607 0.420019
0.395842 -0.287523 0.418444
0.397332 -0.287523 0.418005
-0.030712 -0.238778 -0.173799
-0.027797 -0.238962 -0.172035
-0.025570 -0.238962 -0.172690
-0.021988 -0.239328 -0.168518
-0.019095 -0.239510 -0.166766
-0.016208 -0.239692 -0.165019
-0.013328 -0.239874 -0.163275
-0.010455 -0.240055 -0.161536
-0.007589 -0.240236 -0.159801
-0.005381 -0.240236 -0.160451
-0.003172 -0.240236 -0.161102
-0.001611 -0.240055 -0.164140
0.000600 -0.240055 -0.164791
0.002811 -0.240055 -0.165442
0.005022 -0.240055 -0.166094
0.006596 -0.239874 -0.169142
0.009445 -0.240055 -0.167396
0.011023 -0.239874 -0.170446
0.013237 -0.239874 -0.171098
0.015451 -0.239874 -0.171749
0.017038 -0.239692 -0.174808
0.019255 -0.239692 -0.175461
0.021471 -0.239692 -0.176113
0.023068 -0.239510 -0.179181
0.024669 -0.239328 -0.182257
0.026891 -0.239328 -0.182911
0.029113 -0.239328 -0.183565
0.030110 -0.238962 -0.189086
0.032337 -0.238962 -0.189742
0.032732 -0.238409 -0.197746
0.033744 -0.238038 -0.203335
0.034146 -0.237479 -0.211438
0.035168 -0.237104 -0.217095
0.036194 -0.236727 -0.222779
0.036609 -0.236158 -0.231025
0.287219 -0.284047 0.378773
0.290247 -0.284677 0.386862
0.293036 -0.285210 0.393654
0.295594 -0.285650 0.399187
0.297933 -0.286000 0.403489
0.300059 -0.286261 0.406584
0.301980 -0.286434 0.408489
0.303894 -0.286606 0.410388
0.305802 -0.286778 0.412280
0.307704 -0.286950 0.414166
0.309600 -0.287120 0.416046
0.311489 -0.287291 0.417919
0.313372 -0.287460 0.419787
0.315249 -0.287629 0.421648
0.316940 -0.287714 0.422354
0.318806 -0.287882 0.424207
0.320667 -0.288050 0.426053
0.322346 -0.288133 0.426752
0.324023 -0.288217 0.427451
0.325868 -0.288383 0.429286
0.327538 -0.288467 0.429981
0.329205 -0.288550 0.430674
0.330869 -0.288632 0.431367
0.332530 -0.288715 0.432058
0.334189 -0.288798 0.432748
0.335682 -0.288798 0.432308
0.337499 -0.288962 0.434125
0.339149 -0.289045 0.434812
0.340639 -0.289045 0.434373
0.342286 -0.289127 0.435059
0.343774 -0.289127 0.434621
0.345417 -0.289208 0.435306
0.346904 -0.289208 0.434868
0.348543 -0.289290 0.435553
0.350180 -0.289372 0.436236
0.351665 -0.289372 0.435799
0.353297 -0.289453 0.436482
0.354927 -0.289535 0.437163
0.356554 -0.289616 0.437844
0.358036 -0.289616 0.437408
0.359659 -0.289697 0.438088
0.360998 -0.289616 0.436535
0.362619 -0.289697 0.437216
0.364238 -0.289778 0.437895
0.365716 -0.289778 0.437460
0.367331 -0.289859 0.438138
0.368809 -0.289859 0.437703
0.370286 -0.289859 0.437268
0.371764 -0.289859 0.436833
0.373242 -0.289859 0.436398
0.374719 -0.289859 0.435963
0.376197 -0.289859 0.435528
0.377547 -0.289778 0.433976
0.379026 -0.289778 0.433541
0.380504 -0.289778 0.433105
0.381983 -0.289778 0.432670
0.383462 -0.289778 0.432234
0.385062 -0.289859 0.432917
0.386420 -0.289778 0.431364
0.387779 -0.289697 0.429807
0.389141 -0.289616 0.428249
0.390387 -0.289453 0.425561
0.391754 -0.289372 0.423995
0.393123 -0.289290 0.422426
0.394494 -0.289208 0.420855
0.395868 -0.289127 0.419282
0.397244 -0.289045 0.417705
-0.014566 -0.241236 -0.176417
-0.011011 -0.241597 -0.172236
-0.008130 -0.241776 -0.170480
-0.005911 -0.241776 -0.171133
-0.004346 -0.241597 -0.174199
-0.002124 -0.241597 -0.174853
0.000098 -0.241597 -0.175507
0.002320 -0.241597 -0.176161
0.003252 -0.241236 -0.181664
0.005479 -0.241236 -0.182320
0.007706 -0.241236 -0.182975
0.009933 -0.241236 -0.183631
0.011524 -0.241055 -0.186723
0.013754 -0.241055 -0.187380
0.015351 -0.240874 -0.190480
0.016952 -0.240692 -0.193588
0.018557 -0.240509 -0.196703
0.020795 -0.240509 -0.197362
0.022407 -0.240327 -0.200486
0.024648 -0.240327 -0.201146
0.026266 -0.240143 -0.204278
0.027889 -0.239960 -0.207418
0.028894 -0.239591 -0.213058
0.029280 -0.239035 -0.221237
0.030295 -0.238661 -0.226946
0.287338 -0.285733 0.379687
0.290363 -0.286351 0.387763
0.293149 -0.286876 0.394545
0.295705 -0.287309 0.400069
0.298041 -0.287653 0.404365
0.300165 -0.287909 0.407455
0.302084 -0.288079 0.409357
0.303997 -0.288249 0.411253
0.305903 -0.288418 0.413142
0.307803 -0.288586 0.415025
0.309697 -0.288754 0.416902
0.311585 -0.288922 0.418772
0.313466 -0.289089 0.420637
0.315341 -0.289255 0.422495
0.317031 -0.289338 0.423200
0.318895 -0.289503 0.425049
0.320754 -0.289668 0.426893
0.322432 -0.289750 0.427591
0.324107 -0.289833 0.428288
0.325779 -0.289915 0.428985
0.327619 -0.290078 0.430814
0.329285 -0.290160 0.431506
0.330947 -0.290241 0.432198
0.332608 -0.290322 0.432888
0.334265 -0.290404 0.433576
0.335757 -0.290404 0.433137
0.337410 -0.290485 0.433825
0.339061 -0.290566 0.434512
0.340709 -0.290646 0.435198
0.342355 -0.290727 0.435883
0.343842 -0.290727 0.435445
0.345483 -0.290808 0.436129
0.346969 -0.290808 0.435692
0.348607 -0.290888 0.436375
0.350092 -0.290888 0.435938
0.351726 -0.290968 0.436620
0.353357 -0.291049 0.437302
0.354986 -0.291129 0.437982
0.356467 -0.291129 0.437546
0.358092 -0.291208 0.438226
0.359572 -0.291208 0.437790
0.361051 -0.291208 0.437354
0.362671 -0.291288 0.438033
0.364150 -0.291288 0.437598
0.365766 -0.291368 0.438276
0.367379 -0.291447 0.438954
0.368856 -0.291447 0.438519
0.370332 -0.291447 0.438084
0.371809 -0.291447 0.437650
0.373285 -0.291447 0.437215
0.374761 -0.291447 0.436780
0.376109 -0.291368 0.435231
0.377587 -0.291368 0.434796
0.379065 -0.291368 0.434361
0.380542 -0.291368 0.433925
0.382020 -0.291368 0.433490
0.383497 -0.291368 0.433055
0.384853 -0.291288 0.431502
0.386332 -0.291288 0.431066
0.387811 -0.291288 0.430631
0.389171 -0.291208 0.429074
0.390417 -0.291049 0.426389
0.391782 -0.290968 0.424825
0.393151 -0.290888 0.423259
0.394521 -0.290808 0.421690
0.395893 -0.290727 0.420118
0.287669 -0.287502 0.381822
0.290687 -0.288110 0.389872
0.293465 -0.288624 0.396632
0.296016 -0.289049 0.402138
0.298149 -0.289303 0.405239
0.300271 -0.289555 0.408325
0.302188 -0.289722 0.410224
0.304099 -0.289889 0.412116
0.306004 -0.290055 0.414003
0.307902 -0.290220 0.415882
0.309794 -0.290386 0.417756
0.311680 -0.290550 0.419624
0.313560 -0.290714 0.421485
0.315433 -0.290878 0.423341
0.317121 -0.290959 0.424044
0.318984 -0.291122 0.425891
0.320841 -0.291284 0.427732
0.322518 -0.291365 0.428429
0.324191 -0.291446 0.429125
0.325862 -0.291526 0.429819
0.327531 -0.291607 0.430513
0.329365 -0.291767 0.432337
0.331026 -0.291847 0.433027
0.332685 -0.291927 0.433716
0.334341 -0.292007 0.434404
0.335831 -0.292007 0.433965
0.337483 -0.292087 0.434652
0.339133 -0.292166 0.435337
0.340779 -0.292246 0.436022
0.342267 -0.292246 0.435584
0.343910 -0.292325 0.436268
0.345550 -0.292404 0.436951
0.347034 -0.292404 0.436514
0.348671 -0.292483 0.437196
0.350154 -0.292483 0.436759
0.351787 -0.292562 0.437440
0.353417 -0.292641 0.438121
0.355044 -0.292720 0.438800
0.356524 -0.292720 0.438364
0.358147 -0.292798 0.439042
0.359626 -0.292798 0.438607
0.361105 -0.292798 0.438172
0.362723 -0.292877 0.438850
0.364201 -0.292877 0.438414
0.365816 -0.292955 0.439092
0.367292 -0.292955 0.438657
0.368903 -0.293033 0.439334
0.370378 -0.293033 0.438899
0.371853 -0.293033 0.438465
0.373329 -0.293033 0.438030
0.374674 -0.292955 0.436483
0.376150 -0.292955 0.436049
0.377627 -0.292955 0.435614
0.379103 -0.292955 0.435179
0.380580 -0.292955 0.434744
0.382056 -0.292955 0.434310
0.383410 -0.292877 0.432758
0.384887 -0.292877 0.432323
0.386365 -0.292877 0.431888
0.387723 -0.292798 0.430334
0.389084 -0.292720 0.428777
0.390564 -0.292720 0.428341
0.391928 -0.292641 0.426781
0.393178 -0.292483 0.424090
0.394547 -0.292404 0.422523
0.395919 -0.292325 0.420954
0.287787 -0.289180 0.382730
0.290802 -0.289777 0.390768
0.293578 -0.290283 0.397518
0.296126 -0.290701 0.403016
0.298256 -0.290950 0.406112
0.300377 -0.291197 0.409193
0.302292 -0.291362 0.411089
0.304201 -0.291526 0.412978
0.306104 -0.291689 0.414862
0.308001 -0.291852 0.416739
0.309891 -0.292014 0.418609
0.311776 -0.292176 0.420474
0.313653 -0.292337 0.422333
0.315344 -0.292418 0.423038
0.317212 -0.292578 0.424887
0.319073 -0.292738 0.426731
0.320928 -0.292897 0.428569
0.322603 -0.292977 0.429265
0.324276 -0.293056 0.429959
0.325945 -0.293135 0.430653
0.327612 -0.293214 0.431345
0.329276 -0.293293 0.432037
0.331104 -0.293451 0.433855
0.332761 -0.293529 0.434543
0.334416 -0.293608 0.435229
0.335906 -0.293608 0.434791
0.337556 -0.293686 0.435476
0.339204 -0.293765 0.436161
0.340850 -0.293843 0.436845
0.342336 -0.293843 0.436407
0.343977 -0.293921 0.437090
0.345462 -0.293921 0.436653
0.347099 -0.293998 0.437335
0.348734 -0.294076 0.438015
0.350217 -0.294076 0.437579
0.351848 -0.294154 0.438259
0.353476 -0.294231 0.438938
0.355102 -0.294308 0.439616
0.356581 -0.294308 0.439181
0.358203 -0.294386 0.439858
0.359681 -0.294386 0.439423
0.361158 -0.294386 0.438988
0.362775 -0.294463 0.439664
0.364252 -0.294463 0.439230
0.365865 -0.294540 0.439906
0.367340 -0.294540 0.439471
0.368950 -0.294616 0.440147
0.370424 -0.294616 0.439713
0.371898 -0.294616 0.439279
0.373241 -0.294540 0.437734
0.374716 -0.294540 0.437299
0.376192 -0.294540 0.436865
0.377667 -0.294540 0.436431
0.379142 -0.294540 0.435996
0.380617 -0.294540 0.435562
0.382093 -0.294540 0.435127
0.383445 -0.294463 0.433578
0.384800 -0.294386 0.432026
0.386278 -0.294386 0.431591
0.387755 -0.294386 0.431156
0.389115 -0.294308 0.429601
0.390476 -0.294231 0.428043
0.391840 -0.294154 0.426483
0.393206 -0.294076 0.424920
0.394688 -0.294076 0.424484
0.395944 -0.293921 0.421788
0.287905 -0.290856 0.383637
0.291123 -0.291525 0.392866
0.293690 -0.291939 0.398402
0.296235 -0.292349 0.403892
0.298364 -0.292594 0.406983
0.300482 -0.292837 0.410060
0.302396 -0.292999 0.411952
0.304303 -0.293160 0.413839
0.306205 -0.293321 0.415719
0.308100 -0.293481 0.417593
0.309988 -0.293640 0.419461
0.311871 -0.293799 0.421323
0.313747 -0.293957 0.423179
0.315436 -0.294036 0.423882
0.317302 -0.294194 0.425729
0.319162 -0.294351 0.427570
0.321015 -0.294508 0.429405
0.322689 -0.294586 0.430099
0.324360 -0.294664 0.430793
0.326028 -0.294742 0.431485
0.327693 -0.294819 0.432176
0.329356 -0.294897 0.432866
0.331182 -0.295052 0.434682
0.332838 -0.295129 0.435368
0.334491 -0.295206 0.436054
0.335980 -0.295206 0.435615
0.337629 -0.295283 0.436300
0.339276 -0.295360 0.436983
0.340920 -0.295437 0.437666
0.342404 -0.295437 0.437229
0.344044 -0.295513 0.437910
0.345528 -0.295513 0.437473
0.347164 -0.295590 0.438154
0.348647 -0.295590 0.437717
0.350279 -0.295666 0.438397
0.351909 -0.295742 0.439076
0.353536 -0.295819 0.439754
0.355015 -0.295819 0.439319
0.356638 -0.295895 0.439996
0.358259 -0.295970 0.440672
0.359735 -0.295970 0.440237
0.361211 -0.295970 0.439802
0.362688 -0.295970 0.439368
0.364302 -0.296046 0.440044
0.365914 -0.296122 0.440719
0.367388 -0.296122 0.440284
0.368997 -0.296197 0.440959
0.370469 -0.296197 0.440525
0.371811 -0.296122 0.438982
0.373285 -0.296122 0.438548
0.374759 -0.296122 0.438114
0.376233 -0.296122 0.437680
0.377707 -0.296122 0.437246
0.379181 -0.296122 0.436812
0.380655 -0.296122 0.436378
0.382005 -0.296046 0.434831
0.383480 -0.296046 0.434397
0.384834 -0.295970 0.432846
0.386311 -0.295970 0.432412
0.387668 -0.295895 0.430859
0.389027 -0.295819 0.429304
0.390506 -0.295819 0.428868
0.391869 -0.295742 0.427310
0.393233 -0.295666 0.425749
0.394600 -0.295590 0.424186
0.395970 -0.295513 0.422620
0.288234 -0.292611 0.385758
0.291238 -0.293186 0.393758
0.293802 -0.293592 0.399285
0.296345 -0.293995 0.404766
0.298471 -0.294236 0.407853
0.300587 -0.294475 0.410925
0.302500 -0.294634 0.412815
0.304405 -0.294792 0.414698
0.306305 -0.294949 0.416575
0.308198 -0.295107 0.418447
0.310085 -0.295263 0.420312
0.311966 -0.295419 0.422170
0.313840 -0.295575 0.424023
0.315528 -0.295653 0.424725
0.317392 -0.295808 0.426569
0.319250 -0.295962 0.428407
0.321102 -0.296116 0.430239
0.322774 -0.296192 0.430933
0.324444 -0.296269 0.431625
0.326110 -0.296346 0.432316
0.327774 -0.296422 0.433006
0.329436 -0.296498 0.433695
0.331094 -0.296574 0.434382
0.332915 -0.296726 0.436193
0.334567 -0.296802 0.436877
0.336054 -0.296802 0.436439
0.337702 -0.296877 0.437122
0.339347 -0.296953 0.437804
0.340989 -0.297028 0.438485
0.342473 -0.297028 0.438049
0.344112 -0.297104 0.438729
0.345594 -0.297104 0.438292
0.347229 -0.297179 0.438972
0.348710 -0.297179 0.438536
0.350341 -0.297254 0.439215
0.351821 -0.297254 0.438779
0.353595 -0.297403 0.440569
0.355073 -0.297403 0.440134
0.356695 -0.297478 0.440810
0.358171 -0.297478 0.440375
0.359789 -0.297553 0.441050
0.361265 -0.297553 0.440616
0.362740 -0.297553 0.440181
0.364353 -0.297627 0.440856
0.365827 -0.297627 0.440422
0.367437 -0.297701 0.441096
0.369043 -0.297775 0.441769
0.370382 -0.297701 0.440229
0.371855 -0.297701 0.439795
0.373328 -0.297701 0.439361
0.374801 -0.297701 0.438928
0.376274 -0.297701 0.438494
0.377747 -0.297701 0.438060
0.379219 -0.297701 0.437627
0.380568 -0.297627 0.436082
0.382042 -0.297627 0.435648
0.383393 -0.297553 0.434100
0.384747 -0.297478 0.432550
0.386223 -0.297478 0.432115
0.387700 -0.297478 0.431680
0.389058 -0.297403 0.430127
0.390418 -0.297329 0.428571
0.391781 -0.297254 0.427012
0.393261 -0.297254 0.426577
0.394627 -0.297179 0.425015
0.395882 -0.297028 0.422322
0.288351 -0.294279 0.386660
0.291353 -0.294843 0.394648
0.293914 -0.295243 0.400167
0.296454 -0.295639 0.405640
0.298579 -0.295875 0.408722
0.300693 -0.296109 0.411788
0.302603 -0.296265 0.413675
0.304507 -0.296421 0.415556
0.306405 -0.296576 0.417430
0.308296 -0.296730 0.419298
0.310181 -0.296884 0.421160
0.312060 -0.297037 0.423016
0.313751 -0.297114 0.423720
0.315620 -0.297266 0.425567
0.317482 -0.297418 0.427408
0.319338 -0.297570 0.429243
0.321189 -0.297721 0.431073
0.322859 -0.297796 0.431765
0.324527 -0.297872 0.432456
0.326193 -0.297947 0.433145
0.327855 -0.298022 0.433834
0.329515 -0.298097 0.434522
0.331172 -0.298171 0.435208
0.332827 -0.298246 0.435894
0.334642 -0.298395 0.437699
0.336128 -0.298395 0.437261
0.337774 -0.298469 0.437943
0.339418 -0.298543 0.438624
0.340902 -0.298543 0.438187
0.342542 -0.298617 0.438867
0.344179 -0.298691 0.439546
0.345660 -0.298691 0.439110
0.347294 -0.298765 0.439789
0.348774 -0.298765 0.439353
0.350403 -0.298839 0.440031
0.351882 -0.298839 0.439595
0.353655 -0.298986 0.441382
0.355131 -0.298986 0.440948
0.356752 -0.299059 0.441622
0.358227 -0.299059 0.441188
0.359844 -0.299132 0.441862
0.361318 -0.299132 0.441428
0.362792 -0.299132 0.440994
0.364404 -0.299205 0.441667
0.365876 -0.299205 0.441234
0.367485 -0.299278 0.441907
0.368956 -0.299278 0.441473
0.370428 -0.299278 0.441040
0.371900 -0.299278 0.440607
0.373371 -0.299278 0.440173
0.374843 -0.299278 0.439740
0.376315 -0.299278 0.439306
0.377786 -0.299278 0.438873
0.379132 -0.299205 0.437331
0.380605 -0.299205 0.436897
0.381954 -0.299132 0.435351
0.383428 -0.299132 0.434917
0.384781 -0.299059 0.433369
0.386256 -0.299059 0.432935
0.387612 -0.298986 0.431383
0.388970 -0.298912 0.429830
0.390448 -0.298912 0.429395
0.391810 -0.298839 0.427838
0.393173 -0.298765 0.426279
0.394539 -0.298691 0.424717
0.288469 -0.295944 0.387560
0.291467 -0.296498 0.395536
0.294026 -0.296890 0.401047
0.296563 -0.297279 0.406511
0.298686 -0.297511 0.409589
0.300798 -0.297741 0.412651
0.302706 -0.297894 0.414535
0.304608 -0.298047 0.416412
0.306504 -0.298199 0.418284
0.308394 -0.298351 0.420149
0.310278 -0.298502 0.422008
0.312155 -0.298652 0.423861
0.313844 -0.298727 0.424563
0.315711 -0.298877 0.426408
0.317572 -0.299027 0.428246
0.319426 -0.299175 0.430078
0.321275 -0.299324 0.431904
0.322944 -0.299398 0.432595
0.324611 -0.299472 0.433285
0.326275 -0.299545 0.433973
0.327936 -0.299619 0.434661
0.329594 -0.299693 0.435347
0.331250 -0.299766 0.436033
0.332903 -0.299839 0.436717
0.334554 -0.299912 0.437400
0.336202 -0.299985 0.438082
0.337847 -0.300058 0.438763
0.339489 -0.300131 0.439442
0.340971 -0.300131 0.439006
0.342610 -0.300204 0.439685
0.344091 -0.300204 0.439249
0.345726 -0.300276 0.439927
0.347358 -0.300349 0.440604
0.348837 -0.300349 0.440169
0.350465 -0.300421 0.440845
0.351943 -0.300421 0.440410
0.353567 -0.300493 0.441086
0.355189 -0.300565 0.441760
0.356808 -0.300637 0.442434
0.358282 -0.300637 0.442000
0.359898 -0.300709 0.442672
0.361371 -0.300709 0.442239
0.362844 -0.300709 0.441805
0.364454 -0.300781 0.442477
0.365926 -0.300781 0.442044
0.367533 -0.300853 0.442716
0.369003 -0.300853 0.442283
0.370474 -0.300853 0.441850
0.371944 -0.300853 0.441417
0.373415 -0.300853 0.440984
0.374885 -0.300853 0.440551
0.376356 -0.300853 0.440118
0.377699 -0.300781 0.438577
0.379171 -0.300781 0.438144
0.380518 -0.300709 0.436601
0.381991 -0.300709 0.436167
0.383341 -0.300637 0.434621
0.384815 -0.300637 0.434187
0.386289 -0.300637 0.433753
0.387644 -0.300565 0.432204
0.389001 -0.300493 0.430652
0.390361 -0.300421 0.429098
0.391722 -0.300349 0.427541
0.393201 -0.300349 0.427105
0.394566 -0.300276 0.425546
0.288795 -0.297685 0.389667
0.291581 -0.298151 0.396423
0.294137 -0.298535 0.401925
0.296672 -0.298917 0.407382
0.298793 -0.299144 0.410454
0.300902 -0.299371 0.413512
0.302809 -0.299521 0.415392
0.304710 -0.299671 0.417267
0.306604 -0.299820 0.419136
0.308492 -0.299969 0.420998
0.310374 -0.300117 0.422854
0.312250 -0.300265 0.424704
0.313937 -0.300338 0.425405
0.315802 -0.300485 0.427247
0.317661 -0.300632 0.429082
0.319515 -0.300778 0.430911
0.321187 -0.300851 0.431604
0.323029 -0.300996 0.433424
0.324695 -0.301069 0.434113
0.326357 -0.301141 0.434800
0.328017 -0.301214 0.435486
0.329674 -0.301286 0.436172
0.331328 -0.301358 0.436856
0.332980 -0.301430 0.437539
0.334629 -0.301502 0.438221
0.336275 -0.301573 0.438901
0.337919 -0.301645 0.439581
0.339560 -0.301716 0.440259
0.341041 -0.301716 0.439823
0.342678 -0.301788 0.440501
0.344158 -0.301788 0.440065
0.345792 -0.301859 0.440742
0.347270 -0.301859 0.440307
0.348900 -0.301930 0.440983
0.350527 -0.302001 0.441658
0.352003 -0.302001 0.441224
0.353626 -0.302072 0.441898
0.355247 -0.302143 0.442572
0.356721 -0.302143 0.442137
0.358338 -0.302213 0.442810
0.359952 -0.302284 0.443482
0.361284 -0.302213 0.441943
0.362895 -0.302284 0.442615
0.364367 -0.302284 0.442182
0.365975 -0.302354 0.442853
0.367580 -0.302425 0.443524
0.369183 -0.302495 0.444193
0.370519 -0.302425 0.442658
0.371988 -0.302425 0.442226
0.373458 -0.302425 0.441793
0.374927 -0.302425 0.441360
0.376269 -0.302354 0.439822
0.377739 -0.302354 0.439389
0.379084 -0.302284 0.437848
0.380556 -0.302284 0.437415
0.381904 -0.302213 0.435871
0.383377 -0.302213 0.435437
0.384728 -0.302143 0.433891
0.386202 -0.302143 0.433457
0.387557 -0.302072 0.431907
0.388914 -0.302001 0.430355
0.390390 -0.302001 0.429920
0.391751 -0.301930 0.428365
0.393113 -0.301859 0.426808
0.289328 -0.299496 0.392971
0.291900 -0.299876 0.398501
0.294450 -0.300253 0.403986
0.296781 -0.300552 0.408251
0.298899 -0.300775 0.411318
0.300812 -0.300923 0.413206
0.302912 -0.301145 0.416249
0.304811 -0.301292 0.418121
0.306704 -0.301438 0.419986
0.308590 -0.301584 0.421845
0.310470 -0.301730 0.423699
0.312344 -0.301875 0.425546
0.314030 -0.301947 0.426246
0.315894 -0.302091 0.428084
0.317751 -0.302235 0.429917
0.319602 -0.302378 0.431743
0.321273 -0.302450 0.432434
0.322941 -0.302521 0.433124
0.324778 -0.302664 0.434940
0.326439 -0.302735 0.435626
0.328097 -0.302806 0.436311
0.329753 -0.302877 0.436995
0.331406 -0.302947 0.437677
0.333056 -0.303018 0.438359
0.334704 -0.303088 0.439040
0.336349 -0.303159 0.439719
0.337991 -0.303229 0.440398
0.339472 -0.303229 0.439962
0.341111 -0.303299 0.440639
0.342747 -0.303369 0.441316
0.344225 -0.303369 0.440880
0.345857 -0.303439 0.441556
0.347335 -0.303439 0.441121
0.348963 -0.303509 0.441796
0.350440 -0.303509 0.441362
0.352064 -0.303578 0.442036
0.353686 -0.303648 0.442709
0.355305 -0.303717 0.443381
0.356778 -0.303717 0.442948
0.358393 -0.303787 0.443619
0.359865 -0.303787 0.443186
0.361336 -0.303787 0.442752
0.362947 -0.303856 0.443424
0.364417 -0.303856 0.442991
0.366024 -0.303925 0.443661
0.367493 -0.303925 0.443228
0.369096 -0.303994 0.443898
0.370565 -0.303994 0.443466
0.372033 -0.303994 0.443033
0.373501 -0.303994 0.442601
0.374840 -0.303925 0.441065
0.376309 -0.303925 0.440632
0.377652 -0.303856 0.439094
0.379122 -0.303856 0.438661
0.380468 -0.303787 0.437119
0.381940 -0.303787 0.436686
0.383289 -0.303717 0.435141
0.384762 -0.303717 0.434707
0.386235 -0.303717 0.434274
0.387589 -0.303648 0.432726
0.388945 -0.303578 0.431176
0.390303 -0.303509 0.429623
0.391663 -0.303439 0.428068
0.393141 -0.303439 0.427633
0.289444 -0.301148 0.393861
0.292013 -0.301521 0.399383
0.294561 -0.301891 0.404860
0.296889 -0.302184 0.409118
0.299006 -0.302403 0.412181
0.300917 -0.302549 0.414066
0.303015 -0.302766 0.417104
0.304912 -0.302910 0.418973
0.306803 -0.303053 0.420835
0.308687 -0.303197 0.422692
0.310566 -0.303339 0.424542
0.312255 -0.303411 0.425243
0.314123 -0.303553 0.427085
0.315985 -0.303694 0.428921
0.317840 -0.303835 0.430750
0.319690 -0.303976 0.432574
0.321359 -0.304046 0.433264
0.323026 -0.304116 0.433952
0.324690 -0.304186 0.434640
0.326521 -0.304326 0.436450
0.328178 -0.304395 0.437134
0.329832 -0.304465 0.437816
0.331484 -0.304534 0.438498
0.333132 -0.304603 0.439178
0.334779 -0.304672 0.439858
0.336261 -0.304672 0.439421
0.338063 -0.304810 0.441213
0.339543 -0.304810 0.440778
0.341180 -0.304879 0.441454
0.342659 -0.304879 0.441019
0.344292 -0.304948 0.441694
0.345923 -0.305016 0.442369
0.347399 -0.305016 0.441934
0.349026 -0.305085 0.442608
0.350501 -0.305085 0.442174
0.352124 -0.305153 0.442847
0.353745 -0.305221 0.443519
0.355363 -0.305290 0.444190
0.356834 -0.305290 0.443757
0.358448 -0.305358 0.444427
0.359919 -0.305358 0.443994
0.361389 -0.305358 0.443561
0.362998 -0.305426 0.444231
0.364468 -0.305426 0.443798
0.366073 -0.305493 0.444467
0.367541 -0.305493 0.444035
0.369143 -0.305561 0.444704
0.370610 -0.305561 0.444272
0.372077 -0.305561 0.443840
0.373414 -0.305493 0.442306
0.374882 -0.305493 0.441874
0.376222 -0.305426 0.440337
0.377692 -0.305426 0.439904
0.379035 -0.305358 0.438365
0.380506 -0.305358 0.437932
0.381853 -0.305290 0.436390
0.383325 -0.305290 0.435956
0.384675 -0.305221 0.434411
0.386148 -0.305221 0.433978
0.387502 -0.305153 0.432430
0.388976 -0.305153 0.431996
0.390333 -0.305085 0.430445
0.391692 -0.305016 0.428892
0.392823 -0.304810 0.425089
0.289560 -0.302798 0.394750
0.292126 -0.303163 0.400264
0.294672 -0.303526 0.405732
0.296998 -0.303814 0.409984
0.299112 -0.304029 0.413042
0.301022 -0.304171 0.414924
0.303118 -0.304384 0.417958
0.305013 -0.304525 0.419823
0.306713 -0.304596 0.420532
0.308785 -0.304807 0.423537
0.310662 -0.304947 0.425384
0.312349 -0.305017 0.426084
0.314215 -0.305156 0.427923
0.316076 -0.305295 0.429756
0.317930 -0.305433 0.431582
0.319778 -0.305571 0.433403
0.321445 -0.305640 0.434092
0.323111 -0.305708 0.434779
0.324773 -0.305777 0.435465
0.326433 -0.305845 0.436151
0.328258 -0.305982 0.437955
0.329911 -0.306050 0.438637
0.331561 -0.306118 0.439317
0.333209 -0.306186 0.439996
0.334853 -0.306254 0.440674
0.336335 -0.306254 0.440238
0.337976 -0.306322 0.440916
0.339614 -0.306389 0.441592
0.341250 -0.306457 0.442267
0.342727 -0.306457 0.441832
0.344359 -0.306524 0.442507
0.345836 -0.306524 0.442072
0.347464 -0.306591 0.442746
0.349089 -0.306659 0.443419
0.350563 -0.306659 0.442985
0.352185 -0.306726 0.443657
0.353804 -0.306792 0.444327
0.355276 -0.306792 0.443894
0.356891 -0.306859 0.444564
0.358504 -0.306926 0.445233
0.359973 -0.306926 0.444801
0.361442 -0.306926 0.444368
0.362912 -0.306926 0.443936
0.364518 -0.306993 0.444605
0.366122 -0.307059 0.445273
0.367589 -0.307059 0.444841
0.369189 -0.307126 0.445508
0.370655 -0.307126 0.445076
0.371990 -0.307059 0.443545
0.373457 -0.307059 0.443113
0.374795 -0.306993 0.441578
0.376263 -0.306993 0.441146
0.377605 -0.306926 0.439609
0.379074 -0.306926 0.439176
0.380419 -0.306859 0.437636
0.381889 -0.306859 0.437203
0.383238 -0.306792 0.435660
0.384709 -0.306792 0.435227
0.386181 -0.306792 0.434794
0.387534 -0.306726 0.433248
0.388888 -0.306659 0.431699
0.390245 -0.306591 0.430149
0.391605 -0.306524 0.428595
0.286458 -0.303865 0.386457
0.289675 -0.304445 0.395637
0.292239 -0.304803 0.401143
0.294782 -0.305159 0.406603
0.297106 -0.305441 0.410848
0.299218 -0.305651 0.413902
0.301126 -0.305791 0.415781
0.303220 -0.306000 0.418810
0.305114 -0.306138 0.420673
0.306813 -0.306207 0.421380
0.308882 -0.306414 0.424380
0.310757 -0.306551 0.426225
0.312443 -0.306620 0.426923
0.314308 -0.306756 0.428759
0.316166 -0.306893 0.430589
0.318019 -0.307028 0.432413
0.319865 -0.307163 0.434231
0.321532 -0.307231 0.434918
0.323195 -0.307298 0.435605
0.324856 -0.307365 0.436290
0.326514 -0.307433 0.436974
0.328338 -0.307566 0.438775
0.329990 -0.307633 0.439456
0.331638 -0.307700 0.440135
0.333284 -0.307766 0.440813
0.334928 -0.307833 0.441490
0.336408 -0.307833 0.441054
0.338048 -0.307899 0.441730
0.339684 -0.307966 0.442405
0.341319 -0.308032 0.443080
0.342795 -0.308032 0.442645
0.344426 -0.308098 0.443318
0.345901 -0.308098 0.442884
0.347528 -0.308164 0.443556
0.349002 -0.308164 0.443122
0.350625 -0.308230 0.443794
0.352245 -0.308295 0.444465
0.353863 -0.308361 0.445135
0.355333 -0.308361 0.444702
0.356947 -0.308426 0.445371
0.358417 -0.308426 0.444938
0.360027 -0.308492 0.445606
0.361495 -0.308492 0.445174
0.362963 -0.308492 0.444742
0.364568 -0.308557 0.445410
0.366035 -0.308557 0.444978
0.367637 -0.308622 0.445645
0.369236 -0.308687 0.446311
0.370700 -0.308687 0.445880
0.372034 -0.308622 0.444350
0.373370 -0.308557 0.442818
0.374837 -0.308557 0.442386
0.376176 -0.308492 0.440851
0.377645 -0.308492 0.440419
0.378987 -0.308426 0.438881
0.380456 -0.308426 0.438448
0.381802 -0.308361 0.436908
0.383273 -0.308361 0.436475
0.384622 -0.308295 0.434931
0.386094 -0.308295 0.434498
0.387446 -0.308230 0.432952
0.388919 -0.308230 0.432518
0.390275 -0.308164 0.430969
0.391401 -0.307966 0.427177
0.286577 -0.305520 0.387357
0.289791 -0.306089 0.396523
0.292352 -0.306440 0.402021
0.294892 -0.306788 0.407472
0.297412 -0.307134 0.412879
0.299324 -0.307271 0.414761
0.301424 -0.307477 0.417795
0.303322 -0.307613 0.419661
0.305024 -0.307681 0.420369
0.306912 -0.307816 0.422226
0.308979 -0.308019 0.425222
0.310668 -0.308086 0.425922
0.312537 -0.308221 0.427761
0.314400 -0.308354 0.429594
0.316257 -0.308488 0.431421
0.318108 -0.308621 0.433242
0.319777 -0.308687 0.433931
0.321443 -0.308753 0.434619
0.323280 -0.308885 0.436429
0.324939 -0.308951 0.437113
0.326596 -0.309017 0.437795
0.328250 -0.309083 0.438477
0.329902 -0.309148 0.439157
0.331551 -0.309214 0.439837
0.333197 -0.309279 0.440515
0.334840 -0.309344 0.441192
0.336642 -0.309474 0.442979
0.338119 -0.309474 0.442543
0.339755 -0.309539 0.443218
0.341388 -0.309604 0.443890
0.342863 -0.309604 0.443456
0.344492 -0.309669 0.444128
0.345966 -0.309669 0.443694
0.347592 -0.309734 0.444366
0.349065 -0.309734 0.443932
0.350686 -0.309798 0.444602
0.352305 -0.309863 0.445272
0.353922 -0.309927 0.445941
0.355391 -0.309927 0.445508
0.357004 -0.309991 0.446176
0.358472 -0.309991 0.445743
0.360081 -0.310055 0.446411
0.361548 -0.310055 0.445979
0.363153 -0.310119 0.446645
0.364618 -0.310119 0.446213
0.366220 -0.310183 0.446879
0.367685 -0.310183 0.446448
0.369149 -0.310183 0.446017
0.370614 -0.310183 0.445585
0.372078 -0.310183 0.445154
0.373413 -0.310119 0.443624
0.374879 -0.310119 0.443192
0.376217 -0.310055 0.441659
0.377684 -0.310055 0.441227
0.379026 -0.309991 0.439691
0.380494 -0.309991 0.439259
0.381839 -0.309927 0.437720
0.383308 -0.309927 0.437288
0.384656 -0.309863 0.435746
0.386127 -0.309863 0.435313
0.387359 -0.309734 0.432656
0.388832 -0.309734 0.432222
0.390188 -0.309669 0.430673
0.391080 -0.309344 0.424632
0.287116 -0.307313 0.390669
0.289906 -0.307730 0.397408
0.292465 -0.308074 0.402897
0.295002 -0.308416 0.408340
0.297519 -0.308754 0.413739
0.299430 -0.308889 0.415618
0.301528 -0.309090 0.418647
0.303424 -0.309223 0.420510
0.305125 -0.309290 0.421217
0.307011 -0.309423 0.423072
0.308890 -0.309555 0.424920
0.310764 -0.309687 0.426762
0.312631 -0.309819 0.428598
0.314492 -0.309950 0.430428
0.316347 -0.310080 0.432252
0.318196 -0.310211 0.434071
0.319864 -0.310276 0.434758
0.321529 -0.310340 0.435444
0.323364 -0.310470 0.437251
0.325022 -0.310534 0.437934
0.326678 -0.310599 0.438616
0.328330 -0.310663 0.439296
0.329980 -0.310727 0.439975
0.331628 -0.310792 0.440653
0.333273 -0.310856 0.441331
0.334915 -0.310920 0.442007
0.336715 -0.311047 0.443790
0.338191 -0.311047 0.443355
0.339825 -0.311111 0.444028
0.341301 -0.311111 0.443594
0.342931 -0.311174 0.444266
0.344559 -0.311238 0.444937
0.346032 -0.311238 0.444503
0.347656 -0.311301 0.445173
0.349127 -0.311301 0.444740
0.350748 -0.311364 0.445409
0.352218 -0.311364 0.444976
0.353980 -0.311490 0.446745
0.355448 -0.311490 0.446313
0.356917 -0.311490 0.445881
0.358527 -0.311553 0.446548
0.359994 -0.311553 0.446116
0.361600 -0.311616 0.446782
0.363204 -0.311679 0.447447
0.364669 -0.311679 0.447016
0.366133 -0.311679 0.446585
0.367598 -0.311679 0.446153
0.369196 -0.311741 0.446818
0.370527 -0.311679 0.445291
0.371992 -0.311679 0.444860
0.373456 -0.311679 0.444428
0.374792 -0.311616 0.442897
0.376258 -0.311616 0.442466
0.377597 -0.311553 0.440932
0.379064 -0.311553 0.440500
0.380407 -0.311490 0.438964
0.381875 -0.311490 0.438531
0.383221 -0.311427 0.436992
0.384690 -0.311427 0.436560
0.386040 -0.311364 0.435017
0.387391 -0.311301 0.433473
0.388745 -0.311238 0.431926
0.389983 -0.311111 0.429259
0.287234 -0.308960 0.391562
0.290021 -0.309369 0.398291
0.292577 -0.309706 0.403772
0.295112 -0.310040 0.409207
0.297626 -0.310371 0.414597
0.299536 -0.310503 0.416473
0.301632 -0.310700 0.419498
0.303335 -0.310766 0.420207
0.305225 -0.310896 0.422064
0.307109 -0.311026 0.423915
0.308987 -0.311156 0.425761
0.310859 -0.311285 0.427600
0.312725 -0.311414 0.429433
0.314584 -0.311542 0.431260
0.316438 -0.311670 0.433082
0.318285 -0.311798 0.434897
0.319951 -0.311862 0.435583
0.321615 -0.311925 0.436269
0.323276 -0.311989 0.436953
0.325105 -0.312115 0.438754
0.326759 -0.312178 0.439435
0.328410 -0.312241 0.440114
0.330059 -0.312304 0.440792
0.331705 -0.312367 0.441469
0.333349 -0.312430 0.442145
0.334989 -0.312492 0.442820
0.336627 -0.312555 0.443493
0.338263 -0.312617 0.444166
0.339896 -0.312679 0.444838
0.341370 -0.312679 0.444404
0.342999 -0.312742 0.445074
0.344472 -0.312742 0.444641
0.346097 -0.312804 0.445311
0.347720 -0.312866 0.445980
0.349190 -0.312866 0.445547
0.350809 -0.312928 0.446215
0.352278 -0.312928 0.445783
0.353893 -0.312990 0.446450
0.355362 -0.312990 0.446018
0.356973 -0.313051 0.446685
0.358440 -0.313051 0.446253
0.360048 -0.313113 0.446919
0.361653 -0.313174 0.447584
0.363117 -0.313174 0.447153
0.364582 -0.313174 0.446721
0.366182 -0.313236 0.447386
0.367645 -0.313236 0.446955
0.369109 -0.313236 0.446524
0.370572 -0.313236 0.446093
0.371905 -0.313174 0.444565
0.373370 -0.313174 0.444134
0.374834 -0.313174 0.443703
0.376171 -0.313113 0.442171
0.377637 -0.313113 0.441739
0.378978 -0.313051 0.440205
0.380445 -0.313051 0.439773
0.381788 -0.312990 0.438236
0.383256 -0.312990 0.437804
0.384604 -0.312928 0.436264
0.386073 -0.312928 0.435832
0.387423 -0.312866 0.434289
0.388776 -0.312804 0.432744
0.287352 -0.310605 0.392454
0.290136 -0.311005 0.399172
0.292690 -0.311334 0.404645
0.295222 -0.311662 0.410072
0.297734 -0.311986 0.415454
0.299641 -0.312115 0.417327
0.301735 -0.312308 0.420348
0.303437 -0.312372 0.421055
0.305325 -0.312500 0.422909
0.307208 -0.312627 0.424758
0.309084 -0.312754 0.426600
0.310954 -0.312881 0.428437
0.312818 -0.313007 0.430267
0.314676 -0.313133 0.432092
0.316528 -0.313258 0.433910
0.318197 -0.313320 0.434598
0.320039 -0.313445 0.436408
0.321701 -0.313507 0.437091
0.323360 -0.313569 0.437774
0.325017 -0.313631 0.438456
0.326840 -0.313755 0.440252
0.328490 -0.313817 0.440930
0.330138 -0.313878 0.441607
0.331782 -0.313940 0.442283
0.333424 -0.314001 0.442958
0.335064 -0.314062 0.443631
0.336700 -0.314124 0.444304
0.338334 -0.314185 0.444975
0.339966 -0.314246 0.445646
0.341439 -0.314246 0.445212
0.343066 -0.314307 0.445882
0.344538 -0.314307 0.445448
0.346162 -0.314367 0.446117
0.347633 -0.314367 0.445684
0.349253 -0.314428 0.446353
0.350870 -0.314489 0.447020
0.352338 -0.314489 0.446587
0.353952 -0.314549 0.447254
0.355419 -0.314549 0.446822
0.357029 -0.314610 0.447487
0.358495 -0.314610 0.447056
0.360101 -0.314670 0.447721
0.361566 -0.314670 0.447290
0.363168 -0.314730 0.447954
0.364632 -0.314730 0.447523
0.366095 -0.314730 0.447092
0.367559 -0.314730 0.446661
0.369155 -0.314790 0.447325
