ply
format ascii 1.0
element vertex 1656
property float x
property float y
property float z
end_header
0.007797 -0.217465 -0.315029
0.006293 -0.217465 -0.316050
0.004790 -0.217465 -0.317070
0.003287 -0.217465 -0.318090
0.002738 -0.217954 -0.320217
0.001236 -0.217954 -0.321237
-0.000265 -0.217954 -0.322256
-0.001767 -0.217954 -0.323276
-0.003269 -0.217954 -0.324295
-0.004770 -0.217954 -0.325315
-0.006272 -0.217954 -0.326334
-0.007774 -0.217954 -0.327354
-0.009276 -0.217954 -0.328373
-0.011745 -0.217465 -0.328295
-0.013248 -0.217465 -0.329315
-0.014751 -0.217465 -0.330335
-0.017227 -0.216975 -0.330259
-0.018732 -0.216975 -0.331280
-0.020237 -0.216975 -0.332302
-0.022721 -0.216484 -0.332227
-0.025209 -0.215992 -0.332152
-0.026717 -0.215992 -0.333175
-0.028224 -0.215992 -0.334199
-0.030721 -0.215500 -0.334126
-0.032229 -0.215500 -0.335150
-0.034732 -0.215006 -0.335078
-0.037239 -0.214511 -0.335005
-0.039751 -0.214016 -0.334933
-0.042268 -0.213519 -0.334860
-0.044790 -0.213022 -0.334787
-0.046306 -0.213022 -0.335817
-0.048834 -0.212524 -0.335745
-0.051367 -0.212024 -0.335673
-0.053905 -0.211524 -0.335600
-0.056447 -0.211023 -0.335528
-0.058995 -0.210520 -0.335455
-0.061547 -0.210017 -0.335383
-0.064105 -0.209513 -0.335310
-0.066667 -0.209008 -0.335237
-0.069234 -0.208502 -0.335164
-0.071806 -0.207995 -0.335091
-0.073337 -0.207995 -0.336130
-0.075916 -0.207487 -0.336058
-0.078500 -0.206978 -0.335985
-0.081088 -0.206467 -0.335913
-0.083682 -0.205956 -0.335840
-0.086281 -0.205444 -0.335767
-0.088885 -0.204931 -0.335694
-0.091493 -0.204417 -0.335621
-0.094107 -0.203902 -0.335547
-0.096726 -0.203386 -0.335474
-0.098271 -0.203386 -0.336522
-0.100896 -0.202869 -0.336450
-0.103527 -0.202351 -0.336377
-0.106163 -0.201832 -0.336304
-0.108804 -0.201312 -0.336231
-0.111451 -0.200791 -0.336158
-0.113002 -0.200791 -0.337211
-0.115655 -0.200269 -0.337139
-0.118314 -0.199746 -0.337067
-0.120977 -0.199221 -0.336994
-0.124760 -0.198170 -0.335790
-0.127438 -0.197643 -0.335716
-0.130121 -0.197114 -0.335642
-0.132809 -0.196585 -0.335567
-0.135503 -0.196055 -0.335493
-0.139337 -0.194991 -0.334279
-0.140906 -0.194991 -0.335343
-0.143616 -0.194457 -0.335269
-0.148627 -0.192850 -0.332905
-0.152511 -0.191773 -0.331678
-0.155248 -0.191233 -0.331599
-0.159157 -0.190150 -0.330366
-0.161909 -0.189607 -0.330285
-0.165843 -0.188517 -0.329046
-0.168610 -0.187971 -0.328964
-0.172569 -0.186874 -0.327718
-0.175351 -0.186324 -0.327634
-0.179336 -0.185221 -0.326382
-0.182134 -0.184668 -0.326297
-0.186144 -0.183559 -0.325038
-0.190171 -0.182445 -0.323774
-0.192994 -0.181886 -0.323686
-0.197047 -0.180765 -0.322415
-0.199885 -0.180203 -0.322325
-0.203965 -0.179075 -0.321048
-0.206819 -0.178509 -0.320956
-0.212174 -0.176805 -0.318478
-0.216303 -0.175664 -0.317185
-0.221715 -0.173942 -0.314683
-0.230998 -0.170467 -0.308517
0.391859 -0.114648 0.322835
0.392160 -0.116760 0.315433
0.391760 -0.118160 0.310119
0.390662 -0.118858 0.306861
0.390267 -0.120248 0.301585
0.389175 -0.120941 0.298348
0.388085 -0.121633 0.295119
0.386998 -0.122323 0.291896
0.386613 -0.123698 0.286684
0.385531 -0.124383 0.283482
0.384451 -0.125067 0.280287
0.383374 -0.125749 0.277099
0.382300 -0.126429 0.273919
0.381227 -0.127108 0.270745
0.380157 -0.127786 0.267579
0.379090 -0.128462 0.264420
0.378025 -0.129136 0.261268
0.376962 -0.129810 0.258123
0.375902 -0.130481 0.254985
0.374139 -0.130481 0.253788
0.372377 -0.130481 0.252592
0.371322 -0.131151 0.249463
0.369562 -0.131151 0.248268
0.368512 -0.131820 0.245148
0.367464 -0.132487 0.242035
0.365708 -0.132487 0.240842
0.363951 -0.132487 0.239649
0.362194 -0.132487 0.238457
0.360437 -0.132487 0.237264
0.358681 -0.132487 0.236072
0.356924 -0.132487 0.234879
0.355890 -0.133152 0.231781
0.354136 -0.133152 0.230590
0.351654 -0.132487 0.231301
0.349897 -0.132487 0.230109
0.348140 -0.132487 0.228916
0.345649 -0.131820 0.229627
0.343890 -0.131820 0.228433
0.342131 -0.131820 0.227239
0.339630 -0.131151 0.227949
0.337124 -0.130481 0.228661
0.335361 -0.130481 0.227464
0.332847 -0.129810 0.228176
0.331083 -0.129810 0.226978
0.329318 -0.129810 0.225780
0.326795 -0.129136 0.226490
0.324265 -0.128462 0.227203
0.320962 -0.127108 0.229835
0.318418 -0.126429 0.230553
0.315868 -0.125749 0.231273
0.313313 -0.125067 0.231994
0.309966 -0.123698 0.234652
0.306605 -0.122323 0.237322
0.303229 -0.120941 0.240004
0.298228 -0.118160 0.246626
0.155763 -0.053295 0.383502
0.155914 -0.054998 0.377472
0.157128 -0.057537 0.369154
0.157275 -0.059218 0.363197
0.156364 -0.060056 0.359561
0.155455 -0.060892 0.355934
0.154548 -0.061726 0.352317
0.153644 -0.062557 0.348708
0.152742 -0.063387 0.345108
0.151842 -0.064214 0.341517
0.150944 -0.065040 0.337935
0.150049 -0.065863 0.334362
0.149156 -0.066685 0.330798
0.147206 -0.066685 0.329475
0.146318 -0.067504 0.325921
0.144371 -0.067504 0.324599
0.142424 -0.067504 0.323278
0.140477 -0.067504 0.321956
0.138530 -0.067504 0.320634
0.135511 -0.066685 0.321535
0.133561 -0.066685 0.320212
0.131612 -0.066685 0.318888
0.129663 -0.066685 0.317565
0.127713 -0.066685 0.316242
0.125764 -0.066685 0.314919
0.124902 -0.067504 0.311383
0.122955 -0.067504 0.310061
0.121008 -0.067504 0.308739
0.117967 -0.066685 0.309626
0.116017 -0.066685 0.308302
0.114068 -0.066685 0.306979
0.111015 -0.065863 0.307864
0.107954 -0.065040 0.308751
0.106000 -0.065040 0.307425
0.104045 -0.065040 0.306098
0.100972 -0.064214 0.306985
0.099015 -0.064214 0.305656
0.097059 -0.064214 0.304328
0.093973 -0.063387 0.305213
0.090880 -0.062557 0.306101
0.088918 -0.062557 0.304769
0.086957 -0.062557 0.303438
0.083851 -0.061726 0.304324
0.079584 -0.060056 0.307439
0.077615 -0.060056 0.306103
0.074486 -0.059218 0.306996
0.072515 -0.059218 0.305658
0.069376 -0.058379 0.306551
0.066228 -0.057537 0.307447
0.064252 -0.057537 0.306105
0.061094 -0.056692 0.307002
0.057929 -0.055846 0.307900
0.055948 -0.055846 0.306555
0.052772 -0.054998 0.307454
0.050788 -0.054998 0.306108
0.047602 -0.054147 0.307007
0.044407 -0.053295 0.307909
0.041205 -0.052440 0.308813
0.039214 -0.052440 0.307462
0.036000 -0.051583 0.308366
0.032779 -0.050724 0.309273
0.029550 -0.049863 0.310183
0.026312 -0.048999 0.311094
0.023067 -0.048134 0.312008
0.019813 -0.047266 0.312924
0.016551 -0.046396 0.313843
0.013280 -0.045524 0.314763
0.008730 -0.043772 0.317981
0.002874 -0.041129 0.323525
0.088749 -0.166433 -0.069416
0.091886 -0.169383 -0.077910
0.092145 -0.170555 -0.081953
0.093350 -0.172303 -0.087429
0.093604 -0.173462 -0.091432
0.093857 -0.174616 -0.095418
0.094109 -0.175766 -0.099387
0.094360 -0.176911 -0.103340
0.094610 -0.178052 -0.107277
0.093923 -0.178620 -0.109790
0.094174 -0.179753 -0.113702
0.094423 -0.180882 -0.117598
0.093740 -0.181445 -0.120087
0.093989 -0.182567 -0.123958
0.093309 -0.183126 -0.126434
0.093558 -0.184241 -0.130280
0.093806 -0.185352 -0.134111
0.093130 -0.185905 -0.136563
0.092455 -0.186458 -0.139011
0.092704 -0.187559 -0.142809
0.092031 -0.188108 -0.145243
0.092281 -0.189203 -0.149016
0.091611 -0.189749 -0.151437
0.091860 -0.190837 -0.155187
0.091192 -0.191380 -0.157594
0.091442 -0.192462 -0.161320
0.090777 -0.193001 -0.163714
0.091027 -0.194076 -0.167417
0.090364 -0.194612 -0.169797
0.090613 -0.195681 -0.173477
0.090862 -0.196746 -0.177143
0.090203 -0.197277 -0.179502
0.090452 -0.198335 -0.183144
0.089795 -0.198863 -0.185490
0.090044 -0.199915 -0.189110
0.090292 -0.200963 -0.192716
0.089638 -0.201486 -0.195041
0.089886 -0.202528 -0.198625
0.089234 -0.203047 -0.200938
0.088584 -0.203565 -0.203246
0.088833 -0.204599 -0.206799
0.088186 -0.205114 -0.209095
0.087539 -0.205629 -0.211386
0.086894 -0.206142 -0.213673
0.086249 -0.206654 -0.215955
0.084710 -0.206654 -0.217000
0.084068 -0.207166 -0.219277
0.083428 -0.207676 -0.221550
0.082789 -0.208186 -0.223818
0.082152 -0.208694 -0.226081
0.080618 -0.208694 -0.227122
0.079983 -0.209201 -0.229381
0.078451 -0.209201 -0.230421
0.077819 -0.209708 -0.232674
0.077188 -0.210213 -0.234922
0.075658 -0.210213 -0.235960
0.075030 -0.210718 -0.238203
0.073502 -0.210718 -0.239241
0.072877 -0.211221 -0.241478
0.071350 -0.211221 -0.242515
0.070727 -0.211724 -0.244747
0.070106 -0.212225 -0.246975
0.068582 -0.212225 -0.248009
0.067963 -0.212726 -0.250232
0.066441 -0.212726 -0.251266
0.064919 -0.212726 -0.252299
0.064304 -0.213225 -0.254515
0.062784 -0.213225 -0.255548
0.062171 -0.213724 -0.257759
0.060652 -0.213724 -0.258790
0.059133 -0.213724 -0.259822
0.058525 -0.214222 -0.262027
0.057007 -0.214222 -0.263057
0.055490 -0.214222 -0.264087
0.054886 -0.214719 -0.266286
0.053370 -0.214719 -0.267315
0.052768 -0.215214 -0.269509
0.051253 -0.215214 -0.270537
0.049739 -0.215214 -0.271566
0.049141 -0.215709 -0.273753
0.047628 -0.215709 -0.274781
0.046115 -0.215709 -0.275808
0.045521 -0.216203 -0.277989
0.044009 -0.216203 -0.279016
0.043419 -0.216696 -0.281192
0.040986 -0.216203 -0.281068
0.039474 -0.216203 -0.282094
0.038888 -0.216696 -0.284268
0.037377 -0.216696 -0.285293
0.035867 -0.216696 -0.286318
0.034356 -0.216696 -0.287344
0.033775 -0.217188 -0.289510
0.032266 -0.217188 -0.290534
0.030758 -0.217188 -0.291559
0.029249 -0.217188 -0.292583
0.028673 -0.217679 -0.294742
0.027165 -0.217679 -0.295766
0.025658 -0.217679 -0.296789
0.025086 -0.218169 -0.298942
0.024516 -0.218659 -0.301091
0.023011 -0.218659 -0.302113
0.021506 -0.218659 -0.303134
0.020002 -0.218659 -0.304156
0.018497 -0.218659 -0.305177
0.016993 -0.218659 -0.306198
0.015488 -0.218659 -0.307220
0.013983 -0.218659 -0.308241
0.012479 -0.218659 -0.309263
0.010974 -0.218659 -0.310284
0.009470 -0.218659 -0.311305
0.007965 -0.218659 -0.312327
0.006460 -0.218659 -0.313348
0.004956 -0.218659 -0.314370
0.003451 -0.218659 -0.315391
0.001947 -0.218659 -0.316412
0.001398 -0.219147 -0.318543
-0.000105 -0.219147 -0.319563
-0.001608 -0.219147 -0.320584
-0.003111 -0.219147 -0.321604
-0.004614 -0.219147 -0.322625
-0.006117 -0.219147 -0.323645
-0.007621 -0.219147 -0.324665
-0.009124 -0.219147 -0.325686
-0.011595 -0.218659 -0.325605
-0.013099 -0.218659 -0.326626
-0.014604 -0.218659 -0.327648
-0.017083 -0.218169 -0.327568
-0.018589 -0.218169 -0.328591
-0.020095 -0.218169 -0.329613
-0.022581 -0.217679 -0.329536
-0.025072 -0.217188 -0.329458
-0.026581 -0.217188 -0.330483
-0.028090 -0.217188 -0.331507
-0.030588 -0.216696 -0.331431
-0.033092 -0.216203 -0.331355
-0.035600 -0.215709 -0.331279
-0.038113 -0.215214 -0.331203
-0.039627 -0.215214 -0.332231
-0.042147 -0.214719 -0.332156
-0.044671 -0.214222 -0.332081
-0.047200 -0.213724 -0.332005
-0.049733 -0.213225 -0.331929
-0.052272 -0.212726 -0.331853
-0.053794 -0.212726 -0.332887
-0.056339 -0.212225 -0.332812
-0.059917 -0.211221 -0.331625
-0.062475 -0.210718 -0.331548
-0.064003 -0.210718 -0.332586
-0.066568 -0.210213 -0.332510
-0.069137 -0.209708 -0.332434
-0.071712 -0.209201 -0.332358
-0.074292 -0.208694 -0.332282
-0.076876 -0.208186 -0.332206
-0.079466 -0.207676 -0.332130
-0.082061 -0.207166 -0.332053
-0.084660 -0.206654 -0.331976
-0.086200 -0.206654 -0.333022
-0.088806 -0.206142 -0.332946
-0.091418 -0.205629 -0.332870
-0.094034 -0.205114 -0.332794
-0.096656 -0.204599 -0.332718
-0.099282 -0.204083 -0.332641
-0.101914 -0.203565 -0.332565
-0.103463 -0.203565 -0.333616
-0.106101 -0.203047 -0.333540
-0.108745 -0.202528 -0.333465
-0.111394 -0.202007 -0.333389
-0.114048 -0.201486 -0.333313
-0.117814 -0.200440 -0.332102
-0.120482 -0.199915 -0.332025
-0.123155 -0.199390 -0.331947
-0.125834 -0.198863 -0.331869
-0.128518 -0.198335 -0.331791
-0.131208 -0.197807 -0.331713
-0.135034 -0.196746 -0.330491
-0.137737 -0.196214 -0.330411
-0.140447 -0.195681 -0.330331
-0.144306 -0.194612 -0.329102
-0.147030 -0.194076 -0.329021
-0.150914 -0.193001 -0.327785
-0.153653 -0.192462 -0.327702
-0.157562 -0.191380 -0.326460
-0.160316 -0.190837 -0.326375
-0.164250 -0.189749 -0.325127
-0.168200 -0.188656 -0.323873
-0.170978 -0.188108 -0.323786
-0.174954 -0.187009 -0.322526
-0.177747 -0.186458 -0.322437
-0.181749 -0.185352 -0.321170
-0.184558 -0.184797 -0.321079
-0.188585 -0.183684 -0.319806
-0.191409 -0.183126 -0.319713
-0.195463 -0.182006 -0.318434
-0.199533 -0.180882 -0.317149
-0.202383 -0.180318 -0.317053
-0.206480 -0.179187 -0.315761
-0.211845 -0.177482 -0.313262
-0.215982 -0.176339 -0.311955
-0.222674 -0.174040 -0.308217
-0.230705 -0.171138 -0.303221
0.392800 -0.118077 0.319393
0.392398 -0.119476 0.314065
0.391998 -0.120868 0.308760
0.390901 -0.121562 0.305508
0.389807 -0.122254 0.302262
0.388715 -0.122945 0.299025
0.387626 -0.123634 0.295794
0.387240 -0.125008 0.290567
0.386156 -0.125692 0.287357
0.385074 -0.126375 0.284154
0.383995 -0.127057 0.280959
0.382919 -0.127737 0.277770
0.381844 -0.128415 0.274589
0.380773 -0.129092 0.271415
0.379703 -0.129767 0.268248
0.378636 -0.130441 0.265088
0.377572 -0.131113 0.261935
0.376510 -0.131784 0.258789
0.375450 -0.132454 0.255651
0.373687 -0.132454 0.254454
0.372631 -0.133121 0.251324
0.370871 -0.133121 0.250128
0.369820 -0.133788 0.247006
0.368061 -0.133788 0.245812
0.367014 -0.134453 0.242698
0.365257 -0.134453 0.241506
0.363500 -0.134453 0.240313
0.361744 -0.134453 0.239121
0.359987 -0.134453 0.237928
0.358230 -0.134453 0.236735
0.357195 -0.135116 0.233635
0.355440 -0.135116 0.232444
0.353686 -0.135116 0.231253
0.351203 -0.134453 0.231965
0.349446 -0.134453 0.230773
0.347690 -0.134453 0.229580
0.345933 -0.134453 0.228387
0.343439 -0.133788 0.229098
0.341680 -0.133788 0.227904
0.339179 -0.133121 0.228614
0.336672 -0.132454 0.229326
0.334909 -0.132454 0.228130
0.333147 -0.132454 0.226933
0.330630 -0.131784 0.227644
0.328866 -0.131784 0.226446
0.326341 -0.131113 0.227158
0.323047 -0.129767 0.229787
0.320508 -0.129092 0.230504
0.317963 -0.128415 0.231223
0.315413 -0.127737 0.231944
0.312856 -0.127057 0.232666
0.309509 -0.125692 0.235326
0.306147 -0.124322 0.237997
0.302769 -0.122945 0.240681
0.152028 -0.052958 0.391327
0.153264 -0.055520 0.382904
0.154491 -0.058063 0.374544
0.154645 -0.059748 0.368559
0.154798 -0.061424 0.362603
0.153890 -0.062259 0.358968
0.152984 -0.063092 0.355342
0.152081 -0.063923 0.351725
0.151180 -0.064752 0.348118
0.149218 -0.064752 0.346786
0.148322 -0.065579 0.343189
0.148489 -0.067227 0.337347
0.146535 -0.067227 0.336021
0.145645 -0.068047 0.332450
0.144757 -0.068866 0.328888
0.142808 -0.068866 0.327565
0.140858 -0.068866 0.326241
0.138909 -0.068866 0.324918
0.136960 -0.068866 0.323595
0.135011 -0.068866 0.322272
0.133061 -0.068866 0.320948
0.131112 -0.068866 0.319625
0.129163 -0.068866 0.318302
0.127213 -0.068866 0.316978
0.125264 -0.068866 0.315655
0.123315 -0.068866 0.314332
0.121365 -0.068866 0.313009
0.119416 -0.068866 0.311685
0.117467 -0.068866 0.310362
0.114417 -0.068047 0.311251
0.112466 -0.068047 0.309926
0.110514 -0.068047 0.308602
0.107452 -0.067227 0.309490
0.104383 -0.066404 0.310380
0.102427 -0.066404 0.309052
0.100470 -0.066404 0.307724
0.097389 -0.065579 0.308613
0.095430 -0.065579 0.307283
0.092338 -0.064752 0.308173
0.090376 -0.064752 0.306842
0.087275 -0.063923 0.307732
0.085311 -0.063923 0.306399
0.081048 -0.062259 0.309520
0.079079 -0.062259 0.308183
0.075952 -0.061424 0.309079
0.073981 -0.061424 0.307741
0.072009 -0.061424 0.306402
0.068869 -0.060587 0.307297
0.065721 -0.059748 0.308193
0.062565 -0.058907 0.309092
0.060587 -0.058907 0.307749
0.057421 -0.058063 0.308648
0.054246 -0.057217 0.309550
0.052263 -0.057217 0.308204
0.049078 -0.056370 0.309106
0.047092 -0.056370 0.307758
0.043897 -0.055520 0.308660
0.040694 -0.054668 0.309565
0.037483 -0.053814 0.310473
0.035489 -0.053814 0.309119
0.032267 -0.052958 0.310027
0.029037 -0.052099 0.310938
0.025799 -0.051239 0.311850
0.022553 -0.050376 0.312765
0.020549 -0.050376 0.311405
0.017292 -0.049511 0.312320
0.012764 -0.047774 0.315523
0.008213 -0.046029 0.318743
0.003639 -0.044275 0.321979
0.083765 -0.166509 -0.065454
0.088857 -0.170643 -0.076939
0.090077 -0.172396 -0.082448
0.091289 -0.174138 -0.087923
0.091548 -0.175294 -0.091925
0.091805 -0.176444 -0.095909
0.092061 -0.177590 -0.099878
0.092316 -0.178732 -0.103830
0.092570 -0.179868 -0.107766
0.092823 -0.181000 -0.111686
0.092140 -0.181565 -0.114189
0.092393 -0.182690 -0.118084
0.092645 -0.183810 -0.121963
0.091966 -0.184369 -0.124443
0.092218 -0.185482 -0.128297
0.092469 -0.186591 -0.132136
0.091793 -0.187144 -0.134593
0.091119 -0.187696 -0.137045
0.091371 -0.188796 -0.140850
0.090699 -0.189345 -0.143289
0.090952 -0.190438 -0.147070
0.090282 -0.190983 -0.149495
0.090535 -0.192070 -0.153253
0.089867 -0.192612 -0.155664
0.090120 -0.193693 -0.159398
0.089455 -0.194231 -0.161796
0.089708 -0.195305 -0.165507
0.089046 -0.195841 -0.167891
0.090210 -0.197440 -0.172883
0.089550 -0.197972 -0.175251
0.088891 -0.198502 -0.177615
0.089143 -0.199559 -0.181265
0.088487 -0.200086 -0.183615
0.088738 -0.201136 -0.187242
0.088989 -0.202183 -0.190855
0.088336 -0.202705 -0.193185
0.088587 -0.203745 -0.196775
0.087936 -0.204264 -0.199092
0.087287 -0.204782 -0.201404
0.087539 -0.205814 -0.204965
0.086891 -0.206329 -0.207264
0.086245 -0.206842 -0.209560
0.085601 -0.207355 -0.211850
0.084957 -0.207867 -0.214137
0.084315 -0.208377 -0.216419
0.082775 -0.208377 -0.217464
0.082136 -0.208887 -0.219740
0.081497 -0.209396 -0.222012
0.080860 -0.209904 -0.224280
0.079325 -0.209904 -0.225322
0.079590 -0.210916 -0.228802
0.078058 -0.210916 -0.229842
0.077426 -0.211421 -0.232095
0.075895 -0.211421 -0.233134
0.075266 -0.211925 -0.235382
0.073737 -0.211925 -0.236421
0.073110 -0.212427 -0.238663
0.071582 -0.212427 -0.239701
0.070959 -0.212929 -0.241938
0.070336 -0.213430 -0.244171
0.068811 -0.213430 -0.245206
0.068191 -0.213930 -0.247434
0.066668 -0.213930 -0.248468
0.065145 -0.213930 -0.249502
0.064529 -0.214429 -0.251724
0.063007 -0.214429 -0.252757
0.061485 -0.214429 -0.253790
0.060873 -0.214927 -0.256005
0.059353 -0.214927 -0.257038
0.058744 -0.215424 -0.259248
0.057225 -0.215424 -0.260279
0.055706 -0.215424 -0.261310
0.055101 -0.215920 -0.263514
0.053583 -0.215920 -0.264544
0.052065 -0.215920 -0.265574
0.051465 -0.216415 -0.267772
0.049948 -0.216415 -0.268801
0.049350 -0.216909 -0.270993
0.047835 -0.216909 -0.272022
0.046321 -0.216909 -0.273050
0.045727 -0.217403 -0.275236
0.044213 -0.217403 -0.276263
0.042700 -0.217403 -0.277291
0.042110 -0.217895 -0.279471
0.039674 -0.217403 -0.279345
0.039086 -0.217895 -0.281523
0.037575 -0.217895 -0.282549
0.036063 -0.217895 -0.283576
0.034551 -0.217895 -0.284602
0.033039 -0.217895 -0.285628
0.032459 -0.218386 -0.287798
0.030948 -0.218386 -0.288824
0.029438 -0.218386 -0.289849
0.027928 -0.218386 -0.290874
0.027353 -0.218877 -0.293037
0.025844 -0.218877 -0.294062
0.025271 -0.219366 -0.296219
0.024700 -0.219855 -0.298373
0.023194 -0.219855 -0.299396
0.021688 -0.219855 -0.300418
0.020182 -0.219855 -0.301440
0.018676 -0.219855 -0.302463
0.017170 -0.219855 -0.303485
0.015664 -0.219855 -0.304507
0.014158 -0.219855 -0.305530
0.012652 -0.219855 -0.306552
0.011146 -0.219855 -0.307575
0.009640 -0.219855 -0.308597
0.008134 -0.219855 -0.309619
0.006628 -0.219855 -0.310642
0.005122 -0.219855 -0.311664
0.003615 -0.219855 -0.312686
0.002109 -0.219855 -0.313709
0.001561 -0.220342 -0.315844
0.000056 -0.220342 -0.316865
-0.001449 -0.220342 -0.317887
-0.002953 -0.220342 -0.318908
-0.004458 -0.220342 -0.319929
-0.005962 -0.220342 -0.320951
-0.007467 -0.220342 -0.321972
-0.008972 -0.220342 -0.322994
-0.011445 -0.219855 -0.322910
-0.012951 -0.219855 -0.323932
-0.014457 -0.219855 -0.324955
-0.016938 -0.219366 -0.324873
-0.018445 -0.219366 -0.325896
-0.019953 -0.219366 -0.326920
-0.022441 -0.218877 -0.326840
-0.023950 -0.218877 -0.327864
-0.026445 -0.218386 -0.327785
-0.028944 -0.217895 -0.327705
-0.031448 -0.217403 -0.327626
-0.032961 -0.217403 -0.328653
-0.035472 -0.216909 -0.328574
-0.037987 -0.216415 -0.328496
-0.040507 -0.215920 -0.328417
-0.043032 -0.215424 -0.328338
-0.045562 -0.214927 -0.328258
-0.047082 -0.214927 -0.329290
-0.049618 -0.214429 -0.329212
-0.052159 -0.213930 -0.329133
-0.054705 -0.213430 -0.329055
-0.057256 -0.212929 -0.328976
-0.058782 -0.212929 -0.330012
-0.062372 -0.211925 -0.328818
-0.064938 -0.211421 -0.328738
-0.067508 -0.210916 -0.328659
-0.070084 -0.210410 -0.328579
-0.072664 -0.209904 -0.328499
-0.074200 -0.209904 -0.329542
-0.076787 -0.209396 -0.329463
-0.079379 -0.208887 -0.329383
-0.081976 -0.208377 -0.329304
-0.084578 -0.207867 -0.329225
-0.087185 -0.207355 -0.329145
-0.089797 -0.206842 -0.329066
-0.092415 -0.206329 -0.328986
-0.095037 -0.205814 -0.328906
-0.096585 -0.205814 -0.329956
-0.099214 -0.205298 -0.329877
-0.101848 -0.204782 -0.329797
-0.104488 -0.204264 -0.329718
-0.107132 -0.203745 -0.329638
-0.109782 -0.203226 -0.329559
-0.112437 -0.202705 -0.329479
-0.116204 -0.201660 -0.328260
-0.118873 -0.201136 -0.328178
-0.121547 -0.200612 -0.328097
-0.124227 -0.200086 -0.328015
-0.126912 -0.199559 -0.327933
-0.129603 -0.199031 -0.327851
-0.133429 -0.197972 -0.326620
-0.136134 -0.197440 -0.326536
-0.139985 -0.196375 -0.325300
-0.142705 -0.195841 -0.325214
-0.146580 -0.194769 -0.323971
-0.149315 -0.194231 -0.323884
-0.153215 -0.193153 -0.322634
-0.155964 -0.192612 -0.322546
-0.159890 -0.191527 -0.321290
-0.162654 -0.190983 -0.321200
-0.166605 -0.189892 -0.319937
-0.169384 -0.189345 -0.319846
-0.173361 -0.188247 -0.318576
-0.176156 -0.187696 -0.318483
-0.180158 -0.186591 -0.317207
-0.184176 -0.185482 -0.315926
-0.186996 -0.184926 -0.315830
-0.191041 -0.183810 -0.314542
-0.193876 -0.183250 -0.314444
-0.197948 -0.182128 -0.313149
-0.200799 -0.181565 -0.313049
-0.204897 -0.180435 -0.311748
-0.211515 -0.178162 -0.308024
-0.215660 -0.177018 -0.306704
-0.222364 -0.174717 -0.302936
-0.231700 -0.171228 -0.296665
0.393038 -0.120795 0.318019
0.392636 -0.122186 0.312699
0.391537 -0.122879 0.309439
0.390441 -0.123570 0.306186
0.390047 -0.124949 0.300917
0.388956 -0.125636 0.297684
0.387868 -0.126321 0.294459
0.386782 -0.127005 0.291241
0.385699 -0.127687 0.288030
0.385318 -0.129047 0.282838
0.384240 -0.129725 0.279648
0.383164 -0.130401 0.276464
0.382091 -0.131075 0.273288
0.381020 -0.131749 0.270119
0.379951 -0.132420 0.266957
0.378885 -0.133090 0.263802
0.377822 -0.133759 0.260654
0.376760 -0.134426 0.257513
0.374998 -0.134426 0.256317
0.373235 -0.134426 0.255120
0.372180 -0.135092 0.251989
0.370419 -0.135092 0.250794
0.369368 -0.135756 0.247671
0.367610 -0.135756 0.246477
0.366563 -0.136419 0.243362
0.364807 -0.136419 0.242169
0.363050 -0.136419 0.240977
0.361293 -0.136419 0.239784
0.359536 -0.136419 0.238592
0.358500 -0.137080 0.235489
0.356745 -0.137080 0.234298
0.354990 -0.137080 0.233107
0.353235 -0.137080 0.231916
0.351481 -0.137080 0.230724
0.348996 -0.136419 0.231436
0.347239 -0.136419 0.230244
0.345482 -0.136419 0.229051
0.342988 -0.135756 0.229762
0.341229 -0.135756 0.228568
0.338727 -0.135092 0.229280
0.336220 -0.134426 0.229992
0.334457 -0.134426 0.228796
0.332695 -0.134426 0.227599
0.330178 -0.133759 0.228311
0.328413 -0.133759 0.227113
0.325888 -0.133090 0.227825
0.322593 -0.131749 0.230456
0.320053 -0.131075 0.231174
0.317508 -0.130401 0.231894
0.314957 -0.129725 0.232615
0.311618 -0.128368 0.235272
0.309052 -0.127687 0.235999
0.305689 -0.126321 0.238672
0.301511 -0.124260 0.243313
0.149520 -0.055191 0.390726
0.150766 -0.057745 0.382305
0.150930 -0.059437 0.376278
0.151093 -0.061121 0.370281
0.151255 -0.062796 0.364313
0.150350 -0.063630 0.360672
0.149448 -0.064463 0.357039
0.148548 -0.065293 0.353416
0.147649 -0.066121 0.349801
0.146754 -0.066947 0.346196
0.145860 -0.067771 0.342599
0.144969 -0.068593 0.339011
0.144080 -0.069413 0.335432
0.142125 -0.069413 0.334106
0.141241 -0.070231 0.330538
0.139289 -0.070231 0.329213
0.138409 -0.071048 0.325655
0.136460 -0.071048 0.324331
0.133434 -0.070231 0.325238
0.131482 -0.070231 0.323913
0.129531 -0.070231 0.322588
0.127579 -0.070231 0.321263
0.125627 -0.070231 0.319938
0.123675 -0.070231 0.318613
0.121724 -0.070231 0.317288
0.120865 -0.071048 0.313745
0.117820 -0.070231 0.314639
0.115869 -0.070231 0.313314
0.113917 -0.070231 0.311989
0.110859 -0.069413 0.312881
0.108905 -0.069413 0.311555
0.105838 -0.068593 0.312448
0.103881 -0.068593 0.311119
0.100804 -0.067771 0.312013
0.098845 -0.067771 0.310683
0.096886 -0.067771 0.309353
0.093796 -0.066947 0.310246
0.091835 -0.066947 0.308914
0.088735 -0.066121 0.309807
0.086771 -0.066121 0.308474
0.083661 -0.065293 0.309368
0.080543 -0.064463 0.310264
0.077417 -0.063630 0.311162
0.075446 -0.063630 0.309823
0.072310 -0.062796 0.310722
0.070337 -0.062796 0.309382
0.068363 -0.062796 0.308042
0.065214 -0.061959 0.308940
0.062058 -0.061121 0.309840
0.060079 -0.061121 0.308497
0.056913 -0.060280 0.309397
0.053738 -0.059437 0.310300
0.050555 -0.058592 0.311204
0.048569 -0.058592 0.309856
0.045376 -0.057745 0.310761
0.043387 -0.057745 0.309412
0.040183 -0.056896 0.310318
0.036971 -0.056045 0.311226
0.033751 -0.055191 0.312137
0.031755 -0.055191 0.310782
0.028525 -0.054336 0.311693
0.025286 -0.053478 0.312606
0.023285 -0.053478 0.311248
0.018784 -0.051756 0.314440
0.015520 -0.050891 0.315360
0.012248 -0.050025 0.316283
0.008968 -0.049156 0.317208
0.004402 -0.047412 0.320436
-0.001478 -0.044779 0.325997
0.084859 -0.171319 -0.074494
0.087053 -0.173656 -0.081484
0.088276 -0.175396 -0.086968
0.089491 -0.177125 -0.092417
0.089752 -0.178272 -0.096401
0.090013 -0.179415 -0.100369
0.091214 -0.181119 -0.105738
0.090530 -0.181685 -0.108255
0.090787 -0.182813 -0.112174
0.091044 -0.183937 -0.116076
0.091299 -0.185056 -0.119963
0.090620 -0.185614 -0.122448
0.090875 -0.186726 -0.126310
0.090199 -0.187281 -0.128781
0.090454 -0.188386 -0.132618
0.090708 -0.189487 -0.136440
0.090036 -0.190036 -0.138888
0.089364 -0.190584 -0.141331
0.089620 -0.191676 -0.145120
0.088951 -0.192220 -0.147550
0.089206 -0.193306 -0.151315
0.088540 -0.193847 -0.153731
0.088795 -0.194926 -0.157472
0.088131 -0.195464 -0.159875
0.088387 -0.196537 -0.163593
0.087725 -0.197071 -0.165982
0.087981 -0.198137 -0.169677
0.088235 -0.199199 -0.173357
0.088489 -0.200257 -0.177022
0.087832 -0.200784 -0.179381
0.087176 -0.201311 -0.181736
0.087431 -0.202360 -0.185370
0.087684 -0.203405 -0.188991
0.087032 -0.203927 -0.191324
0.087285 -0.204966 -0.194922
0.086635 -0.205484 -0.197243
0.085986 -0.206001 -0.199559
0.086241 -0.207032 -0.203127
0.085594 -0.207546 -0.205430
0.084949 -0.208059 -0.207730
0.084305 -0.208571 -0.210025
0.083662 -0.209082 -0.212315
0.083021 -0.209592 -0.214601
0.081479 -0.209592 -0.215647
0.080840 -0.210101 -0.217927
0.080203 -0.210609 -0.220203
0.079567 -0.211116 -0.222475
0.078931 -0.211622 -0.224742
0.077396 -0.211622 -0.225784
0.076764 -0.212127 -0.228046
0.076133 -0.212631 -0.230303
0.075503 -0.213134 -0.232556
0.074874 -0.213636 -0.234805
0.073345 -0.213636 -0.235843
0.071815 -0.213636 -0.236881
0.071191 -0.214137 -0.239123
0.070567 -0.214637 -0.241361
0.069041 -0.214637 -0.242397
0.067515 -0.214637 -0.243434
0.066895 -0.215137 -0.245665
0.065370 -0.215137 -0.246700
0.064754 -0.215635 -0.248927
0.063230 -0.215635 -0.249961
0.061707 -0.215635 -0.250995
0.061094 -0.216132 -0.253215
0.059573 -0.216132 -0.254248
0.058963 -0.216628 -0.256463
0.057442 -0.216628 -0.257495
0.055922 -0.216628 -0.258527
0.055316 -0.217124 -0.260736
0.053797 -0.217124 -0.261767
0.052278 -0.217124 -0.262798
0.051676 -0.217618 -0.265001
0.050159 -0.217618 -0.266031
0.048641 -0.217618 -0.267061
0.048043 -0.218112 -0.269257
0.046527 -0.218112 -0.270287
0.045932 -0.218604 -0.272478
0.044418 -0.218604 -0.273506
0.042903 -0.218604 -0.274534
0.042312 -0.219096 -0.276719
0.039874 -0.218604 -0.276590
0.038359 -0.218604 -0.277619
0.037772 -0.219096 -0.279801
0.036259 -0.219096 -0.280828
0.034746 -0.219096 -0.281855
0.033233 -0.219096 -0.282882
0.032651 -0.219587 -0.285057
0.031140 -0.219587 -0.286083
0.029628 -0.219587 -0.287110
0.029051 -0.220076 -0.289278
0.027540 -0.220076 -0.290304
0.026030 -0.220076 -0.291329
0.025457 -0.220565 -0.293491
0.023948 -0.220565 -0.294516
0.023377 -0.221053 -0.296673
0.021870 -0.221053 -0.297697
0.020362 -0.221053 -0.298720
0.018855 -0.221053 -0.299743
0.017347 -0.221053 -0.300767
0.015840 -0.221053 -0.301790
0.014332 -0.221053 -0.302813
0.012825 -0.221053 -0.303837
0.011317 -0.221053 -0.304860
0.009810 -0.221053 -0.305883
0.008303 -0.221053 -0.306907
0.006795 -0.221053 -0.307930
0.005288 -0.221053 -0.308953
0.003780 -0.221053 -0.309977
0.002273 -0.221053 -0.311000
0.000765 -0.221053 -0.312023
0.000217 -0.221540 -0.314162
-0.001289 -0.221540 -0.315184
-0.002795 -0.221540 -0.316207
-0.004301 -0.221540 -0.317229
-0.005807 -0.221540 -0.318252
-0.008280 -0.221053 -0.318163
-0.009787 -0.221053 -0.319187
-0.011295 -0.221053 -0.320210
-0.012802 -0.221053 -0.321233
-0.015284 -0.220565 -0.321148
-0.016793 -0.220565 -0.322172
-0.018301 -0.220565 -0.323197
-0.020791 -0.220076 -0.323113
-0.022301 -0.220076 -0.324138
-0.024796 -0.219587 -0.324055
-0.027297 -0.219096 -0.323972
-0.028810 -0.219096 -0.325000
-0.031316 -0.218604 -0.324917
-0.033828 -0.218112 -0.324835
-0.036344 -0.217618 -0.324753
-0.038864 -0.217124 -0.324670
-0.040384 -0.217124 -0.325701
-0.042911 -0.216628 -0.325619
-0.045443 -0.216132 -0.325537
-0.047980 -0.215635 -0.325455
-0.050522 -0.215137 -0.325373
-0.053068 -0.214637 -0.325291
-0.054595 -0.214637 -0.326327
-0.057148 -0.214137 -0.326245
-0.059706 -0.213636 -0.326163
-0.063304 -0.212631 -0.324959
-0.065876 -0.212127 -0.324876
-0.067410 -0.212127 -0.325917
-0.069988 -0.211622 -0.325835
-0.072571 -0.211116 -0.325752
-0.075158 -0.210609 -0.325670
-0.077751 -0.210101 -0.325587
-0.080350 -0.209592 -0.325504
-0.082953 -0.209082 -0.325421
-0.084495 -0.209082 -0.326468
-0.087105 -0.208571 -0.326385
-0.089720 -0.208059 -0.326303
-0.092340 -0.207546 -0.326220
-0.094965 -0.207032 -0.326138
-0.097595 -0.206517 -0.326055
-0.100230 -0.206001 -0.325971
-0.102871 -0.205484 -0.325888
-0.105516 -0.204966 -0.325805
-0.108167 -0.204447 -0.325721
-0.110823 -0.203927 -0.325637
-0.114590 -0.202883 -0.324409
-0.117261 -0.202360 -0.324324
-0.119936 -0.201836 -0.324239
-0.122617 -0.201311 -0.324153
-0.125303 -0.200784 -0.324067
-0.127995 -0.200257 -0.323981
-0.131822 -0.199199 -0.322741
-0.135664 -0.198137 -0.321497
-0.138380 -0.197605 -0.321408
-0.142247 -0.196537 -0.320157
-0.144977 -0.196001 -0.320066
-0.148868 -0.194926 -0.318809
-0.151613 -0.194387 -0.318717
-0.155530 -0.193306 -0.317453
-0.158290 -0.192764 -0.317359
-0.162232 -0.191676 -0.316089
-0.165007 -0.191130 -0.315993
-0.168975 -0.190036 -0.314716
-0.171765 -0.189487 -0.314619
-0.175758 -0.188386 -0.313335
-0.178564 -0.187834 -0.313236
-0.182583 -0.186726 -0.311946
-0.186619 -0.185614 -0.310650
-0.189450 -0.185056 -0.310548
-0.193512 -0.183937 -0.309246
-0.196358 -0.183376 -0.309142
-0.200447 -0.182250 -0.307833
-0.204553 -0.181119 -0.306518
-0.209928 -0.179415 -0.303982
-0.215337 -0.177700 -0.301431
-0.223330 -0.174817 -0.296400
-0.231406 -0.171905 -0.291316
0.392276 -0.120721 0.326113
0.393275 -0.123506 0.316648
0.392174 -0.124199 0.313379
0.391775 -0.125579 0.308082
0.390680 -0.126266 0.304834
0.389588 -0.126953 0.301593
0.388497 -0.127637 0.298360
0.387410 -0.128320 0.295134
0.386324 -0.129002 0.291915
0.385941 -0.130360 0.286708
0.384861 -0.131037 0.283510
0.383784 -0.131713 0.280319
0.382709 -0.132387 0.277135
0.381636 -0.133059 0.273958
0.380566 -0.133730 0.270788
0.379498 -0.134399 0.267625
0.378432 -0.135067 0.264469
0.377369 -0.135734 0.261321
0.376308 -0.136399 0.258179
0.375250 -0.137062 0.255045
0.373489 -0.137062 0.253849
0.371728 -0.137062 0.252654
0.370676 -0.137724 0.249529
0.368917 -0.137724 0.248335
0.367869 -0.138384 0.245218
0.366824 -0.139043 0.242109
0.365069 -0.139043 0.240917
0.363314 -0.139043 0.239726
0.360842 -0.138384 0.240448
0.359805 -0.139043 0.237344
0.358050 -0.139043 0.236152
0.356295 -0.139043 0.234961
0.354540 -0.139043 0.233770
0.352785 -0.139043 0.232579
0.351031 -0.139043 0.231387
0.348545 -0.138384 0.232100
0.346788 -0.138384 0.230907
0.345032 -0.138384 0.229715
0.343275 -0.138384 0.228522
0.340778 -0.137724 0.229233
0.338276 -0.137062 0.229945
0.336515 -0.137062 0.228750
0.334005 -0.136399 0.229462
0.332242 -0.136399 0.228265
0.329725 -0.135734 0.228978
0.327960 -0.135734 0.227780
0.325435 -0.135067 0.228493
0.322139 -0.133730 0.231125
0.319599 -0.133059 0.231844
0.317053 -0.132387 0.232564
0.314501 -0.131713 0.233287
0.311162 -0.130360 0.235944
0.308595 -0.129682 0.236673
0.304437 -0.127637 0.241296
0.301052 -0.126266 0.243990
0.147012 -0.057425 0.390125
0.148267 -0.059970 0.381707
0.148437 -0.061657 0.375681
0.148607 -0.063335 0.369685
0.148775 -0.065004 0.363719
0.147873 -0.065836 0.360078
0.146974 -0.066666 0.356447
0.146077 -0.067493 0.352824
0.145182 -0.068319 0.349210
0.143218 -0.068319 0.347877
0.143399 -0.069964 0.342009
0.141440 -0.069964 0.340679
0.140554 -0.070783 0.337094
0.139670 -0.071600 0.333518
0.137716 -0.071600 0.332191
0.136837 -0.072416 0.328625
0.134885 -0.072416 0.327300
0.131854 -0.071600 0.328211
0.129900 -0.071600 0.326885
0.127945 -0.071600 0.325558
0.125991 -0.071600 0.324232
0.124037 -0.071600 0.322905
0.123175 -0.072416 0.319351
0.121223 -0.072416 0.318026
0.118175 -0.071600 0.318926
0.116221 -0.071600 0.317599
0.114267 -0.071600 0.316273
0.112312 -0.071600 0.314946
0.109249 -0.070783 0.315843
0.107293 -0.070783 0.314515
0.105336 -0.070783 0.313187
0.102261 -0.069964 0.314083
0.100302 -0.069964 0.312753
0.098343 -0.069964 0.311423
0.095255 -0.069142 0.312318
0.093293 -0.069142 0.310987
0.091332 -0.069142 0.309655
0.088231 -0.068319 0.310549
0.085123 -0.067493 0.311445
0.080854 -0.065836 0.314583
0.078883 -0.065836 0.313244
0.076912 -0.065836 0.311906
0.073778 -0.065004 0.312807
0.071804 -0.065004 0.311468
0.069831 -0.065004 0.310128
0.067857 -0.065004 0.308788
0.064708 -0.064171 0.309687
0.061550 -0.063335 0.310587
0.058385 -0.062497 0.311490
0.056404 -0.062497 0.310145
0.053229 -0.061657 0.311049
0.050045 -0.060815 0.311955
0.048059 -0.060815 0.310606
0.044866 -0.059970 0.311513
0.042877 -0.059970 0.310163
0.039673 -0.059124 0.311070
0.036460 -0.058276 0.311979
0.033239 -0.057425 0.312891
0.030011 -0.056572 0.313805
0.028012 -0.056572 0.312448
0.024773 -0.055717 0.313362
0.021525 -0.054860 0.314279
0.019521 -0.054860 0.312919
0.015005 -0.053139 0.316119
0.011733 -0.052276 0.317043
0.008452 -0.051410 0.317969
0.003884 -0.049671 0.321199
-0.000707 -0.047924 0.324445
0.084022 -0.174918 -0.080518
0.086213 -0.177234 -0.087462
0.087434 -0.178957 -0.092910
0.087700 -0.180100 -0.096893
0.087965 -0.181239 -0.100859
0.088228 -0.182373 -0.104809
0.089432 -0.184065 -0.110154
0.089691 -0.185187 -0.114065
0.089012 -0.185746 -0.116563
0.089271 -0.186862 -0.120449
0.089529 -0.187973 -0.124319
0.089787 -0.189079 -0.128174
0.089112 -0.189630 -0.130640
0.089369 -0.190730 -0.134470
0.089626 -0.191825 -0.138284
0.088027 -0.191825 -0.139370
0.088285 -0.192916 -0.143166
0.087617 -0.193460 -0.145600
0.087875 -0.194544 -0.149373
0.087209 -0.195084 -0.151793
0.087468 -0.196162 -0.155542
0.086804 -0.196699 -0.157949
0.087063 -0.197770 -0.161675
0.086402 -0.198304 -0.164068
0.086660 -0.199369 -0.167770
0.086002 -0.199900 -0.170151
0.087174 -0.201486 -0.175131
0.086518 -0.202013 -0.177494
0.086774 -0.203063 -0.181144
0.086120 -0.203586 -0.183495
0.086377 -0.204630 -0.187122
0.085725 -0.205151 -0.189460
0.085981 -0.206188 -0.193065
0.085332 -0.206706 -0.195390
0.084684 -0.207222 -0.197710
0.084941 -0.208252 -0.201285
0.084295 -0.208765 -0.203593
0.083650 -0.209277 -0.205896
0.083007 -0.209788 -0.208195
0.082365 -0.210299 -0.210489
0.081724 -0.210808 -0.212779
0.081084 -0.211316 -0.215065
0.079543 -0.211316 -0.216111
0.078906 -0.211824 -0.218391
0.078270 -0.212330 -0.220666
0.077636 -0.212835 -0.222937
0.077002 -0.213340 -0.225204
0.075467 -0.213340 -0.226246
0.074837 -0.213843 -0.228507
0.074207 -0.214345 -0.230764
0.073579 -0.214847 -0.233017
0.072048 -0.214847 -0.234056
0.071423 -0.215347 -0.236303
0.070799 -0.215847 -0.238546
0.069271 -0.215847 -0.239583
0.067743 -0.215847 -0.240620
0.067123 -0.216345 -0.242857
0.065597 -0.216345 -0.243893
0.064070 -0.216345 -0.244929
0.063454 -0.216843 -0.247159
0.061929 -0.216843 -0.248195
0.061316 -0.217340 -0.250419
0.059793 -0.217340 -0.251454
0.058269 -0.217340 -0.252488
0.057660 -0.217835 -0.254706
0.056138 -0.217835 -0.255740
0.055532 -0.218330 -0.257953
0.054011 -0.218330 -0.258985
0.052491 -0.218330 -0.260017
0.051888 -0.218824 -0.262225
0.050369 -0.218824 -0.263256
0.048850 -0.218824 -0.264287
0.048252 -0.219317 -0.266488
0.046734 -0.219317 -0.267518
0.045217 -0.219317 -0.268548
0.044622 -0.219808 -0.270743
0.043106 -0.219808 -0.271772
0.042514 -0.220299 -0.273962
0.040074 -0.219808 -0.273831
0.038558 -0.219808 -0.274860
0.037970 -0.220299 -0.277046
0.036456 -0.220299 -0.278075
0.034941 -0.220299 -0.279103
0.033426 -0.220299 -0.280131
0.032844 -0.220789 -0.282311
0.031331 -0.220789 -0.283338
0.029818 -0.220789 -0.284365
0.029240 -0.221278 -0.286538
0.027728 -0.221278 -0.287565
0.026217 -0.221278 -0.288591
0.025643 -0.221767 -0.290758
0.024132 -0.221767 -0.291784
0.022622 -0.221767 -0.292809
0.021112 -0.221767 -0.293834
0.019601 -0.221767 -0.294859
0.019034 -0.222254 -0.297019
0.017525 -0.222254 -0.298043
0.016016 -0.222254 -0.299067
0.014507 -0.222254 -0.300092
0.012999 -0.222254 -0.301116
0.011490 -0.222254 -0.302140
0.009981 -0.222254 -0.303164
0.008472 -0.222254 -0.304189
0.006963 -0.222254 -0.305213
0.005454 -0.222254 -0.306237
0.003945 -0.222254 -0.307262
0.002436 -0.222254 -0.308286
0.000927 -0.222254 -0.309310
-0.000582 -0.222254 -0.310335
-0.002090 -0.222254 -0.311359
-0.003599 -0.222254 -0.312383
-0.004144 -0.222740 -0.314524
-0.006617 -0.222254 -0.314432
-0.008126 -0.222254 -0.315456
-0.009635 -0.222254 -0.316481
-0.011144 -0.222254 -0.317505
-0.012653 -0.222254 -0.318529
-0.015137 -0.221767 -0.318441
-0.016647 -0.221767 -0.319466
-0.018157 -0.221767 -0.320492
-0.020649 -0.221278 -0.320405
-0.022161 -0.221278 -0.321432
-0.024658 -0.220789 -0.321346
-0.027161 -0.220299 -0.321260
-0.029668 -0.219808 -0.321175
-0.032180 -0.219317 -0.321089
-0.033698 -0.219317 -0.322119
-0.036216 -0.218824 -0.322034
-0.038739 -0.218330 -0.321948
-0.041267 -0.217835 -0.321863
-0.043800 -0.217340 -0.321777
-0.046338 -0.216843 -0.321691
-0.047863 -0.216843 -0.322727
-0.050407 -0.216345 -0.322642
-0.052956 -0.215847 -0.322556
-0.055510 -0.215347 -0.322471
-0.058069 -0.214847 -0.322386
-0.059600 -0.214847 -0.323425
-0.062165 -0.214345 -0.323340
-0.065776 -0.213340 -0.322128
-0.068354 -0.212835 -0.322042
-0.070938 -0.212330 -0.321956
-0.072477 -0.212330 -0.323000
-0.075067 -0.211824 -0.322915
-0.077662 -0.211316 -0.322829
-0.080263 -0.210808 -0.322743
-0.082868 -0.210299 -0.322657
-0.085479 -0.209788 -0.322571
-0.088095 -0.209277 -0.322485
-0.090716 -0.208765 -0.322398
-0.093342 -0.208252 -0.322312
-0.094892 -0.208252 -0.323364
-0.097525 -0.207737 -0.323278
-0.101251 -0.206706 -0.322051
-0.103897 -0.206188 -0.321963
-0.106549 -0.205670 -0.321876
-0.109206 -0.205151 -0.321788
-0.112974 -0.204109 -0.320552
-0.115645 -0.203586 -0.320462
-0.118322 -0.203063 -0.320373
-0.121004 -0.202538 -0.320283
-0.123691 -0.202013 -0.320194
-0.126383 -0.201486 -0.320104
-0.131343 -0.199900 -0.317694
-0.134054 -0.199369 -0.317602
-0.136771 -0.198837 -0.317509
-0.140638 -0.197770 -0.316249
-0.143369 -0.197235 -0.316154
-0.147262 -0.196162 -0.314888
-0.150008 -0.195624 -0.314791
-0.153925 -0.194544 -0.313518
-0.156686 -0.194002 -0.313421
-0.160629 -0.192916 -0.312141
-0.163405 -0.192371 -0.312041
-0.167374 -0.191278 -0.310755
-0.171358 -0.190181 -0.309464
-0.174159 -0.189630 -0.309361
-0.178170 -0.188526 -0.308062
-0.180986 -0.187973 -0.307958
-0.185023 -0.186862 -0.306653
-0.187855 -0.186305 -0.306546
-0.191918 -0.185187 -0.305234
-0.195998 -0.184065 -0.303917
-0.200095 -0.182938 -0.302594
-0.204208 -0.181806 -0.301266
-0.209593 -0.180100 -0.298709
-0.215012 -0.178384 -0.296136
-0.224302 -0.174918 -0.289823
-0.232409 -0.171997 -0.284688
0.393216 -0.124136 0.322664
0.392813 -0.125521 0.317328
0.392412 -0.126900 0.312016
0.391315 -0.127587 0.308760
0.390220 -0.128272 0.305511
0.389128 -0.128956 0.302270
0.388039 -0.129639 0.299036
0.387651 -0.130999 0.293801
0.386567 -0.131677 0.290587
0.385485 -0.132353 0.287381
0.384405 -0.133027 0.284182
0.383328 -0.133701 0.280990
0.382254 -0.134372 0.277805
0.381181 -0.135043 0.274627
0.380112 -0.135711 0.271457
0.379044 -0.136378 0.268293
0.377979 -0.137044 0.265137
0.376916 -0.137708 0.261987
0.376559 -0.139032 0.256905
0.374798 -0.139032 0.255710
0.373037 -0.139032 0.254515
0.371277 -0.139032 0.253319
0.370225 -0.139692 0.250194
0.369176 -0.140350 0.247075
0.367419 -0.140350 0.245882
0.366374 -0.141007 0.242772
0.364619 -0.141007 0.241580
0.362864 -0.141007 0.240389
0.361109 -0.141007 0.239198
0.359355 -0.141007 0.238007
0.357600 -0.141007 0.236815
0.355845 -0.141007 0.235624
0.354814 -0.141663 0.232528
0.352335 -0.141007 0.233242
0.350581 -0.141007 0.232050
0.348826 -0.141007 0.230859
0.346338 -0.140350 0.231571
0.344581 -0.140350 0.230379
0.342824 -0.140350 0.229186
0.340327 -0.139692 0.229897
0.338568 -0.139692 0.228703
0.336063 -0.139032 0.229415
0.333553 -0.138371 0.230128
0.331790 -0.138371 0.228931
0.330028 -0.138371 0.227735
0.327508 -0.137708 0.228447
0.324219 -0.136378 0.231076
0.321685 -0.135711 0.231794
0.319144 -0.135043 0.232513
0.316598 -0.134372 0.233235
0.314046 -0.133701 0.233958
0.310705 -0.132353 0.236617
0.307349 -0.130999 0.239288
0.303978 -0.129639 0.241972
0.299790 -0.127587 0.246629
0.144504 -0.059659 0.389524
0.145769 -0.062196 0.381108
0.145945 -0.063876 0.375084
0.146121 -0.065549 0.369089
0.146295 -0.067213 0.363125
0.145397 -0.068042 0.359485
0.143426 -0.068042 0.358147
0.142532 -0.068869 0.354517
0.141640 -0.069694 0.350897
0.140751 -0.070516 0.347286
0.139863 -0.071337 0.343683
0.138978 -0.072156 0.340090
0.138095 -0.072972 0.336505
0.136139 -0.072972 0.335177
0.135261 -0.073787 0.331603
0.133307 -0.073787 0.330276
0.131352 -0.073787 0.328950
0.129398 -0.073787 0.327623
0.127444 -0.073787 0.326297
0.125490 -0.073787 0.324970
0.123536 -0.073787 0.323644
0.121582 -0.073787 0.322317
0.119628 -0.073787 0.320990
0.117674 -0.073787 0.319664
0.115719 -0.073787 0.318337
0.112660 -0.072972 0.319239
0.110704 -0.072972 0.317911
0.107635 -0.072156 0.318812
0.105676 -0.072156 0.317483
0.103717 -0.072156 0.316153
0.101758 -0.072156 0.314823
0.099799 -0.072156 0.313493
0.096713 -0.071337 0.314391
0.094751 -0.071337 0.313059
0.092790 -0.071337 0.311728
0.089691 -0.070516 0.312624
0.087727 -0.070516 0.311291
0.083471 -0.068869 0.314424
0.080349 -0.068042 0.315327
0.078377 -0.068042 0.313989
0.075245 -0.067213 0.314893
0.073272 -0.067213 0.313553
0.071298 -0.067213 0.312213
0.068153 -0.066382 0.313116
0.066177 -0.066382 0.311775
0.064201 -0.066382 0.310433
0.061043 -0.065549 0.311335
0.057877 -0.064714 0.312239
0.054704 -0.063876 0.313145
0.052720 -0.063876 0.311798
0.049536 -0.063037 0.312705
0.046344 -0.062196 0.313614
0.044356 -0.062196 0.312264
0.041153 -0.061352 0.313174
0.039162 -0.061352 0.311822
0.035949 -0.060506 0.312732
0.032727 -0.059659 0.313645
0.029498 -0.058809 0.314560
0.027499 -0.058809 0.313203
0.024259 -0.057957 0.314118
0.021011 -0.057102 0.315036
0.017755 -0.056246 0.315956
0.015748 -0.056246 0.314594
0.012481 -0.055387 0.315515
0.009205 -0.054526 0.316438
0.004645 -0.052798 0.319660
0.000062 -0.051061 0.322898
0.078078 -0.174437 -0.075139
0.082230 -0.177920 -0.085051
0.085378 -0.180789 -0.093403
0.085647 -0.181928 -0.097385
0.085916 -0.183063 -0.101350
0.086184 -0.184193 -0.105299
0.087394 -0.185880 -0.110642
0.087658 -0.186998 -0.114552
0.087920 -0.188112 -0.118446
0.087244 -0.188667 -0.120935
0.087506 -0.189774 -0.124804
0.087768 -0.190877 -0.128657
0.088028 -0.191975 -0.132495
0.088287 -0.193069 -0.136317
0.087617 -0.193614 -0.138765
0.087876 -0.194701 -0.142564
0.086280 -0.194701 -0.143647
0.086542 -0.195784 -0.147427
0.085876 -0.196324 -0.149852
0.086138 -0.197400 -0.153609
0.085475 -0.197937 -0.156020
0.085736 -0.199007 -0.159753
0.085076 -0.199540 -0.162151
0.085337 -0.200603 -0.165860
0.084680 -0.201133 -0.168245
0.085857 -0.202717 -0.173236
0.085201 -0.203243 -0.175604
0.085461 -0.204292 -0.179261
0.084807 -0.204815 -0.181616
0.085066 -0.205857 -0.185250
0.084415 -0.206377 -0.187592
0.084675 -0.207413 -0.191205
0.084026 -0.207930 -0.193534
0.084285 -0.208960 -0.197124
0.083638 -0.209474 -0.199440
0.082993 -0.209986 -0.201752
0.082349 -0.210498 -0.204059
0.081706 -0.211009 -0.206362
0.081065 -0.211518 -0.208660
0.080424 -0.212027 -0.210954
0.079785 -0.212534 -0.213244
0.078243 -0.212534 -0.214291
0.077606 -0.213041 -0.216575
0.076971 -0.213547 -0.218854
0.076337 -0.214051 -0.221129
0.075705 -0.214555 -0.223400
0.074168 -0.214555 -0.224443
0.073538 -0.215058 -0.226708
0.072909 -0.215559 -0.228969
0.072282 -0.216060 -0.231226
0.070750 -0.216060 -0.232266
0.071031 -0.217059 -0.235725
0.069501 -0.217059 -0.236764
0.067972 -0.217059 -0.237802
0.067351 -0.217557 -0.240043
0.065823 -0.217557 -0.241080
0.064296 -0.217557 -0.242117
0.063679 -0.218054 -0.244353
0.062152 -0.218054 -0.245389
0.061538 -0.218549 -0.247618
0.060013 -0.218549 -0.248654
0.058489 -0.218549 -0.249689
0.057879 -0.219044 -0.251912
0.056355 -0.219044 -0.252946
0.054832 -0.219044 -0.253980
0.054226 -0.219538 -0.256198
0.052704 -0.219538 -0.257231
0.052101 -0.220032 -0.259443
0.050580 -0.220032 -0.260475
0.049060 -0.220032 -0.261507
0.048461 -0.220524 -0.263713
0.046942 -0.220524 -0.264744
0.045423 -0.220524 -0.265775
0.044827 -0.221015 -0.267975
0.043310 -0.221015 -0.269005
0.042717 -0.221505 -0.271199
0.041201 -0.221505 -0.272229
0.038757 -0.221015 -0.272096
0.038169 -0.221505 -0.274287
0.036653 -0.221505 -0.275316
0.035137 -0.221505 -0.276345
0.033621 -0.221505 -0.277375
0.033038 -0.221994 -0.279559
0.031523 -0.221994 -0.280587
0.030009 -0.221994 -0.281615
0.029430 -0.222483 -0.283793
0.027917 -0.222483 -0.284821
0.027341 -0.222970 -0.286994
0.025829 -0.222970 -0.288020
0.024317 -0.222970 -0.289046
0.022805 -0.222970 -0.290072
0.021293 -0.222970 -0.291099
0.019782 -0.222970 -0.292125
0.018270 -0.222970 -0.293151
0.016758 -0.222970 -0.294177
0.015246 -0.222970 -0.295204
0.013734 -0.222970 -0.296230
0.012223 -0.222970 -0.297256
0.010711 -0.222970 -0.298283
0.010152 -0.223457 -0.300441
0.008641 -0.223457 -0.301466
0.007131 -0.223457 -0.302491
0.005621 -0.223457 -0.303516
0.004110 -0.223457 -0.304542
0.002600 -0.223457 -0.305567
0.001090 -0.223457 -0.306592
-0.000421 -0.223457 -0.307618
-0.001931 -0.223457 -0.308643
-0.003441 -0.223457 -0.309668
-0.004952 -0.223457 -0.310693
-0.006462 -0.223457 -0.311719
-0.007972 -0.223457 -0.312744
-0.010454 -0.222970 -0.312650
-0.011966 -0.222970 -0.313677
-0.012503 -0.223457 -0.315820
-0.014989 -0.222970 -0.315729
-0.016501 -0.222970 -0.316755
-0.018013 -0.222970 -0.317782
-0.020507 -0.222483 -0.317693
-0.023005 -0.221994 -0.317603
-0.025509 -0.221505 -0.317514
-0.028017 -0.221015 -0.317425
-0.029534 -0.221015 -0.318455
-0.032049 -0.220524 -0.318366
-0.034568 -0.220032 -0.318277
-0.037092 -0.219538 -0.318188
-0.039621 -0.219044 -0.318099
-0.041144 -0.219044 -0.319133
-0.043679 -0.218549 -0.319045
-0.046219 -0.218054 -0.318956
-0.048764 -0.217557 -0.318868
-0.051314 -0.217059 -0.318779
-0.053869 -0.216560 -0.318690
-0.055400 -0.216560 -0.319729
-0.057961 -0.216060 -0.319641
-0.060528 -0.215559 -0.319552
-0.063099 -0.215058 -0.319464
-0.065675 -0.214555 -0.319375
-0.068256 -0.214051 -0.319286
-0.070843 -0.213547 -0.319197
-0.073434 -0.213041 -0.319108
-0.076030 -0.212534 -0.319018
-0.078632 -0.212027 -0.318929
-0.081238 -0.211518 -0.318839
-0.082784 -0.211518 -0.319888
-0.085397 -0.211009 -0.319799
-0.088015 -0.210498 -0.319710
-0.090639 -0.209986 -0.319621
-0.093267 -0.209474 -0.319532
-0.095901 -0.208960 -0.319442
-0.099627 -0.207930 -0.318206
-0.102275 -0.207413 -0.318115
-0.104928 -0.206896 -0.318023
-0.107586 -0.206377 -0.317932
-0.110249 -0.205857 -0.317840
-0.112918 -0.205337 -0.317748
-0.116704 -0.204292 -0.316500
-0.119387 -0.203768 -0.316406
-0.122075 -0.203243 -0.316312
-0.124769 -0.202717 -0.316219
-0.129729 -0.201133 -0.313795
-0.132441 -0.200603 -0.313699
-0.136300 -0.199540 -0.312431
-0.139027 -0.199007 -0.312333
-0.141759 -0.198472 -0.312234
-0.145652 -0.197400 -0.310958
-0.149561 -0.196324 -0.309678
-0.152318 -0.195784 -0.309576
-0.156252 -0.194701 -0.308289
-0.159023 -0.194158 -0.308185
-0.162983 -0.193069 -0.306891
